# .PCD v0.7 - Point Cloud Data file format
VERSION 0.7
FIELDS x y z
SIZE 4 4 4
TYPE F F F
COUNT 1 1 1
WIDTH 1686
HEIGHT 1
VIEWPOINT 0 0 0 1 0 0 0
POINTS 1686
DATA ascii
0.4189187 2.3346517 0.070977576
0.32921982 2.3162255 0.048106965
0.24528082 2.3279748 0.025535842
0.5192948 2.3881836 0.0069528935
0.41995248 2.3354888 -0.01619379
0.32679018 2.2925262 -0.03726732
0.24480644 2.3153284 -0.059706423
0.52003604 2.3855758 -0.082702681
0.41812122 2.3204215 -0.10207759
0.3328703 2.3250129 -0.12416
0.24686988 2.3294005 -0.14614287
0.52019548 2.3787251 -0.17189051
0.42441627 2.3483107 -0.19116324
0.32883599 2.2942655 -0.20770654
0.1617475 1.5218989 -0.15200588
0.49831572 2.2756293 -0.25068444
0.23001432 1.2695124 -0.15110494
0.19657293 1.3689237 -0.17505246
0.15722038 1.4758713 -0.20270614
0.26115409 1.1879328 -0.17622508
0.23152289 1.2737827 -0.19993696
0.18535113 1.2872623 -0.21383375
0.15404271 1.4438883 -0.2532461
0.25264108 1.1450152 -0.21442167
0.23116244 1.2684022 -0.24837235
0.18516695 1.2804378 -0.26190132
0.1497476 1.3994609 -0.29967624
0.25880128 1.1676062 -0.26522201
0.22290976 1.2199805 -0.28720692
0.19114734 1.320816 -0.32254732
0.11423644 1.0711267 -0.27195373
0.26007223 1.168128 -0.3130632
0.18478604 1.007055 -0.27823636
0 0 -0
0 0 -0
0.53185874 2.3756618 0.75210458
0.42918614 2.3324466 0.70439267
0.3326346 2.2938061 0.66387397
0.24760154 2.3118298 0.64177948
0.52578825 2.3554878 0.644382
0.43241417 2.3465378 0.61085761
0.33508086 2.2985282 0.5710991
0.25016925 2.3099108 0.54726356
0.52831489 2.3670013 0.55077952
0.4277713 2.3231628 0.51167911
0.33611986 2.2994697 0.48020032
0.25162023 2.3078794 0.45643899
0.52779597 2.3672025 0.4569554
0.42920324 2.3275177 0.42149901
0.33762929 2.3016553 0.39149937
0.25147533 2.2983594 0.36685875
0.53152531 2.3829498 0.36741316
0.43038189 2.3273039 0.3324585
0.33853078 2.2994158 0.3040064
0.25439051 2.3060162 0.28132671
0.53474116 2.3953996 0.27751306
0.43306863 2.341604 0.24612691
0.3402667 2.3047862 0.21858704
0.25581741 2.308599 0.19618818
0.53566295 2.3977575 0.18740629
0.43224257 2.3330386 0.15805487
0.34293607 2.3189452 0.13413751
0.25797844 2.3210695 0.11103161
0.53210157 2.3783042 0.096222587
0.43378368 2.3349857 0.071067311
0.34357247 2.3151507 0.048127521
0.25856251 2.317482 0.02543767
0.53918195 2.4083726 0.0070211715
0.43427485 2.3328679 -0.01619379
0.34232244 2.3003676 -0.03742823
0.25934204 2.3167632 -0.059783336
0.53488272 2.3833151 -0.082736529
0.43509915 2.3325438 -0.10272638
0.34535903 2.3110752 -0.12352654
0.26138073 2.3298256 -0.14626741
0.53762931 2.3881395 -0.17280595
0.43735087 2.3378241 -0.19052444
0.34275982 2.2912197 -0.20761728
0.16985904 1.5100002 -0.15091871
0.51226932 2.2725289 -0.25068444
0.25573981 1.3637444 -0.1625047
0.19894029 1.3274654 -0.16990386
0.16471925 1.461095 -0.2008117
0.2555514 1.1293576 -0.16776513
0.23385337 1.2432007 -0.19535825
0.19383262 1.2900039 -0.21448269
0.16422552 1.4546629 -0.25530779
0.24833448 1.0935618 -0.20506771
0.23348144 1.238012 -0.24269743
0.19477481 1.2909074 -0.26428223
0.15415061 1.3615848 -0.29176262
0.26226982 1.1498151 -0.2615414
0.22695257 1.2004019 -0.28292027
0.20055419 1.3282684 -0.32466164
0 0 -0
0.26075375 1.1382197 -0.30547071
0.21669927 1.1414763 -0.31573665
0 0 -0
0.085091442 0.75418806 -0.22280228
0.54685444 2.3742161 0.75269496
0.44546151 2.3401279 0.70752454
0.3478533 2.2993264 0.66607684
0.26189053 2.3112249 0.64204556
0.5486657 2.3889413 0.65444243
0.44716695 2.3457439 0.61135364
0.34932402 2.2973888 0.57133788
0.26500234 2.3141346 0.54863918
0.54937661 2.3922279 0.55742341
0.44256654 2.3233745 0.5123142
0.35037038 2.298332 0.48040268
0.2657764 2.3062921 0.45643899
0.54912275 2.3936121 0.46269509
0.44200075 2.3171041 0.42009637
0.35144737 2.2975905 0.39116743
0.26579997 2.2987354 0.36717221
0.55144554 2.402775 0.37098458
0.44670036 2.3353183 0.33398864
0.35428819 2.3080761 0.30543303
0.26842025 2.3034258 0.28120634
0.55832666 2.4308114 0.28200722
0.44929725 2.3486726 0.247155
0.35652253 2.3164313 0.21989481
0.26928297 2.3010476 0.1956832
0.55014187 2.3934536 0.18733022
0.45030537 2.3499417 0.15938418
0.35639784 2.3118637 0.13385189
0.27128398 2.3115065 0.11065169
0.55071908 2.3925221 0.096932709
0.44678253 2.3254089 0.070857935
0.35807717 2.3149753 0.048168641
0.27207562 2.3098936 0.025372224
0.55641824 2.4157381 0.0070524649
0.45009315 2.3380148 -0.016248383
0.35842288 2.3110688 -0.037637416
0.27507752 2.3280342 -0.060116604
0.56231201 2.4354956 -0.084666155
0.45205233 2.3435643 -0.10333194
0.36106947 2.3187799 -0.12405442
0.27602339 2.3311512 -0.1464542
0.55272263 2.386739 -0.17294678
0.45339105 2.3439045 -0.19124311
0.35849944 2.2998986 -0.20859914
0.19483957 1.6413438 -0.1641624
0.52485615 2.2635314 -0.2500425
0.25275975 1.3036462 -0.15552525
0.20509203 1.3134772 -0.16827138
0.17192572 1.4452988 -0.19878194
0.2687577 1.1547576 -0.17178002
0.23279902 1.1971173 -0.18833756
0.19716613 1.259544 -0.20961547
0.16382651 1.3753706 -0.2415631
0.26309365 1.1265022 -0.21154352
0.23994595 1.2307732 -0.24156244
0.20010509 1.2732279 -0.26090926
0.16029844 1.3421611 -0.28780583
0.27400193 1.1681443 -0.26608807
0.23749031 1.215241 -0.28675571
0.19979073 1.2703604 -0.31080127
0.13826361 1.1611079 -0.29520813
0.2681765 1.1384817 -0.3059769
0.24673793 1.2575467 -0.34825435
0.14257595 0.90501887 -0.25868317
0.089490607 0.75174618 -0.22223894
0.57902497 2.4451942 0.77630889
0.46073705 2.3420534 0.70894814
0.36285293 2.3028464 0.66772896
0.27572379 2.3067031 0.64124727
0.57352746 2.4287834 0.66630852
0.46061552 2.3382034 0.61011356
0.36462885 2.302875 0.57324785
0.27931327 2.3134313 0.54886842
0.56875062 2.4087424 0.56207412
0.45907938 2.3321226 0.51485461
0.3644661 2.296139 0.48040268
0.28075069 2.3114362 0.45778939
0.57011646 2.4169786 0.46787938
0.46344528 2.3510532 0.42675897
0.36848515 2.3138943 0.3943207
0.28097489 2.3058846 0.36858258
0.56458855 2.3926091 0.36994293
0.46313336 2.34322 0.33551881
0.36969525 2.3136921 0.30647063
0.28327447 2.3076472 0.28192857
0.5796259 2.4544177 0.28515309
0.46427864 2.348799 0.24746343
0.37025672 2.3112509 0.21961458
0.284372 2.3072639 0.19635652
0.56711066 2.3997369 0.1880908
0.46568483 2.3520284 0.15971652
0.37279072 2.3234339 0.13465168
0.28607458 2.314755 0.11088914
0.57528389 2.4309094 0.098629132
0.46610257 2.3481147 0.071635611
0.37608814 2.3364244 0.048662044
0.28698209 2.3141344 0.02543767
0.57560861 2.4307671 0.0071065179
0.46833161 2.3548245 -0.016384866
0.37371165 2.3157356 -0.037750054
0.28960368 2.3282866 -0.060167879
0.58393878 2.4601994 -0.085647888
0.46779031 2.347605 -0.10363471
0.37576953 2.319478 -0.12421279
0.29032186 2.3294137 -0.1464542
0.56666392 2.3803916 -0.17273553
0.46756908 2.3401008 -0.19116324
0.37547445 2.3153527 -0.21020579
0.23007318 1.8415527 -0.18432441
0.54150134 2.2718744 -0.25132641
0.26484966 1.3225222 -0.15796806
0.20328547 1.2514806 -0.1604857
0.17771392 1.4196385 -0.19539899
0.26708865 1.1165115 -0.16633123
0.23488572 1.169505 -0.18421671
0.20679383 1.2699975 -0.21156237
0.17557058 1.4007316 -0.24620195
0.27137834 1.1306058 -0.21262284
0.24555524 1.2196515 -0.2396708
0.21344753 1.3058311 -0.26785362
0.1665796 1.3256252 -0.28447378
0.2761313 1.145561 -0.26132488
0.24147353 1.1965715 -0.28269464
0.20664033 1.2633549 -0.30939174
0 0 -0
0.27288112 1.1274118 -0.30344605
0.24046241 1.1869664 -0.32911086
0 0 -0
0 0 -0
0.5987606 2.461091 0.78250754
0.47757939 2.3513949 0.71264946
0.38008517 2.3195505 0.67323601
0.28987226 2.3049679 0.64124727
0.59662038 2.4590197 0.6755951
0.4788152 2.3543196 0.6150738
0.37954092 2.3053854 0.57444167
0.29374817 2.3136051 0.54932702
0.59616494 2.4573295 0.57425463
0.47552148 2.339797 0.5171833
0.37934536 2.2986908 0.4814145
0.29405811 2.3028569 0.45643899
0.59558386 2.4573677 0.47639638
0.48080727 2.3626366 0.42938897
0.38138753 2.3038065 0.39299297
0.29574564 2.3090155 0.36936614
0.59114218 2.438112 0.37753227
0.47789827 2.3422744 0.33579698
0.38469708 2.3162708 0.30711907
0.29679361 2.3009429 0.28132671
0.59116036 2.4363301 0.28346777
0.47868186 2.345906 0.24746343
0.38737467 2.3266137 0.22129603
0.2980119 2.3015225 0.19601984
0.58747101 2.4194667 0.18991619
0.48290497 2.3628128 0.16064703
0.3878611 2.3260269 0.13493733
0.30117244 2.3198898 0.11122157
0.59160525 2.4331594 0.098865844
0.48491532 2.3667531 0.072293639
0.39025217 2.3330867 0.048641484
0.30195084 2.3182795 0.025503119
0.59902287 2.4621692 0.0072089336
0.48478243 2.361702 -0.016453108
0.38840976 2.3163574 -0.03779833
0.30453169 2.3314221 -0.060296055
0.59452462 2.4381216 -0.08500468
0.48339364 2.3505619 -0.10389423
0.39214918 2.3299305 -0.12489905
0.30447993 2.3265989 -0.14639194
0.58102214 2.3759007 -0.17266512
0.48755538 2.3645234 -0.19339909
0.38818493 2.3041658 -0.20940247
0.28213573 2.1509018 -0.21545695
0.558505 2.2810636 -0.25271732
0.27014551 1.307255 -0.15633953
0.21640792 1.282492 -0.16462968
0.1888742 1.437186 -0.19797002
0.27889356 1.1350343 -0.16934241
0.24185672 1.1670741 -0.18406411
0.20503819 1.2122747 -0.20215239
0.18069208 1.3732566 -0.2415631
0.27336589 1.1088624 -0.20884526
0.25103715 1.2085077 -0.23777916
0.21784703 1.2832383 -0.26348859
0.17100127 1.2964574 -0.27843443
0.27822867 1.1239439 -0.25677824
0.2476196 1.1893448 -0.28134099
0.21178369 1.2467307 -0.30563301
0.13783328 1.0478133 -0.26681328
0.28026038 1.1275941 -0.30395222
0.24556953 1.175078 -0.3262262
0 0 -0
0 0 -0
0.62056535 2.4842527 0.7910676
0.49553645 2.3653088 0.71777445
0.39592323 2.3266518 0.67598951
0.30413595 2.3041012 0.64151335
0.61730289 2.4778125 0.68178606
0.49583763 2.3636627 0.61829799
0.39531559 2.3125851 0.5768292
0.30806717 2.3127239 0.54955626
0.62042487 2.4905291 0.5828917
0.49588481 2.3655314 0.5235343
0.39460039 2.3030765 0.482831
0.30831289 2.3019817 0.45663187
0.616584 2.4775074 0.48102516
0.49751976 2.3702404 0.43131763
0.39835569 2.3179452 0.39581433
0.31069681 2.3130305 0.3703064
0.60776329 2.4411559 0.37857395
0.49266908 2.3412364 0.33607522
0.40193444 2.3314552 0.30945361
0.31197062 2.3069487 0.28228971
0.6178695 2.4799025 0.28897309
0.49654946 2.359472 0.24921119
0.40282997 2.3310604 0.22194992
0.31306633 2.3065627 0.19660902
0.61726063 2.4758008 0.19463176
0.50459647 2.3939772 0.16297333
0.40178552 2.3216355 0.13482307
0.31674805 2.3278956 0.11169647
0.61886722 2.4789267 0.10087788
0.4994283 2.3637331 0.072293639
0.40473133 2.3316333 0.048662044
0.31644034 2.3183646 0.025524937
0.62284386 2.4933739 0.0073113493
0.5023706 2.3733575 -0.016555471
0.4057005 2.3316617 -0.038087968
0.3173402 2.318615 -0.060014062
0.61845416 2.4702992 -0.086257242
0.49925801 2.354393 -0.104197
0.40540728 2.321578 -0.12458232
0.31807205 2.3197429 -0.14608061
0.357548 1.4241487 -0.10365541
0.50143278 2.3585622 -0.19315952
0.40283021 2.3046839 -0.20967026
0.30440471 2.2151814 -0.22207882
0.29666758 1.1802603 -0.13095936
0.25415358 1.1928895 -0.14284594
0.21452206 1.2254384 -0.15747187
0.17863631 1.2976022 -0.1788902
0.28125393 1.1150689 -0.166618
0.2479808 1.1607357 -0.18330099
0.21792948 1.2420948 -0.20734411
0.1834656 1.3311341 -0.23434715
0.28161249 1.112886 -0.20992458
0.24857856 1.160856 -0.2286993
0.22027777 1.2509888 -0.25713947
0.17828372 1.2905394 -0.27739316
0.28487942 1.1212693 -0.25656173
0.25307283 1.1792302 -0.27931044
0.21706823 1.232006 -0.30234408
0.14849512 1.077684 -0.27464637
0.28669563 1.1239783 -0.30344605
0.25663576 1.191473 -0.33120877
0 0 -0
0 0 -0
0.63294995 2.4692919 0.78752559
0.51186126 2.3706567 0.72033691
0.41019186 2.3241787 0.67598951
0.31892797 2.3069663 0.64284378
0.64206719 2.51142 0.69210446
0.51381147 2.376673 0.62251425
0.41051489 2.3158531 0.57826173
0.3229242 2.3156104 0.55070263
0.63183033 2.4715588 0.57934827
0.51286674 2.3739078 0.52607471
0.41129386 2.3150749 0.4858664
0.32297665 2.3039334 0.45740354
0.64344662 2.5193806 0.48991248
0.51580065 2.3844638 0.4344736
0.41239783 2.3144863 0.39564836
0.32570839 2.3169489 0.37124667
0.63350099 2.4795368 0.38512161
0.50912398 2.347847 0.33746624
0.41762796 2.3367538 0.31049117
0.32695436 2.3108888 0.283012
0.64021236 2.5039828 0.29223135
0.51776367 2.3874884 0.25250113
0.41536996 2.3187447 0.22101578
0.32819375 2.3115041 0.19719817
0.63812453 2.4941843 0.19638109
0.51927614 2.390836 0.16297333
0.41602325 2.3191266 0.13482307
0.3306036 2.3229418 0.111554
0.64448082 2.5157371 0.10253485
0.51626146 2.3713677 0.072622657
0.42097768 2.3399298 0.048888184
0.33080089 2.3173692 0.025535842
0.64508355 2.516628 0.0073910058
0.52267689 2.3966098 -0.016739724
0.41946736 2.3261764 -0.038039695
0.33184424 2.3186033 -0.060065337
0.64851993 2.5245378 -0.088288411
0.5158273 2.3610456 -0.10462953
0.42088929 2.3259254 -0.12495184
0.33286631 2.3216994 -0.14632969
0.35682407 1.3852205 -0.10097951
0.51589519 2.3554411 -0.19315952
0.41785139 2.3070691 -0.21011654
0.32435936 2.2575963 -0.22652631
0.30315906 1.1755294 -0.13063838
0.25699687 1.1709349 -0.14040312
0.23602517 1.3012153 -0.16739234
0.19831 1.3778796 -0.19012159
0.28015691 1.0826627 -0.16202955
0.25318661 1.1505055 -0.18192737
0.22289945 1.2261715 -0.20491047
0.19289424 1.3387588 -0.23589341
0.28621131 1.1025679 -0.20830563
0.2578117 1.1688979 -0.23059092
0.23428148 1.2843251 -0.26428223
0.18270425 1.2652204 -0.27218685
0.29593953 1.1355605 -0.26024234
0.25714976 1.1633863 -0.27592623
0.22409998 1.2277821 -0.30163932
0.15662549 1.0873089 -0.27733895
0.28991395 1.1081588 -0.2996498
0.25432858 1.1465391 -0.31914574
0.14380427 0.78669804 -0.22580431
0.10695504 0.7426756 -0.22026725
0 0 0
0.52743798 2.3721502 0.72176045
0.42876726 2.3452597 0.68287331
0.33211219 2.2982876 0.64098126
0 0 0
0.53070045 2.3838773 0.62524241
0.42839947 2.333348 0.58327556
0.33754748 2.3164749 0.55139041
0.64698362 2.4676354 0.57934827
0.53209245 2.3917046 0.53073215
0.42708611 2.3211761 0.48768765
0.33852905 2.3116169 0.45933267
0.65291679 2.4925699 0.48546883
0.53170609 2.3870196 0.43552563
0.42891771 2.3245192 0.39780584
0.34106666 2.3227239 0.37250033
0.64744997 2.4708202 0.38437757
0.52352053 2.3446789 0.33746624
0.43286034 2.3390224 0.31113967
0.34141776 2.3108032 0.28325278
0.64775115 2.4702113 0.28874841
0.5334872 2.3891206 0.25301519
0.43285787 2.3337729 0.22269721
0.34310129 2.3143752 0.19761898
0.6645515 2.5326581 0.19972764
0.53546053 2.3944209 0.16343859
0.43170375 2.3243828 0.13528009
0.34396982 2.3149414 0.11126906
0.66142833 2.5175335 0.10277156
0.53561169 2.3896129 0.073280685
0.43587649 2.3402514 0.04894986
0.34516114 2.3162849 0.02554675
0.66432673 2.5271297 0.0074336794
0.54000115 2.4050658 -0.016821615
0.43758559 2.3441997 -0.038377613
0.34665549 2.3204782 -0.060167879
0.67163599 2.5495048 -0.089304
0.53468919 2.3773305 -0.1054946
0.43791062 2.3380222 -0.12574369
0.34695801 2.3186264 -0.14626741
0.3637884 1.3772184 -0.10055701
0.53231138 2.3609831 -0.19387819
0.43548629 2.3230619 -0.21181247
0.33909097 2.2614682 -0.22711931
0.30858693 1.1669186 -0.12988943
0.26352015 1.1664296 -0.14005417
0.22826259 1.2158881 -0.15659285
0.19984423 1.3305856 -0.18376164
0.29136312 1.0981416 -0.16461055
0.26045957 1.1498942 -0.18207999
0.23388523 1.2432058 -0.20799306
0.19612508 1.304428 -0.23005193
0.29373011 1.1036427 -0.20884526
0.25411034 1.1194147 -0.22113271
0.23724894 1.2568595 -0.25892517
0.19308713 1.2814844 -0.27593538
0.30290163 1.1337234 -0.26024234
0.26233849 1.1532371 -0.27389571
0.23343325 1.2359352 -0.30398852
0.18318346 1.2186426 -0.31111899
0.27891558 1.0400149 -0.28168094
0.25835225 1.1317859 -0.31547439
0.15041721 0.79525691 -0.22852157
0.11222297 0.74674964 -0.22167562
0.64654958 2.3995285 0.76774883
0.55181807 2.4118547 0.7348575
0.4436855 2.3454185 0.68369937
0.34922597 2.3162234 0.64656883
0 0 0
0.5489949 2.3966291 0.62945861
0.44597045 2.3478479 0.58757311
0.35219353 2.3172472 0.55207825
0.65730369 2.4457259 0.57514048
0.5467577 2.3883948 0.53073215
0.44388422 2.3319805 0.49052066
0.35315087 2.3124061 0.45991144
0.67839235 2.5264804 0.49287492
0.5516212 2.4067433 0.43973359
0.44520637 2.3324988 0.39963141
0.35501325 2.3186347 0.3721869
0.67337239 2.5069115 0.39062762
0.54100144 2.3549345 0.33941367
0.44813621 2.3411915 0.31178811
0.356648 2.3155329 0.28409544
0.66728079 2.4825034 0.29065841
0.55949569 2.4352436 0.25825846
0.45129606 2.3525848 0.22475231
0.35744777 2.3132112 0.19770317
0.67723024 2.517941 0.198891
0.55573553 2.4154 0.16510023
0.45217255 2.3540447 0.13716532
0.35969621 2.3226583 0.11174396
0.67920172 2.5221114 0.10312662
0.55093783 2.3892035 0.073370412
0.45079508 2.3404782 0.049011536
0.3619757 2.3309212 0.025732189
0.6824221 2.5326614 0.0074621281
0.55722374 2.4124246 -0.016896682
0.45404559 2.3522696 -0.038554616
0.36257854 2.3291731 -0.060449872
0.68309844 2.5298977 -0.088762358
0.55692297 2.4070988 -0.1069652
0.45376706 2.3431342 -0.12616599
0.36102453 2.3154674 -0.14620514
0.36832201 1.3605175 -0.099500738
0.54476124 2.348933 -0.19315952
0.44840547 2.3135016 -0.21118766
0.35388225 2.2652442 -0.2277123
0.30897903 1.1400526 -0.12710761
0.27202111 1.1705953 -0.14075211
0.23042603 1.1871953 -0.15307672
0.21183403 1.3538066 -0.18714459
0.29472008 1.0839183 -0.16274652
0.26369828 1.1319118 -0.17948538
0.23642263 1.2155951 -0.20361257
0.20397274 1.3022267 -0.22988011
0.29143751 1.0686038 -0.20254932
0.26209038 1.1226156 -0.22207853
0.24139 1.2371025 -0.25515535
0.20337306 1.2957355 -0.27926746
0.30675894 1.1205438 -0.25764427
0.27540147 1.1772181 -0.27998728
0.23747361 1.2163537 -0.29952502
0.19140749 1.2222853 -0.31234288
0.29118726 1.0597399 -0.28750184
0.26507133 1.1292398 -0.31521213
0.19074753 0.97566175 -0.28069296
0 0 -0
0.6760062 2.4489341 0.78486896
0.57055813 2.4252198 0.73998243
0.45917526 2.3483129 0.68535149
0.36328194 2.3130846 0.64630276
0 0 0
0.57146353 2.4262187 0.63813913
0.46036819 2.3450673 0.58757311
0.36716604 2.3198495 0.55322456
0.67876989 2.4651513 0.58067709
0.57013565 2.4220967 0.53898841
0.46120894 2.3445873 0.49375844
0.36733291 2.3101957 0.45991144
0.69883436 2.540273 0.49639282
0.56841081 2.4119377 0.4413116
0.46141821 2.3393981 0.40129101
0.36814517 2.3095856 0.37108994
0.69976169 2.5427763 0.39687762
0.56545705 2.393976 0.34553429
0.46403217 2.3461797 0.31282571
0.37352049 2.3299646 0.28614187
0.6970107 2.5310528 0.29683787
0.5739702 2.4298289 0.25805286
0.46688417 2.3556311 0.2253128
0.37353313 2.3227801 0.19871312
0.68419111 2.4829774 0.19645716
0.5700863 2.4100025 0.16496728
0.46563652 2.3463297 0.13687968
0.37505347 2.3273106 0.11207639
0.69493002 2.5188596 0.10316607
0.57019871 2.40523 0.073968627
0.46885464 2.3562989 0.049402151
0.37627116 2.3286562 0.025732189
0.70273894 2.5457773 0.0075133359
0.5784843 2.436202 -0.017087759
0.47159865 2.3651285 -0.038812079
0.37654364 2.3249309 -0.060398605
0.70153958 2.5362544 -0.089134738
0.57676792 2.4250193 -0.10791677
0.4685275 2.3422644 -0.12627158
0.37730265 2.3260159 -0.14701462
0.3691991 1.3313172 -0.097529031
0.56401801 2.3659084 -0.19483639
0.46493858 2.3224261 -0.21225876
0.36953074 2.2738345 -0.22879948
0.32554325 1.1726242 -0.13095936
0.26927671 1.1273646 -0.13575017
0.24609123 1.2275865 -0.15847649
0.20406033 1.2537102 -0.17347749
0.29764804 1.0687422 -0.16073906
0.26879755 1.1225836 -0.17826441
0.23649257 1.1773592 -0.19744739
0.21132557 1.2970614 -0.22919288
0.30407566 1.0885861 -0.20668666
0.2685155 1.1190766 -0.22170021
0.2458785 1.2202252 -0.25198081
0.21005905 1.2867408 -0.27760142
0.30651277 1.0932597 -0.25179857
0.27624297 1.1489837 -0.27367008
0.23494312 1.1653259 -0.28730911
0.2045154 1.2555385 -0.32115507
0.30711788 1.0914594 -0.29661283
0.26882726 1.1144588 -0.31154078
0.19387381 0.96032286 -0.27661708
0.12446287 0.76425695 -0.22730905
0 0 0
0.59939378 2.4794431 0.75763494
0.47604907 2.3577013 0.68893105
0.3774679 2.310812 0.64630276
0.71268451 2.5274529 0.70113301
0.58884645 2.4330239 0.64086723
0.47436273 2.3402948 0.58709562
0.3831321 2.3281176 0.5557465
0.68673772 2.4355984 0.57469755
0.59716433 2.4689 0.55020857
0.47831517 2.3551493 0.49659151
0.38518167 2.3301642 0.4643485
0.70668036 2.5085063 0.49102339
0.5908457 2.4399807 0.44709754
0.47871515 2.3510175 0.4037804
0.38505426 2.3238475 0.37375402
0.71400958 2.5336759 0.3961336
0.58924389 2.4279926 0.3509593
0.47980776 2.3500888 0.31373358
0.38813618 2.3295875 0.28638265
0.7055158 2.5018628 0.29391667
0.59707981 2.4600935 0.26165119
0.48132926 2.3527222 0.2253128
0.38876387 2.3263414 0.19921812
0.69887191 2.4768133 0.19630504
0.60182929 2.4762678 0.16975281
0.48543385 2.3698361 0.13842215
0.39015132 2.3298912 0.11231384
0.72368342 2.561666 0.10509921
0.60197657 2.4716098 0.07612218
0.48632067 2.368068 0.049710531
0.39154574 2.3322203 0.025797637
0.71617037 2.5337193 0.0074905767
0.59081477 2.4219203 -0.017012691
0.4852958 2.358273 -0.038747713
0.39113379 2.3245482 -0.060449872
0.78163469 2.7598021 -0.097157881
0.59780204 2.4466679 -0.10904136
0.48450553 2.3471692 -0.12669387
0.39206529 2.3266098 -0.14720143
0.38090298 1.3415014 -0.098444469
0.56690639 2.3149614 -0.19092369
0.47978449 2.3224556 -0.21252654
0.39126125 2.3176417 -0.23344466
0.32294595 1.136175 -0.12710761
0.27145571 1.1063992 -0.13342369
0.2483938 1.200794 -0.15521151
0.23090895 1.3657593 -0.18917437
0.30908468 1.0840269 -0.16332006
0.27237612 1.1074775 -0.17612767
0.24351203 1.1749198 -0.19728516
0.21533513 1.2724286 -0.22506946
0.30371761 1.0621096 -0.20200968
0.26550847 1.0773643 -0.21375531
0.2501691 1.2033399 -0.24880625
0.21484381 1.2671057 -0.2736446
0.31806281 1.1082495 -0.2556957
0.2783834 1.127405 -0.26893216
0.25060073 1.2047831 -0.29741073
0.21237713 1.255216 -0.32139987
0.3017602 1.04772 -0.28522411
0.25686535 1.0369164 -0.29029936
0 0 -0
0.13283077 0.7852385 -0.23378749
0 0 0
0.6189844 2.4933956 0.7630446
0.49168298 2.3603828 0.69058317
0.39405817 2.3227079 0.65029389
0 0 0
0.62315744 2.5073981 0.66145235
0.49348345 2.3601527 0.59282571
0.39872155 2.3333988 0.55758065
0.7051844 2.4435189 0.57757658
0.61536467 2.4775202 0.55296063
0.49496585 2.3627136 0.49881744
0.39814436 2.3200202 0.46280521
0.72260344 2.5060112 0.49139366
0.62006027 2.4936342 0.45761749
0.49698275 2.3663723 0.40693364
0.40064523 2.3292279 0.37500772
0.7333793 2.5425489 0.39821693
0.61107475 2.4521973 0.35499334
0.49442288 2.3480709 0.31386325
0.40479112 2.3408568 0.28806794
0.71782249 2.486985 0.29268077
0.61336613 2.4612095 0.26216525
0.50089467 2.3740788 0.22764811
0.40166858 2.3160579 0.19854482
0.73895556 2.5586944 0.20315024
0.62619233 2.5093162 0.17227848
0.50037843 2.3687665 0.13853641
0.40580803 2.3353264 0.11269376
0.73688996 2.5485384 0.10474415
0.62198049 2.4872634 0.076720387
0.50353444 2.3777547 0.049977791
0.40533382 2.3268187 0.025764914
0.74670988 2.5811501 0.0076442002
0.61586803 2.4589901 -0.017299308
0.50370002 2.3738346 -0.039053444
0.40728071 2.3329372 -0.060731873
0.74707907 2.5773702 -0.090895094
0.61815107 2.464273 -0.10999294
0.50284797 2.3627102 -0.12769687
0.40598994 2.3221941 -0.1470769
0.37910667 1.3046547 -0.095909417
0.34875727 1.3872503 -0.11458616
0.50232524 2.3584344 -0.21609691
0.40410134 2.3073559 -0.23265398
0.32574579 1.1198518 -0.12550272
0.28648707 1.1374593 -0.13737871
0.24975629 1.1711094 -0.15156981
0.21806063 1.2433044 -0.17239495
0.31212676 1.0697592 -0.161456
0.27940828 1.1067437 -0.17628029
0.25607735 1.1984928 -0.20150343
0.22313856 1.2710835 -0.22506946
0.30415142 1.0394558 -0.19805224
0.28174645 1.1137934 -0.2213219
0.25077036 1.1701565 -0.24225871
0.22346166 1.2705801 -0.27468586
0.31275386 1.065061 -0.24616936
0.28338104 1.1181209 -0.26712725
0.2559506 1.1937186 -0.2950615
0.2173932 1.2386096 -0.31748334
0.31583992 1.0718325 -0.29231042
0.28343424 1.1148169 -0.31258973
0.2149362 1.0011544 -0.28911647
0.13598801 0.77495795 -0.23097077
0 0 0
0.65912217 2.5870891 0.79293996
0.50797313 2.3657808 0.69306135
0.40980622 2.3287907 0.65268862
0 0 0
0.64116448 2.5138531 0.66418058
0.51327473 2.3817618 0.5990333
0.41472983 2.3404927 0.55987334
0 0 0
0.62741661 2.461386 0.55020857
0.51255399 2.3739908 0.50185281
0.4130598 2.3213978 0.46357685
0 0 0
0.64338237 2.5212629 0.46340346
0.52088028 2.4066501 0.41440183
0.41544974 2.3296425 0.37547785
0 0 0
0.64524621 2.5232353 0.36584345
0.50861084 2.3440239 0.31373358
0.42124861 2.350055 0.28951252
0 0 0
0.64496863 2.5219665 0.26905352
0.5188365 2.3865271 0.22914273
0.41886902 2.3302221 0.19997561
0 0 0
0.64776546 2.5295918 0.17394012
0.52233505 2.3997951 0.14053589
0.41906741 2.326894 0.11240882
0 0 0
0.65064573 2.5356824 0.078335561
0.52216399 2.3931794 0.050368398
0.42049152 2.3292079 0.025819454
0.79062831 2.6714492 0.0079258438
0.64189583 2.4977794 -0.017599573
0.52338099 2.3941426 -0.039439637
0.42372319 2.3421986 -0.061039504
0 0 -0
0.64546186 2.5078425 -0.11211233
0.52375174 2.3888433 -0.12928055
0.42325553 2.3363545 -0.14813545
0.37999928 1.2783996 -0.094148956
0.33286428 1.2904931 -0.10676076
0.51785421 2.3601723 -0.21654321
0.42073885 2.3185403 -0.23403764
0.34026691 1.1435621 -0.12839152
0.28873977 1.117409 -0.13516855
0.25076407 1.1414547 -0.14792813
0.22674818 1.247792 -0.17320687
0.32038295 1.073514 -0.16231634
0.28693724 1.1078786 -0.17673817
0.24773104 1.1255862 -0.18949759
0.22194302 1.2202597 -0.21630722
0.3040368 1.015895 -0.19391491
0.28734201 1.1072913 -0.22037607
0.25857934 1.1714669 -0.24285395
0.22862372 1.2547514 -0.27156207
0.31731737 1.0565766 -0.24465378
0.28950098 1.1135325 -0.26645043
0.25635317 1.1608039 -0.28730911
0.22949927 1.2620547 -0.32384771
0.32241061 1.0698744 -0.29231042
0.28880823 1.1074543 -0.31101632
0.23582733 1.0665339 -0.30840904
0.13799435 0.75900435 -0.22646402
0 0 0
0.66359276 2.5394051 0.77955824
0.52393275 2.3691902 0.69498885
0.42650807 2.3395088 0.65641367
0 0 0
0 0 0
0.5291416 2.3842556 0.60046583
0.42943442 2.3398185 0.56033182
0 0 0
0.64572132 2.4697821 0.55296063
0.53114921 2.3889647 0.50569767
0.43049654 2.336189 0.4670493
0.77714396 2.5759847 0.50694644
0.6543535 2.500124 0.46024749
0.53134716 2.3841584 0.41108266
0.4299157 2.3280208 0.37563455
0.7625252 2.5267308 0.39717525
0.64815521 2.4713347 0.35888827
0.52644312 2.3563421 0.31580871
0.43620381 2.3503542 0.28987366
0 0 0
0.64907473 2.4746644 0.26442707
0.53542745 2.3920431 0.22998345
0.43698752 2.3481803 0.20174307
0 0 0
0.66226077 2.5217092 0.17367427
0.53988814 2.4092095 0.14127856
0.43663242 2.3419542 0.11326364
0.77129132 2.5498242 0.10517811
0.67204267 2.5538752 0.079023495
0.53705758 2.3909061 0.050388962
0.4371632 2.3393621 0.025961259
0.79512888 2.6273055 0.0078092036
0.66001296 2.5044303 -0.017674638
0.54069567 2.4025917 -0.039632726
0.43937463 2.3464327 -0.061218955
0 0 -0
0.66440696 2.5173588 -0.11271788
0.54213691 2.4021444 -0.13017796
0.43868682 2.3395994 -0.14850907
0.39566839 1.301813 -0.096050248
0.35148135 1.3289006 -0.11011451
0.52969307 2.3452916 -0.2154721
0.4334878 2.3080912 -0.23324698
0.3574062 1.174745 -0.13213627
0.29482746 1.1127361 -0.13481958
0.28183275 1.2463363 -0.16174145
0.23165335 1.2317712 -0.17117709
0.31858757 1.0440772 -0.15815806
0.28891024 1.0879487 -0.17383832
0.25964701 1.1461794 -0.19322914
0.23489308 1.2479187 -0.22146147
0.32321614 1.0563391 -0.20200968
0.28276953 1.0628053 -0.21186368
0.25990006 1.1440525 -0.23749687
0.22544488 1.1956568 -0.25906688
0.32035589 1.0434104 -0.2420557
0.29181162 1.0947908 -0.26238939
0.26325545 1.1582612 -0.28707418
0.2212794 1.1758189 -0.30206203
0.31957006 1.0373652 -0.2839587
0.28064361 1.0497257 -0.29528192
0.23574731 1.0359769 -0.29998553
0 0 -0
0 0 0
0.65286845 2.4371336 0.74937814
0.5455001 2.3968639 0.70407546
0.44156983 2.3406367 0.65747803
0 0 0
0.67121226 2.5029886 0.66343653
0.54700434 2.3951647 0.60404718
0.44650692 2.3514836 0.56377089
0 0 0
0.65985137 2.4619973 0.55211383
0.55125785 2.4095268 0.51075667
0.44702786 2.3450699 0.46936432
0 0 0
0.67121232 2.5017669 0.46129945
0.55213767 2.4077663 0.41572949
0.4467864 2.3389204 0.37782848
0 0 0
0.66382098 2.4692235 0.35916644
0.54711109 2.3801253 0.31944016
0.45286265 2.3593323 0.29131818
0 0 0
0.67535198 2.5119407 0.26884788
0.55344623 2.4032662 0.23138466
0.44969264 2.3366482 0.20098557
0 0 0
0.68965203 2.5619187 0.17673168
0.55914634 2.4253085 0.14242114
0.45156142 2.3421733 0.11340611
0 0 0
0.68093258 2.5246119 0.078245826
0.55892092 2.4187374 0.05104683
0.4543547 2.3513625 0.026124882
0.80384648 2.5984941 0.0077380813
0.68736237 2.5447409 -0.017988551
0.56219274 2.428452 -0.040115464
0.45471391 2.3485999 -0.061347138
0.87072623 2.8094766 -0.099629141
0.6814059 2.519021 -0.11297741
0.55980164 2.4114182 -0.13086422
0.45607325 2.3525405 -0.14950533
0.40276092 1.2965028 -0.095838994
0.37188584 1.3719372 -0.11386751
0.55286348 2.3798342 -0.21895321
0.44745216 2.3044112 -0.23314816
0.36431235 1.1715806 -0.13202928
0.30425221 1.1204911 -0.13598281
0.26025766 1.1189657 -0.14541662
0.23939607 1.2312992 -0.17131241
0.33029142 1.0591089 -0.16073906
0.29765642 1.0937843 -0.1750593
0.26757059 1.1484087 -0.19387808
0.23972327 1.2319491 -0.21888435
0.31824198 1.0177207 -0.19499421
0.30116683 1.1046292 -0.22056521
0.27271259 1.1672511 -0.24265553
0.22809906 1.1702508 -0.25386056
0.33493555 1.0675073 -0.24811791
0.30545411 1.1183541 -0.26848096
0.26858756 1.1490521 -0.28519481
0.23404478 1.202991 -0.30940551
0.32738164 1.0399989 -0.28522411
0.30008203 1.0954503 -0.30865616
0.25196767 1.0766784 -0.31221318
0.1467485 0.75442827 -0.22561902
0 0 0
0.68506354 2.4959424 0.76873893
0.56348288 2.4075124 0.7082057
0.45813748 2.3492367 0.66067094
0 0 0
0.69194746 2.5184398 0.66864479
0.5696829 2.4257963 0.61264229
0.46148926 2.3515651 0.56445867
0 0 0
0.67779231 2.4682693 0.55444258
0.56805038 2.4146786 0.51257795
0.46273604 2.3490217 0.47071472
0 0 0
0.69020349 2.5108917 0.46375412
0.57346398 2.4321678 0.42054236
0.46361575 2.3487313 0.37986571
0 0 0
0.68264085 2.4784703 0.36111394
0.57561648 2.4355869 0.3273516
0.46829632 2.3613782 0.2919201
0 0 0
0.69365793 2.5182984 0.26997882
0.57368714 2.4230773 0.23362657
0.46926808 2.3602331 0.20325804
0 0 0
0.69952267 2.5364776 0.17526942
0.57793158 2.4383469 0.14339232
0.46885091 2.354053 0.11411846
0 0 0
0.69587803 2.5184593 0.078186005
0.57560009 2.4230444 0.051211301
0.47288415 2.3691227 0.02635395
0 0 0
0.68082941 2.4604833 -0.017422143
0.58240694 2.447329 -0.040485565
0.47362491 2.3683116 -0.061936766
0.84993231 2.6840289 -0.095363677
0.71045566 2.5638945 -0.11518332
0.57713681 2.4186227 -0.1314449
0.47265515 2.3604629 -0.15019029
0.94272846 2.9702265 -0.21998605
0.35629496 1.2831872 -0.10668091
0.32386371 1.3562804 -0.12496311
0.46197465 2.3035734 -0.23334581
0.40521163 1.275453 -0.1440125
0.32017058 1.1511375 -0.13993783
0.26642659 1.114453 -0.14503989
0.24011956 1.1958077 -0.16657628
0.33738464 1.0589483 -0.16102584
0.3022393 1.0843214 -0.17383832
0.26978621 1.1265932 -0.19047102
0.23951402 1.1918222 -0.21201201
0.32088855 1.0045043 -0.1928356
0.29341361 1.0507435 -0.21016121
0.27071604 1.1274347 -0.23471914
0.23971446 1.1908826 -0.25865039
0.31376767 0.97897035 -0.2279827
0.30364972 1.0854982 -0.26103568
0.26337248 1.0963458 -0.27250904
0.24161279 1.2024829 -0.3096503
0.31687644 0.98547333 -0.27079839
0.30367002 1.0824388 -0.30550927
0.27117145 1.1275109 -0.32742986
0 0 -0
0 0 0
0.70425636 2.5055349 0.77300972
0.59240842 2.4628949 0.72555292
0.47406602 2.3539414 0.6627996
0 0 0
0.71158546 2.5290675 0.67261297
0.59002399 2.4449108 0.61837238
0.47803584 2.3591828 0.5669806
0 0 0
0.69530571 2.4725313 0.55634785
0.59113961 2.4454157 0.51986289
0.47850952 2.352869 0.47206512
0 0 0
0.70106196 2.4904988 0.46077344
0.59696782 2.4640644 0.42668286
0.48373744 2.3739073 0.38441032
0 0 0
0.69944847 2.4799538 0.36194855
0.59405971 2.4464624 0.32929701
0.48476747 2.368186 0.2931239
0 0 0
0.71638763 2.5398431 0.27275467
0.59560376 2.448534 0.23642896
0.48294011 2.3534045 0.20292136
0 0 0
0.72022527 2.5503821 0.17653228
0.59878725 2.4590051 0.14482053
0.48610193 2.3648295 0.11478332
0 0 0
0.72465175 2.5612702 0.079651617
0.5951975 2.4388926 0.051622473
0.48942935 2.3759704 0.026463032
0.85564363 2.65029 0.0079229986
0.72916937 2.5736365 -0.018254695
0.5990746 2.4505081 -0.040598202
0.48834974 2.3663399 -0.061962403
0.9119035 2.8195004 -0.10037391
0.7229017 2.5479534 -0.11466427
0.59196639 2.4150357 -0.1314449
0.48692781 2.3565407 -0.15012802
0.97385478 3.0042403 -0.22294362
0.37124875 1.3059061 -0.10875704
0.31390971 1.279783 -0.11809014
0.47287396 2.285104 -0.23176447
0.3663877 1.1291927 -0.12774956
0.31770745 1.1157179 -0.13586649
0.27042064 1.1012356 -0.14353296
0.25187474 1.2156562 -0.16955326
0.32213485 0.99003989 -0.15084521
0.30346304 1.0634395 -0.17078584
0.27457264 1.116293 -0.18901086
0.24882258 1.1999762 -0.2137301
0.32246983 0.98848879 -0.19013734
0.29553699 1.0338173 -0.20713457
0.28443453 1.1533489 -0.24047302
0.2462215 1.1855587 -0.25781736
0.33434495 1.0215635 -0.23837507
0.30815893 1.076122 -0.25923076
0.27801114 1.1267953 -0.28049636
0.24701826 1.1914839 -0.30720249
0.32321903 0.98442966 -0.2710515
0.30950695 1.0777726 -0.30472255
0.27231526 1.1024685 -0.32063669
0 0 -0
0.82616454 2.5062778 0.81527191
0.70689428 2.4569468 0.75934327
0.61304259 2.4816124 0.73216134
0.49105 2.3632576 0.66625863
0 0 0
0.76140708 2.6438115 0.70435876
0.61459202 2.4798894 0.62816125
0.49608725 2.3733554 0.57110751
0 0 0
0 0 0
0.61108804 2.4617023 0.52411246
0.49656346 2.3671744 0.47553763
0 0 0
0.72505265 2.516423 0.46638408
0.61993206 2.4919348 0.43215951
0.49829435 2.3708944 0.38441032
0 0 0
0.71904647 2.4908378 0.36417419
0.61193836 2.4543164 0.33085337
0.50482553 2.3913925 0.29637411
0 0 0
0.71540445 2.4780593 0.2665861
0.62533301 2.5037565 0.24212717
0.49922788 2.3591707 0.20367885
0 0 0
0.73475236 2.5420806 0.17626642
0.61967587 2.4785299 0.14619161
0.5041241 2.3784142 0.11559065
0 0 0
0.73145729 2.526052 0.078694478
0.63493615 2.5341153 0.053719442
0.51023126 2.4022663 0.026790274
0 0 0
0.74661815 2.5748765 -0.01829564
0.61702019 2.4584239 -0.040791299
0.50764531 2.385788 -0.062552035
0 0 -0
0.74102932 2.5521047 -0.11505356
0.3435947 1.3654679 -0.074432656
0.50532925 2.3720555 -0.15131111
0 0 -0
0.35864902 1.2327763 -0.10284807
0.34121257 1.3551017 -0.12523089
0.4929074 2.3103824 -0.23463064
0.37893718 1.1439121 -0.12967543
0.32454738 1.1137475 -0.13586649
0.28226501 1.1197575 -0.14617006
0.25705251 1.2034295 -0.16806479
0.3325713 1.0011936 -0.15285267
0.30776635 1.0539681 -0.16956486
0.28190002 1.1165006 -0.18933535
0.25350368 1.1859032 -0.21149658
0.33661017 1.0107572 -0.19481432
0.30601007 1.0461212 -0.20997204
0.27466983 1.0850716 -0.22658433
0.24816757 1.1591591 -0.25240278
0.33658516 1.0074551 -0.23556046
0.32105669 1.0957139 -0.26441988
0.27632925 1.0911467 -0.2720392
0.25351381 1.1861531 -0.30622333
0.33786121 1.0081123 -0.2781378
0.30958515 1.0536324 -0.2984288
0.28191277 1.1119711 -0.32389739
0.16040966 0.75066096 -0.22533733
0 0 0
0 0 0
0.64101678 2.5281243 0.74703038
0.50735843 2.3686831 0.66865325
0 0 0
0 0 0
0.63458425 2.4948938 0.6329363
0.51535541 2.3921521 0.57638067
0 0 0
0 0 0
0.63657731 2.4987133 0.53281391
0.51688415 2.3909366 0.48093927
0 0 0
0 0 0
0.63740605 2.4966834 0.43365318
0.51722288 2.3880632 0.38770124
0 0 0
0 0 0
0.63460541 2.4802942 0.33487391
0.51569122 2.3707891 0.29420727
0 0 0
0 0 0
0.64266145 2.5075884 0.24287449
0.52091128 2.3891649 0.20654047
0 0 0
0 0 0
0.64802122 2.5259349 0.14921942
0.52083933 2.3850348 0.11606555
0 0 0
0.74211675 2.5052238 0.078186005
0.65868819 2.5621257 0.054397874
0.52667171 2.4069049 0.026877539
0 0 0
0.80420595 2.711174 -0.019298794
0.65603042 2.5475464 -0.042336058
0.5254854 2.3972754 -0.062936574
0 0 -0
0.76122624 2.5628333 -0.1157456
0.34772301 1.3468965 -0.073535234
0.52329743 2.3845081 -0.15230741
0 0 -0
0.37217718 1.2506157 -0.10452493
0.34578401 1.3385172 -0.12389199
0.50472486 2.2966237 -0.23354349
0.37098232 1.097297 -0.12464678
0.33563077 1.1260126 -0.13761136
0.28590128 1.1055181 -0.14453757
0.25868326 1.1757028 -0.16441119
0.35300642 1.0413114 -0.15930517
0.31479323 1.0539538 -0.16987009
0.28800315 1.1118842 -0.18884861
0.25293738 1.1487281 -0.20513964
0.34407184 1.0123982 -0.19553386
0.31664512 1.0583351 -0.2128095
0.27910545 1.0748278 -0.22479862
0.25211602 1.1432877 -0.24927899
0.34339052 1.007219 -0.23599347
0.30372217 1.0134672 -0.24501708
0.27519828 1.0593253 -0.26452172
0.25911942 1.1769999 -0.30426505
0.34153613 0.99869704 -0.27611315
0.31326711 1.0424713 -0.29580641
0.26547697 1.0208067 -0.29781172
0.16769408 0.76184458 -0.22899906
0 0 0
0 0 0
0.63110811 2.4264526 0.71811837
0.52686703 2.3881171 0.67503917
0 0 0
0 0 0
0.65331274 2.5041082 0.63627893
0.53213197 2.3984473 0.57867336
0 0 0
0 0 0
0.651402 2.4928653 0.53240919
0.53389037 2.3982556 0.48306137
0 0 0
0 0 0
0.65870851 2.5156207 0.4376362
0.53380078 2.3935201 0.38911161
0 0 0
0 0 0
0.65358734 2.4907401 0.33681938
0.53608614 2.3937361 0.29745755
0 0 0
0 0 0
0.65499848 2.4920425 0.24175352
0.53643411 2.3898127 0.20687713
0 0 0
0 0 0
0.67341471 2.5595658 0.15144743
0.53853118 2.395438 0.11673041
0 0 0
0 0 0
0.67490643 2.5599694 0.054438993
0.54384738 2.4143584 0.026997527
0 0 0
0.79731607 2.6286776 -0.018746035
0.6673097 2.5270388 -0.042062506
0.54128504 2.3988817 -0.063064754
0 0 -0
0.81090641 2.66996 -0.12080624
0.35521424 1.3418416 -0.073376872
0.54275686 2.4026699 -0.1536773
1.026713 2.9792042 -0.22245069
0.39667419 1.3036195 -0.1091563
0.3343527 1.2622346 -0.11701903
0.52934575 2.3400712 -0.23828748
0 0 -0
0.32921439 1.0802288 -0.13226046
0.28683075 1.0816875 -0.14164934
0.26545468 1.1721607 -0.16414057
0.35065514 1.0138726 -0.15543367
0.31115192 1.0189205 -0.16452828
0.29051435 1.0938834 -0.18609051
0.25584403 1.1289001 -0.20187528
0.35156628 1.0139856 -0.1962534
0.30963323 1.0122393 -0.2039188
0.29855528 1.1213984 -0.23491754
0.26020876 1.1464882 -0.25032026
0.33737761 0.97005308 -0.22776619
0.32020906 1.0451176 -0.2531392
0.29245037 1.0980054 -0.27462333
0.26505089 1.1697143 -0.30279639
0.34383366 0.98562104 -0.27307612
0.31569034 1.0276152 -0.29213506
0.28338838 1.0628632 -0.31058282
0 0 -0
0 0 0
0 0 0
0.67818487 2.5432899 0.75391418
0.54684645 2.4083397 0.68169111
0 0 0
0 0 0
0.66088724 2.4709709 0.62887752
0.54900509 2.4046266 0.580966
0 0 0
0 0 0
0.66541868 2.4840918 0.5313974
0.54991025 2.4006732 0.48421887
0 0 0
0.77153885 2.5035915 0.46655941
0.66953009 2.4943881 0.43464893
0.55576658 2.4219663 0.39428306
0 0 0
0 0 0
0.68868923 2.5604119 0.34680593
0.55811912 2.4223254 0.30143008
0 0 0
0 0 0
0.67364401 2.5004742 0.24296789
0.55646843 2.4097779 0.20889707
0 0 0
0 0 0
0.68442827 2.5380349 0.15041912
0.55997127 2.421284 0.11815511
0 0 0
0 0 0
0.69034058 2.5548146 0.05441843
0.56000566 2.4168208 0.027062977
0 0 0
0.84659529 2.73071 -0.019510346
0.6885494 2.5441301 -0.042416513
0.55915838 2.4091485 -0.063423663
0 0 -0
0.8394177 2.7040541 -0.12257961
0.35978037 1.326144 -0.072637826
0.56110334 2.414849 -0.15467359
1.4816198 4.215064 -0.31540254
0.38127965 1.2259659 -0.10284807
0.34731013 1.2793837 -0.11880422
0.53422296 2.2960722 -0.23413649
0.39101937 1.1114199 -0.12678663
0.32431689 1.0412056 -0.12772381
0.29632422 1.0904381 -0.14303067
0.26769707 1.1492805 -0.16116357
0.36509991 1.0350345 -0.1590184
0.32534769 1.0424641 -0.16864911
0.2871148 1.0549476 -0.17976311
0.26679137 1.1445785 -0.20496784
0.33843297 0.95709193 -0.18564025
0.32111213 1.0271903 -0.20732376
0.29072645 1.0656486 -0.22360818
0.26234737 1.1239157 -0.24573869
0.33483818 0.94404161 -0.22213697
0.31992042 1.02175 -0.24795006
0.29457536 1.0793114 -0.27039474
0.27024251 1.1595675 -0.30059332
0.3385258 0.95159084 -0.26421824
0.32343492 1.0302622 -0.29344624
0.29370922 1.0750297 -0.31465873
0.22058037 0.94662464 -0.2853334
0 0 0
0 0 0
0.68440205 2.5047688 0.74372619
0.56468242 2.418081 0.68541622
0 0 0
0 0 0
0.68655938 2.5052679 0.63866645
0.56775379 2.4182692 0.58509284
0 0 0
0 0 0
0.67857468 2.4724069 0.52977854
0.56935412 2.4173105 0.48827007
0 0 0
0 0 0
0.69266725 2.5187578 0.43962774
0.56721514 2.4040918 0.39193243
0 0 0
0 0 0
0.71018195 2.5771682 0.34965923
0.58029401 2.4497669 0.30528218
0 0 0
0 0 0
0.69771522 2.5279653 0.24605052
0.57469642 2.4208608 0.21015956
0 0 0
0 0 0
0.70371044 2.54726 0.15121891
0.57943815 2.4372382 0.11910491
0 0 0
0 0 0
0.70280308 2.5389681 0.05417173
0.58108008 2.4396029 0.027357494
0 0 0
0.81501931 2.5729373 -0.018418474
0.71002376 2.5610549 -0.042770524
0.58088964 2.4348435 -0.064192742
0 0 -0
0.89767575 2.8302717 -0.12854856
0.3719213 1.3383436 -0.073429659
0.57799661 2.4200974 -0.15523399
1.500724 4.1871133 -0.31399417
0.4216975 1.3271536 -0.11155182
0.35435325 1.2743497 -0.11853644
0.5251565 2.1959696 -0.22425313
0 0 -0
0.33551845 1.0543393 -0.129585
0.30966023 1.1124932 -0.14617006
0.26828477 1.1206363 -0.15737468
0 0 -0
0.32873586 1.0310323 -0.16712287
0.30073652 1.0788299 -0.18414363
0.26348123 1.0998088 -0.19723643
0.35630965 0.98831117 -0.19211607
0.32262909 1.0102342 -0.20429713
0.30358994 1.0864996 -0.22837
0.27996257 1.166986 -0.2555266
0.34527233 0.95482278 -0.22516809
0.33746213 1.0550281 -0.2565234
0.29622045 1.0596973 -0.26593125
0.2710284 1.1314862 -0.29373941
0.3539238 0.97587067 -0.27155766
0.32385674 1.0098802 -0.28820145
0.29407609 1.0509647 -0.3081373
0 0 -0
0 0 0
0 0 0
0.69483572 2.4829326 0.73849446
0.59053212 2.4605 0.69845402
0 0 0
0 0 0
0.7032305 2.5056827 0.63986021
0.59627843 2.471513 0.598849
0 0 0
0.82351893 2.5625024 0.58302206
0.69717711 2.4804528 0.53240919
0.59456211 2.4566872 0.49695131
0 0 0
0 0 0
0.70383203 2.4992731 0.43697238
0.59126323 2.4389598 0.39820084
0 0 0
0 0 0
0.72436613 2.5670364 0.34888107
0.60071373 2.4683454 0.30805093
0 0 0
0 0 0
0.70806873 2.5054326 0.24427567
0.59355342 2.4337463 0.21159035
0 0 0
0 0 0
0.71362013 2.5227203 0.15001923
0.60149169 2.4627473 0.12052961
0 0 0
0 0 0
0.71100771 2.5086365 0.053616647
0.59841484 2.4457045 0.027466577
0 0 0
0.87696344 2.7106013 -0.019442102
0.72572476 2.5566502 -0.042770524
0.60486054 2.4681292 -0.065166913
0 0 -0
0.90394133 2.7904944 -0.12699144
0.37548056 1.3197081 -0.072532244
0.5923596 2.4145668 -0.15510947
1.4887325 4.0747623 -0.30624819
0.43352503 1.3359187 -0.11251003
0.34853008 1.2242543 -0.11407347
0.31571868 1.2852794 -0.13144851
0.39336061 1.0757228 -0.12325586
0.34781414 1.0702076 -0.13179515
0.30968329 1.0867196 -0.14303067
0.27420941 1.1151204 -0.1568334
0.35324752 0.96357423 -0.14869438
0.34086972 1.0468507 -0.17002273
0.30572566 1.0712711 -0.18317018
0.2794047 1.1354786 -0.20393699
0.35829553 0.97502637 -0.18995744
0.33247527 1.0194381 -0.20656708
0.30917269 1.080847 -0.22757638
0.27705577 1.1244103 -0.24657169
0.36226597 0.9829157 -0.23231286
0.32759494 1.0029299 -0.24434023
0.29496193 1.030759 -0.2591185
0.27333322 1.1109718 -0.28884375
0.34514651 0.93375337 -0.26042202
0.31743386 0.96935648 -0.27718738
0.29760405 1.0389636 -0.3051483
0.23882714 0.9708668 -0.29350188
0 0 0
0.85899514 2.6187222 0.81856465
0.70079142 2.4462764 0.7288571
0.62107599 2.5195377 0.71628124
0 0 0
0 0 0
0.7242226 2.5209208 0.64487404
0.61845469 2.4961517 0.60572702
0 0 0
0 0 0
0.72700512 2.5269496 0.54333669
0.61459464 2.47299 0.50100255
0 0 0
0 0 0
0.71696901 2.4873269 0.43564472
0.61933887 2.487998 0.40681991
0 0 0
0 0 0
0.72799772 2.5206285 0.34317446
0.62499297 2.5012114 0.31262535
0 0 0
0 0 0
0.73228115 2.5316465 0.24726489
0.61525238 2.4571235 0.21394695
0 0 0
0 0 0
0.73685974 2.5451455 0.15161881
0.62485152 2.4919522 0.12214427
0 0 0
0.87310559 2.6464462 0.08339043
0.73808497 2.5445557 0.054480106
0.63021922 2.5089035 0.028219234
0 0 0
0 0 -0
0.74474549 2.5636709 -0.042963617
0.6297493 2.5031497 -0.066192351
0.48281959 1.2994037 -0.046953999
0 0 -0
0.7364341 2.5292916 -0.13925768
0.33929032 1.3472317 -0.086676985
0.45665285 1.2264895 -0.092388511
0 0 -0
0.3602142 1.2364364 -0.11541236
0.33868414 1.3431419 -0.13757619
0.4259924 1.1431645 -0.13128033
0.35625094 1.0737095 -0.13249309
0.32551083 1.1162287 -0.14717467
0.27789414 1.1009282 -0.15507425
0 0 -0
0.31985289 0.9622106 -0.15659183
0.30344155 1.0390649 -0.17797846
0.2776815 1.0993581 -0.19775186
0.35771734 0.95530641 -0.18653966
0.33314079 1.000609 -0.20316213
0.30313382 1.0356597 -0.2184495
0.2709994 1.0714854 -0.23532602
0.35078526 0.93406266 -0.22127096
0.33004466 0.98981071 -0.24163286
0.30947539 1.0569152 -0.26616615
0.28038228 1.1102139 -0.28908855
0.35155135 0.9334287 -0.26092815
0.32980046 0.98661017 -0.28269443
0.30749226 1.0491238 -0.30868074
0.26263317 1.0400866 -0.31490892
0 0 0
0 0 0
0 0 0
0.63108552 2.4941859 0.71016145
0 0 0
0 0 0
0.7665146 2.6077325 0.6682719
0.63471866 2.4960833 0.60664409
0 0 0
0 0 0
0 0 0
0.64042675 2.5110066 0.50949079
0 0 0
0 0 0
0.7280333 2.468693 0.4331553
0.64437133 2.5224276 0.41308829
0 0 0
0 0 0
0 0 0
0.64082152 2.4992528 0.31286612
0 0 0
0 0 0
0 0 0
0.64370733 2.5054181 0.21849187
0 0 0
0 0 0
0.75870001 2.5616362 0.15287563
0.65083212 2.5296681 0.12418633
0 0 0
0 0 0
0 0 0
0.6590777 2.5572774 0.02880827
0 0 0
0 0 -0
0.79036766 2.6596899 -0.044653196
0.6558398 2.5408604 -0.067294709
0.44442973 1.1739721 -0.042519268
0 0 -0
0.79783136 2.678812 -0.14775673
0.35204458 1.3625184 -0.087797806
0.43515924 1.1471854 -0.086614221
0.38666582 1.1435297 -0.096699543
0.37348306 1.2532934 -0.11719754
0.34068856 1.3169538 -0.13510536
0.43511602 1.1461062 -0.13192229
0.35741699 1.0555108 -0.13051559
0.31420475 1.0533661 -0.13913782
0.287873 1.1116714 -0.1568334
0.36328536 0.95454204 -0.14797744
0.32257593 0.95087093 -0.15506561
0.31574219 1.0570384 -0.18138552
0.28516313 1.1004945 -0.1982673
0.36777943 0.96412253 -0.18869826
0.33390391 0.9827404 -0.19994636
0.3128559 1.0450474 -0.22083043
0.29820228 1.1493276 -0.2528193
0.36453319 0.95286483 -0.22625063
0.33548412 0.98592234 -0.24118161
0.31539696 1.0531341 -0.26569632
0.27746215 1.0709289 -0.2792972
0.35865831 0.93486714 -0.26194051
0.33834034 0.99187464 -0.28479233
0.31033134 1.0352334 -0.3051483
0.28080034 1.0839694 -0.32871085
0 0 0
0 0 0
0.75394815 2.5148439 0.75198674
0.64783078 2.4958649 0.7117579
0 0 0
0.86513913 2.5299351 0.68451768
0.78641486 2.6159999 0.67161447
0.65346164 2.5053277 0.6098538
0 0 0
0 0 0
0 0 0
0.66972804 2.560189 0.52029407
0 0 0
0 0 0
0 0 0
0.66659504 2.5442219 0.41731948
0 0 0
0 0 0
0 0 0
0.65286261 2.4827926 0.31130117
0 0 0
0 0 0
0 0 0
0.65525997 2.4869676 0.21722938
0 0 0
0 0 0
0 0 0
0.66736096 2.5294905 0.1243763
0 0 0
0 0 0
0 0 0
0.6770559 2.5618861 0.028906444
0 0 0
0 0 -0
0.82818365 2.7255847 -0.045843951
0.67730081 2.5590155 -0.067884341
0.44695026 1.1591004 -0.042079177
0.92782485 2.6940358 -0.12335818
0.88523495 2.9069581 -0.16063729
0.35912022 1.3555088 -0.087486468
0.43787602 1.133328 -0.085769214
0.45739132 1.325828 -0.11235033
0.37565035 1.2328756 -0.11550161
0.32962805 1.2427003 -0.12769283
0.41703901 1.0785009 -0.12443279
0.38367024 1.1105627 -0.13761136
0.32731852 1.0732439 -0.14202607
0.28909495 1.0888165 -0.15385641
0.36591625 0.94399005 -0.14668693
0 0 -0
0.31847534 1.0428128 -0.17927639
0.29292211 1.1025325 -0.19895455
0.37119466 0.95542938 -0.18743908
0.34507313 0.99551779 -0.20297298
0.31754121 1.0374849 -0.21963996
0.28915662 1.0869833 -0.23949111
0 0 -0
0.3405689 0.98108435 -0.2405048
0.31559232 1.0307317 -0.26052806
0.28253448 1.063584 -0.27782854
0.35769853 0.9155277 -0.25713193
0.33363706 0.95879233 -0.27587619
0.31667757 1.0333097 -0.3051483
0.2820273 1.0618241 -0.32251409
0 0 0
0 0 0
0 0 0
0.66412455 2.495569 0.7128222
0 0 0
0 0 0
0 0 0
0.66505021 2.4871662 0.60641479
0 0 0
0 0 0
0.79730237 2.5908272 0.5601325
0.67500466 2.5171745 0.51238459
0 0 0
0 0 0
0 0 0
0.6768139 2.5200531 0.41402858
0 0 0
0 0 0
0 0 0
0.68126011 2.5276246 0.31744051
0 0 0
0 0 0
0 0 0
0.67752159 2.5088737 0.21950184
0 0 0
0 0 0
0 0 0
0.6833905 2.5272763 0.12447128
0 0 0
0 0 0
0.87156874 2.8103304 0.060503755
0.69668388 2.572161 0.029070066
0 0 0
0 0 -0
0.79892558 2.5724456 -0.043349806
0.68723238 2.5335858 -0.067320347
0.44930521 1.1442425 -0.04163909
0.45958647 1.3083272 -0.060035463
0.92115766 2.9596343 -0.16385742
0.36743069 1.3532797 -0.087486468
0.45687357 1.1612525 -0.088093005
0.39603755 1.1255343 -0.095581621
0.36395884 1.1687349 -0.10969976
0.33098224 1.2176081 -0.12532084
0.44696215 1.1351298 -0.13128033
0.37298337 1.0585393 -0.13144617
0.33566901 1.0768981 -0.14277953
0.30045274 1.104231 -0.15629213
0.37133828 0.94080657 -0.14654355
0.33948359 0.9617517 -0.15750758
0.32486793 1.040839 -0.17927639
