# .PCD v0.7 - Point Cloud Data file format
VERSION 0.7
FIELDS x y z
SIZE 4 4 4
TYPE F F F
COUNT 1 1 1
WIDTH 1497
HEIGHT 1
VIEWPOINT 0 0 0 1 0 0 0
POINTS 1497
DATA ascii
1.3675783 0.48642984 -0.23865663
1.3676369 0.54380131 -0.25668228
1.388873 0.38075557 -0.26335013
1.3808168 0.4339081 -0.27882776
1.3716124 0.48692107 -0.29463896
1.3898258 0.55211848 -0.31841901
1.4098562 0.38505337 -0.32411215
1.4129027 0.44328639 -0.34293365
1.3978786 0.49608073 -0.35849032
1.409094 0.56034249 -0.38284037
1.515076 0.41225651 -0.41075307
1.7129974 0.53602678 -0.48776588
1.8086392 0.6413188 -0.54182166
1.5754365 0.62655419 -0.49771383
5.9252529 1.6047763 1.8964961
6.1223264 1.9124323 1.9050491
6.2301893 2.2089489 1.8933214
0 0 0
6.9314575 1.8819689 1.9176685
7.1299653 2.2251403 1.9121852
1.3265563 0.46921766 0.34595427
1.3811196 0.54660785 0.3498635
8.5686512 2.3266459 2.0164244
2.0449529 0.6385082 0.4640466
1.3638369 0.48181504 0.29888576
1.3415483 0.52983665 0.28358632
2.0056801 0.54509097 0.39159667
1.9755474 0.61626971 0.36854863
1.3326627 0.47004333 0.23782051
1.3505434 0.53278983 0.23036411
1.4209157 0.38603428 0.22157885
1.3652987 0.42514518 0.20086615
1.356136 0.47752428 0.18805856
1.357047 0.53396004 0.17683737
1.4192537 0.38531676 0.16628312
1.3828012 0.43056887 0.14969122
1.3797452 0.48521519 0.13722408
1.3253019 0.52072144 0.12027152
1.4232585 0.38616401 0.1124894
1.4224817 0.44243416 0.099232942
1.3695319 0.48124745 0.08306472
1.3305531 0.52227539 0.067958184
1.4669096 0.39751288 0.060005967
1.422349 0.44163066 0.04456662
1.3698391 0.4805766 0.029850986
1.3089217 0.51315188 0.015336777
1.4951284 0.40493569 0.0044067237
1.3705832 0.42500702 -0.0097927051
1.3446662 0.47113913 -0.02293002
1.3273741 0.5198248 -0.036557049
1.4530023 0.39270994 -0.050982498
1.3790314 0.42707276 -0.062500894
1.3611625 0.47598568 -0.076227486
1.3374431 0.52339113 -0.089603573
1.4475968 0.39021891 -0.10583836
1.3894714 0.42950875 -0.11650258
1.3821428 0.48307866 -0.13121127
1.3493928 0.52760583 -0.14390153
1.4554585 0.39190221 -0.16220129
1.3979326 0.43145609 -0.17134532
1.3768229 0.48081484 -0.18459621
1.361222 0.5318476 -0.19959383
1.4308931 0.38402903 -0.21465333
1.3723477 0.42272028 -0.22176214
1.3705372 0.47802937 -0.23865663
1.3709478 0.53539938 -0.25668228
1.3921334 0.37248069 -0.26352999
1.3890846 0.4271591 -0.27996272
1.3792026 0.48010701 -0.29563105
1.3776973 0.53753656 -0.31487873
1.4367194 0.38293266 -0.32974136
1.4267718 0.43803975 -0.34564102
1.4027324 0.4881331 -0.35896018
1.4043775 0.54851121 -0.38063732
1.5194473 0.40344897 -0.41125926
1.5898418 0.4867993 -0.45183903
1.8170851 0.63178939 -0.54318029
1.56942 0.61303544 -0.49461544
5.9433022 1.5705864 1.8991528
6.120194 1.8706274 1.9007782
6.2399936 2.1694169 1.8922199
0 0 0
6.9288654 1.8356912 1.913799
7.1546025 2.1847448 1.9151614
0 0 0
0 0 0
8.5912495 2.2762737 2.0184176
2.0553751 0.62794751 0.46552852
1.3343796 0.4622187 0.29180315
1.3411149 0.52017576 0.28281468
2.0764282 0.55065924 0.40474251
1.9896495 0.60729796 0.37047732
1.367209 0.47281566 0.24346316
1.3583919 0.52627701 0.23114766
1.3974497 0.37046671 0.21756096
1.3697762 0.41733709 0.20114435
1.3552914 0.46789989 0.18753979
1.3658537 0.5277701 0.17755963
1.4215912 0.37660113 0.16628312
1.401593 0.42700413 0.15143898
1.3798728 0.47576651 0.13694385
1.3312609 0.51365584 0.12052401
1.4429513 0.3820172 0.11385845
1.4194422 0.43195474 0.09883415
1.3847299 0.47706264 0.083807386
1.3346646 0.51446068 0.068005674
1.4818795 0.39182517 0.060518838
1.4269447 0.43347606 0.044626441
1.3737075 0.47248757 0.029871546
1.318578 0.50762564 0.015413134
1.5333568 0.40520728 0.0045119845
1.3798635 0.41862142 -0.0098404745
1.3446949 0.46190506 -0.022881746
1.3286725 0.51095271 -0.036505774
1.5153009 0.39958709 -0.053081378
1.3930995 0.42207941 -0.063019931
1.3744484 0.471187 -0.076808162
1.3490142 0.51839697 -0.090163991
1.4953054 0.39325377 -0.10914801
1.4102091 0.4264572 -0.11801975
1.3897921 0.47620314 -0.13165756
1.3572496 0.52109951 -0.14439569
1.4587975 0.38321695 -0.16230829
1.4034061 0.42373165 -0.17169431
1.3769315 0.47139379 -0.18421949
1.3616847 0.52242059 -0.19918789
1.4293928 0.37423936 -0.21407975
1.3720769 0.41343635 -0.22130425
1.3706435 0.46865317 -0.23816989
1.3751271 0.52733004 -0.25685409
1.4105734 0.36815482 -0.26658803
1.3926198 0.41891065 -0.2801519
1.3747017 0.46910307 -0.29404375
1.3882765 0.53187233 -0.31654477
1.4475458 0.37632066 -0.33168992
1.4322318 0.43011761 -0.34631786
1.3983413 0.47700635 -0.35708082
1.4040955 0.53849506 -0.37965819
1.5228307 0.39436075 -0.41151232
1.6066654 0.481188 -0.45577261
1.8263931 0.62249088 -0.54481065
1.7362008 0.66593271 -0.54587972
5.9417243 1.5312282 1.8956106
6.1288013 1.8322157 1.8999242
6.2868557 2.1425624 1.902408
0 0 0
6.953095 1.7965258 1.9174105
7.161375 2.1388631 1.9134252
0 0 0
1.4077299 0.53725368 0.35490742
8.6022224 2.2227838 2.0177531
2.0629351 0.6164434 0.46637529
1.376138 0.46724638 0.30030227
1.3296099 0.50634974 0.27972803
2.0141211 0.52092934 0.391967
2.0150359 0.60155565 0.37450996
1.4167812 0.48024651 0.25176114
1.3532875 0.51477188 0.22973727
1.4284182 0.369311 0.22202529
1.3770564 0.41033843 0.20183986
1.3553191 0.45862168 0.1871507
1.3690664 0.5193795 0.17755963
1.4306098 0.36961126 0.1670696
1.4022801 0.41782799 0.15123336
1.3855957 0.46824706 0.13722408
1.3399787 0.5075956 0.121029
1.4616807 0.37739378 0.11515143
1.4211096 0.42295244 0.098767683
1.3838474 0.46727952 0.08357887
1.3340594 0.50484753 0.067815714
1.4842557 0.38272515 0.060518838
1.4592807 0.43353677 0.045553666
1.3765808 0.46404976 0.029871546
1.3319569 0.50341415 0.015533122
1.5445293 0.39803711 0.004537588
1.3910342 0.41270673 -0.0099018924
1.3484514 0.45396453 -0.022897838
1.3448761 0.5077337 -0.036864683
1.5409547 0.39625558 -0.053893849
1.4042844 0.41607797 -0.063409217
1.3829933 0.4646529 -0.077124901
1.350302 0.50940526 -0.090039454
1.5112178 0.3875404 -0.11013386
1.4080198 0.41638291 -0.1176205
1.3889111 0.46639833 -0.13130052
1.3622837 0.51346374 -0.14459336
1.4929059 0.38240013 -0.16583905
1.4116951 0.41680002 -0.17239225
1.3826196 0.46388289 -0.18459621
1.3685734 0.5154525 -0.19972916
1.4287856 0.36472738 -0.2136496
1.3859637 0.40836146 -0.22313574
1.366944 0.45803967 -0.23703422
1.3783368 0.51888251 -0.25685409
1.4128058 0.35949278 -0.26658803
1.3942219 0.41008073 -0.27996272
1.3896381 0.46470007 -0.29662308
1.3713734 0.5157693 -0.31196317
1.4185976 0.35951695 -0.32454517
1.423627 0.41802779 -0.3436105
1.4058512 0.46995816 -0.35825542
1.4073732 0.52986956 -0.37965819
1.5880692 0.4008739 -0.42846885
1.6095877 0.47132063 -0.45577261
1.8484344 0.61737013 -0.55024517
1.7896423 0.67386341 -0.56137168
5.9491544 1.494276 1.8950201
6.1261268 1.7905416 1.8956534
6.3035312 2.1051645 1.9035093
0 0 0
6.9471231 1.7495815 1.9127673
7.1659951 2.0924377 1.9111931
2.084909 0.6945498 0.54029983
1.2068243 0.45211512 0.30355132
8.6355572 2.1749613 2.0224037
2.0741837 0.60596645 0.46806893
1.3724744 0.45662963 0.29888576
1.3464781 0.50333548 0.28262174
2.1068518 0.53114247 0.40937132
2.0271947 0.59166282 0.37608796
1.3757157 0.45693478 0.24396102
1.3712246 0.51198614 0.23224464
1.4028496 0.35353163 0.21770978
1.3671885 0.39828065 0.20003152
1.3684605 0.4537296 0.18857735
1.3722274 0.51096928 0.17755963
1.4270693 0.35937032 0.16639549
1.4067274 0.40977228 0.15143898
1.3941137 0.46161413 0.13778456
1.3496059 0.50179493 0.12161816
1.4630018 0.36817464 0.11507537
1.4208038 0.41338846 0.098568283
1.4084889 0.46599212 0.084892824
1.3511773 0.50186932 0.068528064
1.5078961 0.37896889 0.061386775
1.4772716 0.42903501 0.046032231
1.3831996 0.45684868 0.02995378
1.3415834 0.49766639 0.01560948
1.5353042 0.3856293 0.0045034499
1.4079463 0.40834185 -0.010004255
1.3474132 0.44442922 -0.022833472
1.3479662 0.49947217 -0.036864683
1.5743792 0.39456773 -0.054977141
1.4096899 0.40828741 -0.063538976
1.3829727 0.45522159 -0.076966532
1.3534023 0.50111037 -0.090039454
1.5242125 0.38092083 -0.11090846
1.4373611 0.41548619 -0.11985632
1.3851238 0.45568854 -0.13067572
1.3710084 0.50716674 -0.14518636
1.4971534 0.37371421 -0.16605303
1.4209058 0.4100579 -0.17320652
1.3882674 0.45631996 -0.18497294
1.3698517 0.50635833 -0.19945852
1.4252342 0.35452026 -0.21278927
1.3827453 0.39820871 -0.22222
1.3678536 0.4490281 -0.23670974
1.3879632 0.51280534 -0.25805676
1.4178492 0.35152733 -0.26712766
1.399543 0.40233213 -0.28053021
1.3906003 0.4555544 -0.29622626
1.3644192 0.50361955 -0.30967242
1.5288279 0.37748486 -0.34922704
1.4130553 0.40552241 -0.3404519
1.4096321 0.46162564 -0.35849032
1.4096884 0.52088803 -0.3794134
2.5722306 0.6325413 -0.69294018
1.7098643 0.4893128 -0.48330778
1.8704809 0.61200207 -0.55567968
1.7955434 0.66353488 -0.56193501
5.9934778 1.466373 1.9062368
6.1287022 1.7505491 1.8930908
6.2998834 2.0610666 1.8985531
0 0 0
6.9680486 1.7094538 1.9156047
7.1982622 2.0540109 1.9164014
2.1168268 0.69078171 0.54746252
1.3950317 0.51288474 0.35009277
8.6572647 2.1240251 2.0243971
2.1276712 0.6074484 0.47928903
1.9823345 0.64605093 0.43082449
1.3642802 0.50047106 0.2857084
2.0976646 0.51515824 0.40696433
1.995757 0.56922191 0.36960062
1.4375719 0.46770576 0.2544165
1.376195 0.50424236 0.23255806
1.9879252 0.48802373 0.30803779
1.3734162 0.39096874 0.20058793
1.3815925 0.44869336 0.19000399
1.3725396 0.50151771 0.17719851
1.4572341 0.3574726 0.16965373
1.4139987 0.40249467 0.15195303
1.385555 0.4493655 0.1366636
1.358276 0.49555364 0.12212315
1.4758861 0.36180231 0.115912
1.4242734 0.40493566 0.09863475
1.420819 0.46041867 0.085464105
1.3570468 0.49459532 0.068670534
1.5121341 0.37018469 0.061465681
1.4846841 0.42132697 0.046181783
1.3840742 0.44773749 0.029912662
1.3605853 0.49523947 0.015794918
1.5667819 0.38333112 0.0045887963
1.4306294 0.40542069 -0.010147563
1.3539207 0.43738276 -0.022897838
1.3510056 0.4911918 -0.036864683
1.5796834 0.38561112 -0.0550787
1.4342787 0.40588701 -0.0645338
1.3714833 0.44213131 -0.076174699
1.3545754 0.49211502 -0.089914918
1.521675 0.37038171 -0.11055637
1.4408427 0.40692982 -0.11993618
1.3869458 0.44687551 -0.13058645
1.3806423 0.5011214 -0.1458782
1.4926554 0.36287674 -0.16530408
1.4310427 0.40348792 -0.17413712
1.3948187 0.44900912 -0.18547525
1.37107 0.49726793 -0.19918789
1.4302682 0.34646752 -0.21321943
1.3870652 0.39025217 -0.22252525
1.3621284 0.43790859 -0.23524956
1.3966404 0.50629371 -0.25908759
1.4190233 0.34259012 -0.26694778
1.4048215 0.3945336 -0.28109771
1.4017688 0.44970793 -0.29801196
1.3592069 0.4922407 -0.30779812
1.5453539 0.37152013 -0.35247466
1.4211453 0.39842236 -0.34180558
1.4179915 0.45474863 -0.35989988
1.4119464 0.51189804 -0.3791686
2.6334555 0.63048697 -0.7083782
1.6607895 0.46426326 -0.46862236
1.870535 0.59933889 -0.55459279
1.8022871 0.65348637 -0.56278002
5.9614673 1.4198301 1.8932493
6.1467147 1.7149723 1.8953687
6.2977629 2.0176795 1.8941474
1.3287506 0.48106495 0.39006993
6.9925027 1.6700331 1.9194742
7.2051306 2.0082438 1.9149133
2.0821755 0.66536546 0.53743482
1.3725151 0.49506792 0.34367326
8.6672888 2.0701854 2.0237327
2.1417139 0.59726971 0.48161772
2.0413058 0.65144169 0.44276375
1.3608627 0.48976466 0.28435799
2.0950515 0.50090641 0.40585342
2.0580125 0.57334679 0.38047123
1.6988059 0.54119253 0.30005547
1.3848397 0.49779326 0.23349833
2.1418812 0.51190531 0.33140099
1.3805597 0.38386068 0.20128344
1.379595 0.43870521 0.18935552
1.3709185 0.49141166 0.17659661
1.4758304 0.35244823 0.17156374
1.4126084 0.39274517 0.1515418
1.3854394 0.43995139 0.13638335
1.3612912 0.48721009 0.12212315
1.4897166 0.35551712 0.11682469
1.4257697 0.39592189 0.098568283
1.4331335 0.45471135 0.086035393
1.3581749 0.48558679 0.068575554
1.540621 0.36715379 0.062530875
1.4747193 0.40873852 0.045792948
1.4020455 0.44406664 0.030241599
1.3720739 0.48990795 0.015893089
1.5807779 0.37649056 0.0046229349
1.4677849 0.40623733 -0.010393234
1.3603922 0.43027312 -0.022962201
1.353994 0.48289293 -0.036864683
1.5781302 0.37498689 -0.054943286
1.4665941 0.40532911 -0.065874651
1.3894073 0.43851668 -0.077019326
1.3707315 0.48848474 -0.090786666
1.5161538 0.35919821 -0.10999303
1.4538827 0.40099671 -0.12081454
1.3982105 0.44105366 -0.13138978
1.3790038 0.49097168 -0.14538403
1.498724 0.35462689 -0.16573206
1.4421096 0.39707252 -0.17518403
1.3994398 0.44103864 -0.18572639
1.3731619 0.48851374 -0.19905257
1.4236977 0.33564121 -0.21192893
1.3932455 0.38278124 -0.22313574
1.3553774 0.42658013 -0.23362716
1.3932233 0.49540421 -0.25788495
1.427802 0.33545157 -0.26820698
1.4100568 0.38668546 -0.28166521
1.4016966 0.44021735 -0.29741672
1.3539069 0.48094496 -0.30592385
1.5504562 0.36269817 -0.35312417
1.4423561 0.39483935 -0.34631786
1.4207551 0.44603944 -0.35989988
1.4178014 0.50419945 -0.37990296
2.6466966 0.61651129 -0.71090901
2.5424235 0.69392788 -0.71617669
1.8705043 0.58669817 -0.5535059
1.8116871 0.64434463 -0.56447005
5.9868207 1.3871063 1.8985623
6.1663709 1.6797438 1.8982158
6.2944312 1.9741086 1.8894664
0 0 0
6.9988537 1.6262218 1.9184422
7.2145133 1.9632332 1.9141693
2.0927064 0.65460628 0.53910613
1.392962 0.49280518 0.34802938
8.671279 2.0149784 2.0217395
2.0859292 0.56794161 0.46828061
2.0555468 0.64211619 0.44498968
1.3471875 0.47552657 0.28088552
10.652186 2.4778371 2.0605578
2.017792 0.54882234 0.37240595
1.9854634 0.6191206 0.35000941
1.3850735 0.48830152 0.23302819
2.1074185 0.49001908 0.32559741
1.3924459 0.37797669 0.20267448
1.3898349 0.43258935 0.19039308
1.3785907 0.48463681 0.17719851
2.1554868 0.50079942 0.25021115
1.4265113 0.38719693 0.15277551
1.3995221 0.43498835 0.13750432
1.3764778 0.48313835 0.12321729
1.4899275 0.34591869 0.11667258
1.4310613 0.38794929 0.098767683
1.4358965 0.44590926 0.086035393
1.3714975 0.48087952 0.069097944
1.5418715 0.35746816 0.062491424
1.4993912 0.4056865 0.04648089
1.401879 0.43456742 0.030179923
1.3722229 0.48048848 0.015860366
1.5908518 0.3685897 0.004645694
1.4827995 0.40061411 -0.010481947
1.3601412 0.42103079 -0.022913927
1.3569314 0.47457588 -0.036864683
1.5657952 0.36192051 -0.054435495
1.4844867 0.4004862 -0.066566698
1.3834846 0.42733076 -0.076544218
1.3680497 0.4780893 -0.090413056
1.5173572 0.34966454 -0.10992261
1.4842292 0.39958313 -0.12313021
1.4066006 0.43422884 -0.13192533
1.3876274 0.48446909 -0.14597704
1.4989339 0.34497821 -0.16551808
1.4637023 0.39337203 -0.1775105
1.4049637 0.4333207 -0.18610312
1.3808111 0.48171079 -0.19972916
1.4286243 0.32756278 -0.2123591
1.4041591 0.37652895 -0.22450936
1.3607985 0.41912705 -0.23411387
1.3915858 0.48522449 -0.2570259
1.4518899 0.33172384 -0.27234429
1.4095572 0.37726459 -0.28109771
1.4043713 0.43160841 -0.29741672
1.3596034 0.47359371 -0.30654863
1.592635 0.36227265 -0.36221752
1.4391043 0.38447306 -0.34496418
1.4262527 0.43816981 -0.36060464
1.419953 0.49517128 -0.37965819
2.6570346 0.60175574 -0.71268064
2.5904605 0.68998843 -0.72850192
1.6063447 0.49303705 -0.47443363
1.8219485 0.63542801 -0.56644177
6.0138612 1.3545445 1.9044658
6.1561799 1.6364582 1.891952
6.3128586 1.9374238 1.8913939
6.4825091 2.2573614 1.8947394
7.0002189 1.5813311 1.9161208
7.2292323 1.9196746 1.9149133
2.0437558 0.62555319 0.52549714
1.3729693 0.47627372 0.34229764
8.6692114 1.9585111 2.0184176
8.9998026 2.3911829 2.0170786
2.063194 0.63063657 0.44579911
1.3806792 0.47784162 0.28725174
10.677733 2.4148142 2.0625944
2.0715542 0.54981655 0.38169855
1.9996001 0.61009192 0.35183495
1.3712416 0.47398582 0.23020741
2.1489666 0.48580071 0.33154982
1.3765509 0.3646082 0.20003152
1.3896174 0.42318675 0.19000399
1.3815384 0.47616881 0.17719851
2.1914737 0.49500796 0.25403118
1.4182831 0.37563536 0.1516446
1.3850187 0.42117882 0.13582289
1.3869542 0.47727725 0.12389062
1.9413793 0.43819636 0.15181126
1.4440255 0.38196787 0.099498808
1.4357399 0.43621966 0.085864007
1.3763115 0.47310454 0.069192924
2.1610651 0.4870691 0.087464318
1.4979866 0.39545822 0.046361249
1.4380054 0.43611312 0.030899471
1.3741994 0.47173497 0.015849458
2.0359859 0.45857957 0.0059372708
1.5074695 0.39737073 -0.010638904
1.3665268 0.41383642 -0.022978295
1.3617091 0.46688944 -0.036915954
1.589439 0.35712627 -0.055180259
1.5245962 0.40128776 -0.068253577
1.4023312 0.42374432 -0.07744164
1.3719018 0.4700096 -0.090475328
1.5253146 0.34165579 -0.11034512
1.4876173 0.3907218 -0.12321007
1.4168663 0.42789352 -0.13263941
1.3886908 0.47530115 -0.14577936
1.499082 0.33534035 -0.16530408
1.4593633 0.3826203 -0.17669624
1.4047467 0.42383215 -0.18572639
1.3856157 0.47387046 -0.19999979
1.4364032 0.32008228 -0.21321943
1.406443 0.36790612 -0.22450936
1.3699582 0.41276208 -0.23524956
1.3777577 0.47094133 -0.25393334
1.4596598 0.32408828 -0.27342361
1.3985443 0.36513585 -0.27844942
1.4004228 0.42100799 -0.29602787
1.366186 0.46650663 -0.3073816
1.5919681 0.35186151 -0.361568
1.5140266 0.39455253 -0.36233649
1.4372923 0.43192795 -0.36271891
1.432139 0.48958564 -0.38210604
2.7164228 0.59770715 -0.72761256
2.5955794 0.67432332 -0.72876418
1.618557 0.48593873 -0.47715089
1.8321686 0.62640965 -0.56841344
6.0024586 1.3133302 1.8982671
6.1781683 1.6017814 1.8956534
6.3347554 1.9016929 1.8944227
6.502624 2.2197227 1.8966019
7.0050712 1.5373132 1.9148309
7.2352481 1.8738235 1.9134252
7.4850669 2.2408938 1.9210131
1.7186805 0.58440882 0.42758548
8.6886854 1.9069535 2.0201893
9.0266037 2.3391032 2.0198305
2.0557656 0.61459905 0.44337082
1.3938065 0.47282836 0.28937382
10.712505 2.3536799 2.0664825
2.0815606 0.53882235 0.38292587
2.0051959 0.59837508 0.35216689
1.3853489 0.46936619 0.23208793
2.213721 0.48618147 0.34107369
1.4084852 0.36383289 0.20434374
1.3893369 0.41380313 0.18961491
1.378791 0.46577656 0.17647623
2.2080576 0.48453376 0.25560412
1.428266 0.36891598 0.15246709
1.3971201 0.41551074 0.13675702
1.3898566 0.46875808 0.12389062
2.1768088 0.47731814 0.16998906
1.4618007 0.37708801 0.10056225
1.4345614 0.42626446 0.085635498
1.3896011 0.46815875 0.069715314
2.1903679 0.47957015 0.08852952
1.5100647 0.3887513 0.046660352
1.4627002 0.43382004 0.031372316
1.3780159 0.463613 0.015860366
2.1921327 0.47963578 0.0063839178
1.5244069 0.39184785 -0.010741267
1.4188933 0.4202078 -0.023815038
1.3683387 0.45979905 -0.0370185
1.5769538 0.3441703 -0.054672468
1.5415453 0.39565101 -0.068902373
1.3914974 0.41117007 -0.076702587
1.3738136 0.46126524 -0.090413056
1.5234834 0.331442 -0.11006345
1.5015744 0.38455421 -0.12416828
1.4357039 0.42398733 -0.13415682
1.3887509 0.46582201 -0.14548287
1.5030545 0.32655802 -0.16551808
1.4895893 0.38079232 -0.18006964
1.4187392 0.41857359 -0.1872333
1.3913156 0.46630412 -0.20040575
1.4538165 0.31461179 -0.21551365
1.3990977 0.35682708 -0.22298312
1.3696253 0.40351182 -0.23476283
1.3722144 0.45966256 -0.25238708
1.5058541 0.32466257 -0.28169829
1.4169356 0.36066541 -0.28166521
1.4048604 0.41296005 -0.29642466
1.3578925 0.45439062 -0.30488259
1.5654607 0.33594149 -0.35507277
1.5305824 0.38885349 -0.36572069
1.454837 0.42748523 -0.36647767
1.4295999 0.47894096 -0.38063732
2.5516329 0.54505497 -0.68256378
2.6155713 0.66241205 -0.73322231
1.6085805 0.47220334 -0.47334674
1.8505344 0.62003326 -0.5729202
6.0160117 1.277666 1.9000381
6.1906686 1.5645472 1.8965075
6.3297014 1.8579142 1.8894664
6.4987526 2.1739714 1.8915465
7.0124826 1.4938995 1.914315
7.2588205 1.8324761 1.9166493
7.5098596 2.1981976 1.9238782
2.099925 0.69969964 0.52135628
8.6878233 1.8509631 2.0173101
9.0474186 2.2853484 2.0213125
2.055738 0.60087454 0.44256136
1.4208906 0.47231448 0.29438961
10.745007 2.2917998 2.0700004
2.0705087 0.52242714 0.3802959
2.0088298 0.58606017 0.35216689
1.3891402 0.4611682 0.23224464
2.2379394 0.47712538 0.34434754
1.43854 0.36219552 0.20837775
1.3918499 0.40527052 0.18961491
1.3778532 0.4560599 0.17599469
2.2022424 0.46911302 0.25459296
1.4305028 0.36014536 0.15246709
1.4092038 0.40970993 0.13769116
1.3917605 0.4599086 0.12380645
2.1884739 0.46582079 0.17067358
1.4621515 0.36762485 0.10042932
1.4313974 0.4157832 0.085292719
1.3971902 0.46118897 0.069952764
2.1913145 0.46570581 0.088450611
1.5104827 0.3789919 0.046600532
1.4595731 0.42316654 0.031248968
1.3741868 0.45295769 0.015784008
2.2028596 0.46783799 0.0064066765
1.5529724 0.38904798 -0.010925519
1.4137616 0.40926948 -0.023686308
1.3654369 0.44951883 -0.036864683
1.5780581 0.3342807 -0.054638613
1.5691433 0.39248788 -0.070026956
1.4103037 0.40733492 -0.077600002
1.3823066 0.45469818 -0.090786666
1.5196323 0.32085142 -0.10964093
1.5116428 0.37726447 -0.12480708
1.4459339 0.41737986 -0.1348709
1.3868561 0.45573872 -0.1449887
1.4991927 0.31609857 -0.16487612
1.490934 0.37140512 -0.17995331
1.4155613 0.40821114 -0.18647984
1.3997989 0.45961294 -0.20121765
1.4847759 0.31178692 -0.21981533
1.41277 0.35109589 -0.22481461
1.3701791 0.39455426 -0.23443836
1.3656489 0.44816244 -0.25066897
1.5155207 0.31702805 -0.28313735
1.4505732 0.35976487 -0.28790763
1.4073678 0.40433222 -0.29642466
1.3801726 0.4524484 -0.30925587
2.1266284 0.44273385 -0.48172984
1.5367223 0.38039106 -0.36662316
1.4686435 0.42177007 -0.36929673
1.4352754 0.47106716 -0.38137168
2.2091565 0.45774314 -0.59018862
2.6355138 0.65028059 -0.73768038
1.6299487 0.46763235 -0.47878125
1.8679788 0.61315554 -0.57714522
6.0490046 1.2459326 1.9080079
6.2141137 1.5299702 1.9007782
6.3640842 1.8256682 1.8963503
6.5092216 2.1331544 1.8907483
7.0347633 1.4535806 1.9179264
7.2680464 1.7874397 1.9161533
7.4989319 2.1451328 1.9176706
2.091224 0.6825732 0.51814646
8.7037926 1.7986075 2.0184176
9.0755072 2.2332945 2.024488
2.0735109 0.59228408 0.44559678
1.5973004 0.52009261 0.33027199
10.75598 2.2252295 2.0694451
2.0985327 0.51582289 0.38485456
2.0275612 0.57804906 0.35482222
1.3797337 0.44866544 0.23020741
2.228236 0.4607814 0.34241301
1.4724737 0.36114633 0.21296817
1.399079 0.39807945 0.19026339
1.3862916 0.44943389 0.17671698
2.2167568 0.45800418 0.25594118
1.4481429 0.35515201 0.15411204
1.4126488 0.40132758 0.13778456
1.389816 0.44982606 0.12338562
2.2186332 0.45802847 0.17280319
1.4886084 0.36458027 0.10209095
1.4329613 0.40671989 0.085235596
1.3971424 0.45168549 0.069810294
2.215661 0.45668921 0.089318551
1.5195764 0.37137774 0.046809904
1.5035055 0.42592037 0.032132983
1.3740855 0.44359574 0.015751285
2.2086272 0.45491791 0.0064152111
1.5572733 0.37998587 -0.010939168
1.4143219 0.4000428 -0.023654126
1.3710238 0.44205251 -0.036941592
1.5937852 0.32740715 -0.055112552
1.571522 0.38285244 -0.070026956
1.4425699 0.40708119 -0.079236463
1.3784207 0.44406566 -0.090350792
1.5176635 0.31072077 -0.10935926
1.5090861 0.36680493 -0.12440783
1.4570954 0.41093308 -0.13567424
1.4000461 0.45057392 -0.14607586
1.5011041 0.30689374 -0.16487612
1.4902892 0.36154744 -0.17960434
1.4209042 0.40032485 -0.18685657
1.408252 0.45283508 -0.20202956
1.4643563 0.29812959 -0.21651739
1.4072133 0.34056097 -0.22359361
1.3763738 0.38720849 -0.23508734
1.3749381 0.44188449 -0.25187165
1.7507409 0.35503492 -0.32666928
1.4403448 0.34786075 -0.28544849
1.4098222 0.39568916 -0.29642466
1.3894416 0.44606414 -0.31071368
2.1972513 0.44338778 -0.49710184
1.5702815 0.37848797 -0.37406844
1.463717 0.41065022 -0.36741737
1.4464464 0.46492186 -0.38357469
2.2185633 0.44551274 -0.59196025
2.6385157 0.63387167 -0.73741806
1.7124807 0.47995809 -0.50214964
1.8634847 0.59903955 -0.57461023
6.0593467 1.2093542 1.9088935
6.2308426 1.4936 1.903056
6.3622065 1.7829527 1.8924953
6.5524764 2.102895 1.8995289
7.0606022 1.4138032 1.9225698
7.2882986 1.7450659 1.9186336
7.5026002 2.0964663 1.915283
2.0601411 0.65846795 0.50943428
8.7251825 1.7472744 2.0208535
9.1194525 2.1848528 2.0312624
2.0676732 0.57691818 0.44357318
2.0389056 0.65007293 0.42074952
10.749196 2.1551332 2.0655568
2.1035731 0.50339502 0.38520521
2.03297 0.56612641 0.35515416
1.941468 0.61818534 0.32329333
2.2688353 0.45467851 0.34821662
2.1055593 0.50274372 0.30408129
1.392897 0.38709787 0.18909612
1.3899695 0.44121969 0.17683737
2.2565501 0.45180687 0.26021063
1.6225111 0.38737658 0.1724122
1.4112473 0.39158738 0.13741091
1.3906503 0.44068781 0.12321729
2.2184687 0.44381976 0.17257501
1.4898468 0.3552081 0.1020245
1.4335058 0.39738637 0.085121341
1.417029 0.44853005 0.070665114
2.2399786 0.44739112 0.090186477
1.6142058 0.38402408 0.049651403
1.5176536 0.41988614 0.032379687
1.3777349 0.4354575 0.015762193
2.1917639 0.43744299 0.0063583134
1.5702776 0.37296537 -0.011014234
1.4524096 0.40120766 -0.024249502
1.3670372 0.43152523 -0.036762137
1.6643782 0.33127868 -0.057482257
1.5670369 0.37158895 -0.069724187
1.467183 0.40432408 -0.080450617
1.3868304 0.4374007 -0.090724401
1.5811841 0.3136296 -0.1137956
1.5161586 0.35868588 -0.12480708
1.4634303 0.40304261 -0.13603127
1.399937 0.44107783 -0.14577936
1.4951564 0.296132 -0.16402018
1.4944129 0.35285288 -0.17983699
1.4415082 0.39659905 -0.18924251
1.4147843 0.44537577 -0.20257084
1.493345 0.29450038 -0.22053227
1.4188961 0.33418572 -0.22511984
1.3825297 0.37980148 -0.23573628
1.3757442 0.43284839 -0.25152802
2.1891775 0.42997819 -0.40797681
1.4577466 0.34261101 -0.28847513
1.4131689 0.38729027 -0.29662308
1.4042826 0.44134253 -0.31342095
2.1980143 0.4295229 -0.49666888
1.5972347 0.37462986 -0.3799344
1.4783962 0.40499988 -0.37047133
1.4575958 0.45865712 -0.38577777
2.2260034 0.43281472 -0.59322566
2.6395364 0.61701113 -0.73663133
1.7256042 0.47223577 -0.50513864
1.8726166 0.58932233 -0.5763002
6.0066152 1.1605519 1.8900023
6.2314878 1.4533805 1.9004935
6.3962083 1.7502246 1.899379
6.560658 2.0612054 1.8981984
7.0900111 1.374499 1.9282448
7.3016992 1.7009723 1.9193776
7.5246911 2.0529478 1.9176706
2.0604267 0.64465219 0.50851721
8.7299957 1.6925912 2.0195248
9.0822411 2.1170967 2.0200424
2.0844026 0.56782389 0.44640619
2.0391095 0.63638091 0.41997784
10.758359 2.0883877 2.0648162
2.1315527 0.49628276 0.38976383
2.0383086 0.5541591 0.35548609
1.9923701 0.62095475 0.33112884
2.3007052 0.44639924 0.35268092
2.1288607 0.49452025 0.30700245
1.4105574 0.38269806 0.19117126
1.3926506 0.43268266 0.17683737
2.2680593 0.43965429 0.2612218
2.1781037 0.50591898 0.23111667
1.4241945 0.38578421 0.13843846
1.3933281 0.43214664 0.12321729
2.2182133 0.42963034 0.17234685
1.4803345 0.34335452 0.10122691
1.4416993 0.39014781 0.085464105
1.4397914 0.44603413 0.071662404
2.2201173 0.42927551 0.089279093
2.1735537 0.50302327 0.066760197
1.523097 0.41134813 0.032441363
1.3966206 0.43201914 0.015947631
2.2130616 0.42759073 0.0064123664
1.7557068 0.40564349 -0.01229718
1.4818749 0.39957696 -0.024700057
1.3734798 0.42430943 -0.036864683
2.1727703 0.41862592 -0.07495036
1.5741549 0.36308953 -0.069940455
1.5062807 0.40517092 -0.082456596
1.3933029 0.43006048 -0.090973474
2.1453853 0.41187415 -0.15421557
1.5309594 0.35228202 -0.12584515
1.4735707 0.39612412 -0.13674535
1.4092737 0.43453214 -0.1464712
1.4930393 0.28620356 -0.16359219
1.4926777 0.34278747 -0.17937168
1.4582865 0.39160612 -0.19112615
1.4231718 0.43843666 -0.20338273
1.4931796 0.28496078 -0.22024548
1.4334432 0.32834181 -0.22710395
1.3848342 0.37131131 -0.23573628
1.3680176 0.42121002 -0.24963813
2.1801779 0.41433364 -0.40581819
1.4827955 0.33891103 -0.29301503
1.4202528 0.37987819 -0.29761514
1.3985503 0.43013003 -0.31154668
2.2015676 0.4162094 -0.49688536
1.6033026 0.36568892 -0.38083684
1.500573 0.40119326 -0.37540469
1.4650158 0.45113158 -0.38700166
2.2153065 0.41664463 -0.58968252
2.6470368 0.60165924 -0.73768038
2.6052558 0.6958105 -0.76137626
1.7936668 0.55240375 -0.55094981
6.0314674 1.1270084 1.8956106
6.2384186 1.4146935 1.8999242
6.4151864 1.7131776 1.9018574
6.5962167 2.0279932 1.9048504
7.0935631 1.3300792 1.926955
7.308219 1.6552819 1.9183854
7.5371461 2.0067384 1.9176706
2.0699279 0.63370717 0.50989282
8.74405 1.639712 2.0204105
9.1122169 2.0652177 2.0238528
9.421814 2.5046508 2.0144942
2.0467296 0.62500346 0.42074952
10.771936 2.0225177 2.0650015
2.1547222 0.48775908 0.39344585
2.0693121 0.54897499 0.36029887
2.0037003 0.61102271 0.3323825
2.3014572 0.43190917 0.35238329
2.1453786 0.48450255 0.30894995
1.400418 0.37073702 0.18948522
1.4085766 0.42817146 0.17852268
2.2668076 0.42499703 0.26077238
2.1918399 0.49495497 0.23224756
1.4409733 0.38085443 0.13983965
1.3959534 0.4235892 0.12321729
2.2355087 0.4187654 0.17348772
1.8756471 0.42293397 0.12807895
1.4556494 0.38435286 0.086149648
1.4453689 0.43806049 0.071804874
2.2433357 0.41950214 0.090107583
2.1736736 0.48901892 0.06667047
1.5304263 0.40326858 0.032544155
1.4049877 0.4251793 0.016013078
2.2235074 0.41547295 0.0064351251
2.0830617 0.46783161 -0.014569634
1.5055721 0.39607322 -0.025054064
1.3617036 0.41153589 -0.03648014
2.2116513 0.41205928 -0.076202922
1.5549061 0.34861535 -0.068988875
1.5154998 0.39769524 -0.08282613
1.3911382 0.42006072 -0.090662137
2.1753335 0.40380013 -0.15618728
1.5301738 0.34222892 -0.1256056
1.4779004 0.38758034 -0.13692386
1.4223931 0.42903781 -0.14755836
1.6746477 0.31037572 -0.1832789
1.4928142 0.33318943 -0.17913905
1.4616216 0.38290229 -0.19125172
1.4277326 0.43026778 -0.20365338
2.182009 0.40255788 -0.32147813
1.4354309 0.3195402 -0.22710395
1.4023606 0.36680225 -0.23833215
1.3743494 0.41394451 -0.25032535
2.2242815 0.40859073 -0.41355321
1.5461966 0.34343299 -0.30512154
1.4310923 0.37338346 -0.29940081
1.4095927 0.42407662 -0.31342095
2.2088821 0.40357035 -0.49796793
1.5522527 0.34403908 -0.36820245
1.5199364 0.39639363 -0.37963328
1.4826103 0.44660839 -0.3909182
2.2159173 0.40269795 -0.5891763
2.3284135 0.51423329 -0.64799434
2.6159952 0.68151021 -0.76327837
1.6068469 0.48409352 -0.49264374
6.0674167 1.0952404 1.904761
6.2366834 1.3741196 1.8967922
6.4274383 1.6742672 1.902408
6.6085362 1.9874814 1.9048504
7.0816264 1.2829123 1.9215379
7.3049927 1.6074935 1.9149133
7.5389781 1.9577687 1.9150442
2.0607228 0.61708522 0.50668305
8.7587442 1.586898 2.021518
9.1275816 2.0098979 2.024488
9.5109463 2.4659638 2.0302782
2.0505259 0.6124332 0.42074952
10.781242 1.9558581 2.064446
11.331637 2.4921219 2.066292
2.0688229 0.53527951 0.35963506
2.0036259 0.59758765 0.33175567
2.326443 0.42183739 0.35580593
2.2314963 0.48958012 0.32091287
1.4161074 0.36560738 0.19130094
1.4007101 0.41640881 0.17719851
2.2830613 0.41355973 0.26234534
2.2016368 0.4829888 0.23296723
1.4394265 0.37101158 0.139466
1.3966156 0.41444886 0.12304895
2.2792451 0.41249871 0.17668214
2.1608636 0.47333264 0.14735393
1.4521794 0.37392026 0.085806884
1.4556911 0.43145445 0.072184794
2.2596338 0.40821636 0.090659901
2.1883514 0.47823316 0.067029394
1.5464286 0.39735386 0.032831974
1.4574295 0.43130568 0.0165803
2.2181423 0.40040085 0.0064123664
2.1640532 0.47209212 -0.015115569
1.5312184 0.39279044 -0.025440253
1.400633 0.41393927 -0.037454311
2.2102036 0.397773 -0.076067515
1.5599445 0.3397058 -0.069118641
1.5401626 0.39408225 -0.084040277
1.4042188 0.41462594 -0.091347083
2.1816976 0.39114907 -0.15646896
1.5254263 0.33135235 -0.12504664
1.4937602 0.38195923 -0.13817349
1.4459969 0.42649546 -0.14973271
2.2725515 0.40678298 -0.24843758
1.4919184 0.32339218 -0.17879006
1.4764395 0.3771185 -0.19288419
1.4417505 0.42486006 -0.20527719
2.2438719 0.39975002 -0.33022487
1.4721395 0.31824413 -0.23259841
1.4064971 0.35867828 -0.23865663
1.3815885 0.40689543 -0.25118437
2.2277155 0.39510691 -0.41373309
1.5357963 0.33124787 -0.3026624
1.437156 0.3655619 -0.30019447
1.4027851 0.41265926 -0.31133842
2.2353525 0.39424852 -0.5033806
1.5638585 0.33655784 -0.3704586
1.5675581 0.39855683 -0.39090952
1.4723017 0.43366751 -0.38749123
2.2316871 0.39143366 -0.59271944
2.2296209 0.47808599 -0.61967248
2.6247916 0.66663045 -0.76463699
1.6024237 0.47205582 -0.49039039
6.06461 1.0563512 1.9018092
6.2468724 1.3362273 1.8973618
6.4478397 1.6374004 1.9054369
6.5974865 1.940096 1.8981984
7.0750895 1.2369401 1.9176685
7.3147182 1.5626407 1.9149133
7.5452008 1.9100437 1.9136118
8.1186934 2.3769658 1.9925712
8.7663956 1.5327895 2.021075
9.1512108 1.9563061 2.0270286
9.5230494 2.4068394 2.029671
2.056129 0.60038996 0.42113537
10.810464 1.8927193 2.0677786
11.339976 2.4211063 2.0650647
2.091192 0.52739841 0.36295426
2.0044103 0.58445299 0.33128554
2.3211951 0.40619105 0.35461545
2.2199299 0.47278455 0.31882629
1.4289014 0.35957316 0.19272761
1.4060985 0.40863746 0.17755963
2.2787039 0.39834559 0.26155886
2.2045588 0.46947071 0.23296723
1.4503666 0.36435568 0.14030673
1.4010464 0.40642682 0.12321729
2.272893 0.39696181 0.17599761
2.179343 0.46338519 0.14841738
1.4776865 0.37083507 0.087177962
1.4496763 0.42001262 0.071757384
2.2552054 0.39314261 0.090383746
2.2020004 0.46707812 0.067358404
1.5624154 0.39125779 0.033119794
1.4802203 0.42819011 0.01680937
2.23632 0.38952863 0.0064578848
2.1884313 0.4633618 -0.0152657
1.5413599 0.38532764 -0.025568984
1.4300377 0.41310564 -0.038172122
2.1968477 0.38146818 -0.075525865
1.5737293 0.33260685 -0.069637679
1.5580546 0.38849011 -0.084884897
1.4326272 0.41347444 -0.093028314
2.2115784 0.38251522 -0.15844065
1.5342582 0.32342556 -0.1256056
1.500908 0.3739906 -0.1386198
1.4409373 0.41540971 -0.14894204
2.2691264 0.39181617 -0.24779566
1.4831833 0.31198296 -0.1775105
1.4748747 0.36709365 -0.1923819
1.4386176 0.41436026 -0.20446527
2.2550607 0.3874827 -0.33151534
1.4518181 0.30453879 -0.22908807
1.4153748 0.35170716 -0.23979232
1.3755389 0.39595795 -0.24963813
2.2485204 0.38458139 -0.41715086
1.5406833 0.32242158 -0.3032299
1.4422258 0.35744411 -0.30078968
1.4062307 0.4043144 -0.31154668
2.2463918 0.38199824 -0.50532919
2.1790915 0.45499033 -0.51552856
1.5897875 0.39383936 -0.39584288
1.4795935 0.42596668 -0.38871515
2.225462 0.37628135 -0.59044176
2.2164512 0.46105531 -0.61521441
2.6409771 0.65351766 -0.76816946
1.6145105 0.46486953 -0.4932071
6.0728621 1.0194359 1.9023995
6.2605858 1.2990407 1.89907
6.4670973 1.6001153 1.9081904
6.6166782 1.9017082 1.900327
7.0873094 1.1943077 1.9189582
7.3383985 1.5206777 1.9186336
7.5369792 1.8588283 1.9085979
8.1537132 2.3329966 1.9976152
8.8044834 1.4838328 2.027719
9.1850529 1.9046826 2.0318975
9.5347853 2.3476593 2.0290639
2.0569434 0.58695477 0.4205566
10.80734 1.823899 2.0650015
11.363295 2.353277 2.0666428
2.0972617 0.51526302 0.36345214
2.0279052 0.57782668 0.33457643
2.3246186 0.39210528 0.35476425
2.2615812 0.46716759 0.32439044
1.5235329 0.37346146 0.20517837
1.4018947 0.3981038 0.17671698
2.2899241 0.38584214 0.26257005
2.1947341 0.45331925 0.2316307
1.4593445 0.35710609 0.1409606
1.4207702 0.40271378 0.12473226
2.2723362 0.38251159 0.17576945
2.2016897 0.45403478 0.14974669
1.4935116 0.36508009 0.08797776
1.4464597 0.40947723 0.071472444
2.274327 0.38211203 0.091054417
2.1969924 0.45194691 0.067119129
1.5686719 0.3826113 0.03320203
1.5280452 0.43188196 0.01732205
2.2465575 0.37712389 0.0064806435
2.1824176 0.44811499 -0.015204284
1.5592389 0.3796474 -0.025826443
1.4700669 0.41491339 -0.03917193
2.1922469 0.36682683 -0.075288899
1.5786765 0.32354611 -0.069767438
1.5516754 0.37680194 -0.084409796
1.4610735 0.41198963 -0.094709545
2.2414343 0.37352929 -0.16041237
1.515705 0.30981335 -0.12392872
1.5099499 0.36641833 -0.1392446
1.4693207 0.41384456 -0.15161054
2.2783532 0.37902784 -0.2485446
1.497721 0.30545667 -0.17902271
1.4703504 0.35640118 -0.19150288
1.4392256 0.40498853 -0.20419465
2.2661834 0.3750931 -0.33280584
1.5466317 0.31453225 -0.24373995
1.4165472 0.3427839 -0.23963009
1.3893226 0.39071068 -0.25169981
2.2382197 0.36869895 -0.41481239
2.1797025 0.44220775 -0.42845649
1.4701166 0.35479644 -0.30614677
1.4049186 0.39462039 -0.31071368
2.2486935 0.36820745 -0.50532919
2.1961651 0.4445101 -0.51891279
1.5921741 0.38407722 -0.39584288
1.4961798 0.42081782 -0.39238688
2.249691 0.36619401 -0.59626263
2.2173464 0.44706526 -0.61468989
2.6449373 0.63730061 -0.76816946
1.6745996 0.47106352 -0.51067072
6.0648546 0.97986853 1.897972
6.2825356 1.2634369 1.9033407
6.4524937 1.5545495 1.9010311
6.6143017 1.8571645 1.8963358
7.1002259 1.1517265 1.920506
7.3532896 1.476766 1.9201217
7.5633502 1.816175 1.912418
8.1838112 2.2873766 2.0015128
8.7999468 1.4275954 2.0246184
9.1687794 1.8427038 2.025758
9.549964 2.2893391 2.0292664
2.0709035 0.57722056 0.42267871
10.833847 1.7600734 2.0679638
11.406478 2.2893205 2.0719025
2.1416242 0.51224893 0.37058839
2.0342672 0.56616724 0.33504656
12.723237 2.0658853 1.9397451
2.2770283 0.45580885 0.32619882
2.1073728 0.50289005 0.2833848
1.4253566 0.39533156 0.17936534
2.3197122 0.37623855 0.26571593
2.2228336 0.44491997 0.23430376
1.697829 0.40443882 0.16375345
1.4174523 0.39239341 0.12422727
2.2854671 0.37031588 0.17660607
2.2122619 0.44208112 0.15027842
1.482126 0.35267365 0.087177962
1.4470193 0.40006185 0.071377464
2.2825475 0.36910689 0.09129113
2.2154083 0.44158414 0.067597687
1.943553 0.46143147 0.041075945
1.5528361 0.42861724 0.017572936
2.2517908 0.36381066 0.0064891782
2.213568 0.44037384 -0.015402186
1.5625119 0.37030354 -0.025842534
1.4542742 0.40083838 -0.038684841
2.2122173 0.35622853 -0.075898245
1.7119431 0.33992684 -0.075563371
1.5510427 0.36658487 -0.084251434
1.4626117 0.40275195 -0.094647281
2.2417142 0.3594532 -0.16027153
1.5322447 0.30341172 -0.12512648
1.5160472 0.35806233 -0.13960165
1.4699134 0.40429339 -0.15141287
2.3061619 0.36912668 -0.25132641
1.4976183 0.29587606 -0.17879006
1.4705783 0.34691697 -0.19125172
1.450282 0.39851272 -0.20541251
2.2743063 0.3621147 -0.33366618
2.2117736 0.43568438 -0.34813449
1.4147818 0.33318087 -0.23898111
1.3926439 0.38243949 -0.25187165
2.2618146 0.35834497 -0.41876984
2.218025 0.43583012 -0.43545553
1.5371487 0.36100733 -0.31963864
1.4167458 0.38857961 -0.31279621
2.2383733 0.35242882 -0.50251454
2.2284877 0.4368358 -0.5259068
1.5746286 0.3696357 -0.39090952
1.5258474 0.41907635 -0.39948559
2.6342206 0.41221061 -0.69749564
2.2247837 0.43437609 -0.61600113
2.6375542 0.61842334 -0.76490873
1.7116923 0.47018319 -0.52109259
6.0773621 0.943663 1.9000381
6.2929921 1.2254138 1.9041948
6.4347682 1.5085651 1.893046
6.623713 1.8160353 1.8958038
7.0622921 1.101143 1.9083819
7.3669667 1.4325438 1.9213617
7.5838084 1.7719424 1.9148055
8.2070827 2.2396812 2.0038054
8.7353125 1.3621541 2.0077872
9.1741581 1.7852905 2.024488
9.5514326 2.2278066 2.0266356
2.0819805 0.56656396 0.42422202
10.856094 1.6953846 2.0701857
11.418377 2.2189131 2.071552
2.1610548 0.50289822 0.37340972
2.0443745 0.55548739 0.33614358
11.129425 1.7370756 1.6951005
2.2826989 0.44239393 0.32661611
2.1490536 0.49891934 0.28857264
1.4277555 0.38657832 0.17936534
2.3101954 0.36016124 0.2643677
2.2225921 0.43070483 0.23399533
2.176512 0.50437331 0.20961937
1.427529 0.38576832 0.12490059
2.3231647 0.36180934 0.17934416
2.2257085 0.4305833 0.15100954
1.5328945 0.35483018 0.090034381
1.4513756 0.39169613 0.071472444
2.2956302 0.3567825 0.091725096
2.2170947 0.42779297 0.067567781
2.1908588 0.50596577 0.046236135
1.5621953 0.42090207 0.017649293
2.2658386 0.35182831 0.0065233172
2.2054269 0.4247033 -0.015327118
1.5706006 0.36205679 -0.025939083
1.4914587 0.40125728 -0.039607741
2.2133739 0.34249508 -0.075864397
2.1760988 0.41822842 -0.095935635
1.5328251 0.35236275 -0.083142854
1.513248 0.4067229 -0.097760677
2.2902143 0.35283017 -0.16358119
2.0362997 0.39025468 -0.16609004
1.5114205 0.34719238 -0.13897683
1.4637167 0.39294451 -0.15052338
2.3172276 0.35632941 -0.25228932
1.4672128 0.28052613 -0.17495137
1.479448 0.33944014 -0.19213076
1.4622697 0.39217302 -0.2067657
2.4525781 0.37508363 -0.35947621
2.2318797 0.42543593 -0.3508817
1.433151 0.3282387 -0.24173921
1.3921096 0.37312207 -0.25135621
2.564472 0.39018086 -0.47435397
2.2090816 0.42001146 -0.43318558
1.5479345 0.35353285 -0.32142434
1.4276067 0.38215554 -0.31467047
3.4008009 0.5140875 -0.76275694
2.2043262 0.41807091 -0.5195896
1.576867 0.35996699 -0.39090952
1.5649142 0.4194968 -0.40903214
2.6032155 0.39101008 -0.68863779
2.2283552 0.42089599 -0.61626333
2.6281631 0.59923285 -0.76110458
1.8934138 0.50762647 -0.57545519
6.109498 0.91029775 1.908303
6.2919145 1.1851807 1.9016324
6.4448404 1.4692674 1.8933214
6.6282129 1.7736145 1.8939413
7.1014032 1.0626502 1.9171525
7.3699055 1.3862394 1.9198736
7.5888557 1.7240847 1.9133729
8.2178488 2.18853 2.0031176
7.699995 1.1523606 1.7681638
9.1791763 1.7278805 2.0232177
9.5840235 2.1734903 2.0306828
2.0986943 0.55730414 0.42692283
7.7301216 1.1586626 1.4726999
11.421134 2.1468089 2.0696232
2.1987257 0.49746284 0.37938428
2.0525177 0.54419839 0.33692712
7.7287703 1.1577704 1.1760495
2.2892635 0.42910901 0.32717252
2.1733534 0.49052626 0.29142594
1.4387387 0.38009256 0.18044874
2.3153102 0.34642047 0.26470476
2.2457244 0.42090726 0.23615435
2.2125893 0.49844849 0.21279541
1.4452856 0.38106662 0.12624723
2.3381608 0.34946394 0.18033291
2.2645972 0.42370811 0.15346876
2.0259449 0.45588142 0.1188271
1.4527857 0.38252893 0.071424954
2.2859168 0.34092134 0.091251679
2.246208 0.41913143 0.068375364
2.1880691 0.4911994 0.046112783
1.5734524 0.4135966 0.017747466
2.2659764 0.33762401 0.0065176268
2.2168393 0.41281065 -0.015388536
1.8898878 0.42346394 -0.031168735
1.5383711 0.40377241 -0.040787
2.2401483 0.33257681 -0.076710716
2.1913934 0.40724123 -0.096497931
1.5641956 0.34948328 -0.084726527
1.499303 0.39312676 -0.096702129
2.2686529 0.33527103 -0.16189113
2.1748929 0.40299687 -0.17718934
1.5242153 0.34029925 -0.13995868
1.4776518 0.38698119 -0.15170938
2.328223 0.34341022 -0.25325227
1.5030897 0.27783677 -0.17902271
1.4611685 0.32582173 -0.18949366
1.453146 0.38018394 -0.20514187
2.5253351 0.37036768 -0.36980024
2.2373641 0.41227064 -0.35133958
1.4341749 0.31922448 -0.24157697
1.395326 0.36482242 -0.25152802
2.5609775 0.37358624 -0.47327468
2.1990621 0.40414152 -0.43072647
1.5902617 0.35294747 -0.32975757
1.4261394 0.37240028 -0.31383747
2.6164455 0.37911302 -0.58630311
2.2049332 0.40418622 -0.5191384
1.5505778 0.34396952 -0.38386187
1.5571404 0.40718853 -0.40633953
2.6295049 0.37847537 -0.69496483
2.2346931 0.40790826 -0.61731231
2.6562197 0.58850801 -0.76816946
2.6354105 0.68925196 -0.79966593
6.109293 0.87198341 1.9065319
6.2915235 1.1451786 1.8993547
6.4894009 1.4375961 1.9037848
6.6371055 1.7324241 1.893409
7.1269174 1.0217992 1.9223117
7.3763666 1.340646 1.9193776
7.5879135 1.6749763 1.910508
8.2198172 2.1351283 2.0003664
7.7059555 1.1049542 1.7679424
9.2069139 1.6746738 2.0270286
9.6096115 2.117382 2.0333135
2.1134729 0.54736847 0.42923784
7.7069306 1.1068788 1.4669601
11.44281 2.0782731 2.0712013
2.1930685 0.48205701 0.37789068
2.0758982 0.53678644 0.34021801
7.7298555 1.1094828 1.1751566
2.299649 0.41646603 0.32828537
2.2073157 0.4839772 0.29557618
1.4525799 0.37422949 0.18189329
2.3331301 0.33446357 0.26650244
2.260989 0.40942395 0.23749088
2.2146337 0.48465008 0.21270201
1.4620725 0.37591323 0.1275097
2.3343389 0.33426267 0.17987655
2.2867918 0.41335446 0.15479806
2.2032895 0.48160341 0.12905309
1.4744554 0.37857577 0.072374754
2.302803 0.3290087 0.091843449
2.2477536 0.40516376 0.06834545
2.2008102 0.47989443 0.046318367
1.5643369 0.40095508 0.01761657
2.2818649 0.32569206 0.0065574553
2.2173619 0.39884654 -0.015374888
2.1298618 0.46352836 -0.035078906
1.5398511 0.39407769 -0.040761363
2.253031 0.32037297 -0.077083103
2.1830339 0.39184582 -0.096022137
1.553624 0.33712608 -0.084040277
1.5316627 0.39158338 -0.098632433
2.3081992 0.32665601 -0.16456704
2.2087238 0.39526343 -0.17974457
1.5301682 0.33178464 -0.14031571
1.4877119 0.37987673 -0.15250005
2.5399826 0.35873449 -0.27604178
2.2419941 0.40020788 -0.26673105
1.4805932 0.32062957 -0.19175403
1.4573716 0.37175024 -0.20541251
2.5275602 0.35486555 -0.36980024
2.2408247 0.39870784 -0.35149223
1.4476802 0.31292021 -0.24352385
1.4032657 0.35771403 -0.25255886
2.5661442 0.35827342 -0.47381431
2.2218041 0.39424345 -0.43469888
1.5684444 0.33802098 -0.3247973
1.4625198 0.37232953 -0.32133457
2.5858431 0.35849339 -0.57894176
2.2255986 0.39387512 -0.52342504
2.2795773 0.49102992 -0.56357688
1.5821581 0.40337527 -0.41221431
2.5886497 0.35639617 -0.68357617
2.2352531 0.39385384 -0.61678779
2.2420437 0.48233092 -0.64752311
2.6377304 0.67259419 -0.79910254
6.1277823 0.83628988 1.9106646
6.2974873 1.1063871 1.89907
6.5187759 1.4021984 1.9098425
6.6737676 1.6983235 1.9008592
7.1502824 0.98041248 1.926955
7.4035373 1.2987078 1.9243379
7.5942492 1.6275721 1.9095529
8.2667322 2.0932539 2.00862
7.6903696 1.0546033 1.7628487
9.2150908 1.6178118 2.0266051
9.6099739 2.0557158 2.0306828
2.1548464 0.54399711 0.43695447
7.6892381 1.0562257 1.4623313
11.464073 2.009552 2.0727792
2.2229888 0.4743537 0.38253751
2.1059682 0.5307976 0.34460592
7.6983104 1.0567874 1.169353
2.30021 0.40200683 0.32800716
2.2267308 0.47393334 0.29778099
1.4471461 0.36337546 0.18093026
2.3597496 0.32351559 0.26931125
2.273257 0.39725539 0.23851898
2.2126961 0.47001782 0.21223493
1.4730506 0.36911488 0.12826718
2.3422732 0.32074481 0.18033291
2.2843704 0.39845794 0.15446575
2.2149928 0.4699401 0.12956725
1.4699675 0.36782429 0.072042324
2.2988384 0.31406122 0.091606736
2.2531517 0.39187801 0.068435185
2.2125163 0.46824455 0.046503399
1.5735587 0.39304519 0.017692925
2.2986825 0.31371301 0.0066001285
2.1980922 0.38147187 -0.015224757
1.8313534 0.38680935 -0.030122805
1.5626093 0.38970184 -0.041299723
2.2460415 0.30533096 -0.076778419
2.1991789 0.38083023 -0.09662769
1.5683665 0.33026189 -0.084726527
1.5398471 0.38362551 -0.099006034
2.4871042 0.33642161 -0.17717186
2.2219124 0.38356876 -0.18062292
1.5136565 0.31849292 -0.1386198
1.4909804 0.37098143 -0.15259887
2.5184882 0.33995068 -0.27347395
2.2385347 0.38543251 -0.26603311
1.4864162 0.31235483 -0.19225632
1.4509711 0.36064997 -0.20419465
2.5640206 0.3439554 -0.37481883
2.2451768 0.38528517 -0.35179746
1.4437788 0.30281621 -0.24255042
1.4178632 0.3521843 -0.25479236
2.5712194 0.34291121 -0.47435397
2.2367637 0.38275641 -0.43715802
1.573367 0.32899264 -0.32539254
1.4600303 0.36217126 -0.32029331
2.5860586 0.34236398 -0.57850879
2.2241323 0.37955615 -0.52252263
2.2102365 0.46192113 -0.54572284
1.5751935 0.39132205 -0.40976647
2.5879102 0.34012762 -0.68281692
2.2414331 0.38077769 -0.61783677
2.23083 0.46561545 -0.64344716
2.6446013 0.65709084 -0.79994756
6.0920582 0.79336917 1.897972
6.2890348 1.0651643 1.8945144
6.5300803 1.3627627 1.9106685
6.6849985 1.6575741 1.9011253
7.1398783 0.93438941 1.9225698
7.3922629 1.2500256 1.9193776
7.6221571 1.5846997 1.9140892
8.2680807 2.0396931 2.0058689
7.6976624 1.0075228 1.7630702
9.2007532 1.5571613 2.0213125
9.6243248 1.9971093 2.0310876
10.039895 2.4691703 2.0327547
7.7033691 1.0100476 1.4638125
11.482984 1.9403203 2.0740066
2.3002138 0.47609493 0.39531645
2.1168587 0.51974958 0.34585959
7.6830792 1.0067053 1.1660792
2.3143516 0.38985944 0.32967642
2.2422209 0.46286747 0.29946703
1.5052781 0.36816865 0.18791227
2.3784399 0.31122208 0.27122125
2.3011549 0.38759506 0.24119204
2.2028615 0.4538205 0.21102056
1.483032 0.36195958 0.12894049
2.4064851 0.31450734 0.18512455
2.2867723 0.38443381 0.15446575
2.2305472 0.458956 0.13030992
1.5158677 0.36944112 0.074179374
2.3215299 0.30266267 0.092435233
2.280159 0.38217631 0.069182947
2.2124097 0.45405698 0.046441723
1.5759407 0.38338259 0.017692925
2.3104804 0.30089402 0.0066285776
2.2280073 0.3725957 -0.015415833
1.6573758 0.33945304 -0.027226381
1.5766282 0.38293785 -0.041607354
2.337074 0.30311295 -0.079825185
2.205416 0.36798683 -0.0968007
1.5664499 0.31983328 -0.084515378
1.5382924 0.37322867 -0.098756969
2.4970362 0.32217586 -0.17773521
2.2370069 0.37205419 -0.18166098
1.5282691 0.31178758 -0.13978016
1.5019327 0.36393505 -0.15348838
2.5589852 0.32944226 -0.27764666
2.2663331 0.37591547 -0.26905754
1.4853885 0.30263433 -0.1918796
1.4521937 0.3515071 -0.20405932
2.5435045 0.32532847 -0.37152088
2.2562742 0.37295231 -0.35317108
1.6834824 0.34232095 -0.2824617
1.4180825 0.3430146 -0.25444877
2.5849853 0.32861671 -0.47651261
2.2477901 0.37046182 -0.43886051
2.2160649 0.44920731 -0.45773208
1.5116631 0.36514777 -0.33112246
2.5910165 0.32685634 -0.57915831
2.2542975 0.37048364 -0.52906537
2.2130291 0.44835067 -0.54572284
1.577565 0.38164949 -0.40976647
2.5793889 0.32292011 -0.68003297
2.258965 0.36950982 -0.62203264
2.2185526 0.44886509 -0.63909954
2.647651 0.64062589 -0.79966593
6.0977597 0.75609165 1.8982671
6.3020749 1.0276355 1.8965075
6.5496264 1.3249565 1.9139727
6.697854 1.6172031 1.9019235
7.130137 0.88865048 1.9184422
7.3997936 1.2046441 1.9193776
7.6612477 1.5438479 1.9214907
8.2747612 1.9875586 2.0044932
7.7036996 0.96027189 1.7630702
9.2139921 1.5013059 2.0221591
9.6411982 1.9389834 2.0320995
