# .PCD v0.7 - Point Cloud Data file format
VERSION 0.7
FIELDS x y z
SIZE 4 4 4
TYPE F F F
COUNT 1 1 1
WIDTH 1762
HEIGHT 1
VIEWPOINT 0 0 0 1 0 0 0
POINTS 1762
DATA ascii
0 0 -0
0 0 -0
0.59765136 0.48819622 -0.16431172
2.1052761 1.3595645 -0.55577546
1.8459164 1.2923775 -0.52184576
1.5633559 1.1830835 -0.47383687
0 0 -0
2.0582149 1.3264259 -0.6405521
1.8135997 1.2677245 -0.60131568
0.94793034 0.71696448 -0.33558163
0.56755215 0.46397287 -0.21519716
5.1470494 3.3084555 1.8902974
4.8493972 3.3861802 1.7567108
4.322927 3.2694485 1.5524354
5.2336712 4.2743182 1.8652048
5.4155059 3.4858263 1.7195559
0 0 0
4.1692495 3.1483057 1.2844955
4.0236363 3.2781351 1.2224588
0 0 0
6.8446169 4.7781348 1.8081305
6.7613444 5.1015863 1.7502117
0 0 0
6.6426225 4.2779865 1.4886228
0 0 0
0 0 0
0 0 0
0 0 0
0 0 0
0 0 0
0 0 0
0 0 0
0 0 0
0 0 0
0 0 0
5.4084802 3.479969 0.49057245
0 0 0
0 0 0
0 0 0
0 0 0
0 0 0
11.662548 8.7597914 0.2999284
0 0 0
1.1457171 0.73645192 0.0038747308
0 0 -0
0 0 -0
0 0 -0
1.1008769 0.70681489 -0.044313472
1.1544805 0.80194789 -0.060857274
1.1338772 0.84986615 -0.074907757
1.0470691 0.84639931 -0.083999462
1.1126777 0.71334976 -0.093303941
0 0 -0
0 0 -0
0 0 -0
0 0 -0
0.9297235 0.64450055 -0.13249309
0 0 -0
0 0 -0
1.0763507 0.68839133 -0.18511519
0.86371744 0.59803003 -0.16223893
0 0 -0
0.6063481 0.48944253 -0.13590072
2.1009502 1.3414125 -0.45582595
1.8881217 1.3060024 -0.44226542
0 0 -0
0.59682935 0.48144943 -0.16327046
2.0962877 1.3356048 -0.55122876
1.8522085 1.2799191 -0.52139455
1.6601334 1.2403744 -0.50085282
0.58544225 0.47260115 -0.18995148
2.1210139 1.3485497 -0.65750861
1.8944204 1.306989 -0.62544179
1.7103057 1.2771633 -0.60268831
0 0 -0
5.1704803 3.2788584 1.8914782
4.9269137 3.3955276 1.7772106
4.3845024 3.2739217 1.5673045
0 0 0
5.4718633 3.4748027 1.730648
4.8762393 3.3587213 1.5158594
4.1814823 3.1174407 1.2823467
0 0 0
0 0 0
6.8770251 4.738265 1.8089772
6.774457 5.0465479 1.7455575
0 0 0
6.220017 3.9520364 1.3884556
0 0 0
0 0 0
0 0 0
0 0 0
5.0405717 3.4672446 0.85938436
0 0 0
0 0 0
0 0 0
0 0 0
4.487205 3.3327127 0.52442205
0 0 0
5.5332747 3.5124459 0.49992755
0 0 0
0 0 0
9.2501326 7.3995781 0.56318384
0 0 0
0 0 0
0 0 0
1.4489511 1.1580832 0.02023451
1.1248792 0.71334177 0.0037893839
0 0 -0
15.342969 11.368048 -0.30731055
0 0 -0
1.1127919 0.70485991 -0.044618148
1.1041708 0.75699908 -0.057959307
1.1527169 0.85299093 -0.075805172
1.067063 0.851789 -0.085182548
1.1254642 0.71184123 -0.094008125
1.0280516 0.70402211 -0.099813722
0.90723032 0.6711145 -0.10113086
0 0 -0
1.0186126 0.64386082 -0.12967543
0.9385789 0.64214873 -0.13319105
0 0 -0
0 0 -0
1.1148709 0.70342606 -0.19099413
1.0085325 0.68918234 -0.1886428
0 0 -0
0 0 -0
2.1291175 1.3410785 -0.46014315
1.8847457 1.2866416 -0.43961716
0 0 -0
0.61430752 0.48935711 -0.16722725
2.1275876 1.3372639 -0.55729103
1.9429274 1.3250678 -0.54463279
1.692744 1.2486286 -0.50837028
0 0 -0
2.1399031 1.3421928 -0.66079867
1.9127736 1.3024008 -0.62885082
1.720434 1.2683582 -0.60350353
0 0 -0
5.1953621 3.2501116 1.8932493
5.0506988 3.4353194 1.8142239
4.4710555 3.2960153 1.5909847
4.0966291 3.262723 1.4456002
5.6068897 3.5124583 1.7665044
5.0137272 3.408253 1.5520694
4.1731591 3.071578 1.2739904
4.0658474 3.2303283 1.2231467
0 0 0
5.0253153 3.4171562 1.3163512
6.8336959 5.025773 1.7528425
4.0679221 3.2272308 1.0209109
6.2791204 3.9357169 1.396232
5.0280933 3.4171207 1.0826774
0 0 0
4.1051111 3.2541668 0.83119136
0 0 0
5.0084958 3.4000974 0.85034263
0 0 0
4.1462765 3.2807937 0.64114076
0 0 0
4.9371057 3.3515074 0.61675656
4.5372777 3.3269 0.52787834
4.1079369 3.2471933 0.4422861
5.63416 3.528173 0.50707698
4.94523 3.3547535 0.39806169
0 0 0
0 0 0
0 0 0
4.9605784 3.3616271 0.17931335
1.8514111 1.3553878 0.04718183
0 0 0
1.1385605 0.71226007 0.0038206778
4.9076109 3.3231084 -0.040446941
15.702959 11.486201 -0.31310338
0 0 -0
1.1060776 0.6911338 -0.044178061
1.1385834 0.77036464 -0.059516426
1.1619608 0.84884727 -0.076069117
1.0863782 0.85634702 -0.086303376
1.1137311 0.69488955 -0.092670187
1.033178 0.69825906 -0.099893577
0 0 -0
0 0 -0
1.0959445 0.68336684 -0.13898382
0.99600577 0.67250383 -0.14075211
0 0 -0
0 0 -0
1.0830368 0.67408514 -0.1848284
1.0192972 0.68740171 -0.1898638
0.82675034 0.60294855 -0.168244
0 0 -0
2.1297863 1.3233168 -0.45852417
1.9561262 1.3178473 -0.45437196
0 0 -0
0 0 -0
2.1390717 1.3262419 -0.55815703
1.964761 1.3223686 -0.54846823
1.7467332 1.2719778 -0.52223068
0 0 -0
2.1489213 1.3295463 -0.66105181
1.9391513 1.3030187 -0.63488233
1.7375212 1.2645736 -0.6067642
0 0 -0
5.2143931 3.2176702 1.892954
5.1019282 3.424566 1.8250432
4.5456057 3.3081172 1.6102593
4.0756559 3.2053466 1.431232
5.7261415 3.5384271 1.7972015
5.1085591 3.4270773 1.5748867
4.1785722 3.0362101 1.2699314
4.1009083 3.2173362 1.2277319
6.6098785 4.0846853 1.7646204
5.1744118 3.4723022 1.3497998
6.8438005 4.9687886 1.7475811
4.1046405 3.2155221 1.0251549
6.4118123 3.9642975 1.4203018
0 0 0
0 0 0
4.1312227 3.2337873 0.83244503
0 0 0
0 0 0
4.5922418 3.3268783 0.7417289
4.0974903 3.2015047 0.6305474
0 0 0
5.0112934 3.357136 0.62343925
4.6035767 3.332273 0.53320289
4.1152158 3.2121167 0.44093949
0 0 0
4.930068 3.3004787 0.39520365
0 0 0
9.3567801 7.2984085 0.56418115
1.160632 0.71642047 0.053851508
5.0035453 3.3461287 0.18012093
1.9358633 1.3990508 0.049114332
0 0 0
1.1420584 0.7047354 0.0038178328
1.09583 0.73225683 -0.0089942757
0 0 -0
1.506457 1.1731539 -0.04896491
1.111999 0.68538284 -0.044245765
1.1191934 0.74727559 -0.058262084
1.193876 0.86097729 -0.077811159
1.0971254 0.85395622 -0.08673925
1.1001339 0.67706335 -0.091191404
1.0830541 0.72232604 -0.10428539
0 0 -0
0 0 -0
1.0696287 0.6578775 -0.13513207
0.95795989 0.63829273 -0.13481958
0.82905728 0.59735638 -0.12934293
0 0 -0
1.1048641 0.67830062 -0.18783958
1.0012816 0.66635096 -0.18574294
0.81041431 0.58345103 -0.16418798
0 0 -0
2.1403821 1.3117659 -0.45906383
1.9936136 1.3253908 -0.46118185
0 0 -0
0 0 -0
2.1480021 1.3136013 -0.55837357
1.9566071 1.2995083 -0.54395592
1.7560836 1.2623708 -0.52270055
0 0 -0
2.1396964 1.3057526 -0.65573704
1.9631953 1.3017617 -0.64012718
1.785108 1.2825265 -0.62062222
0 0 -0
5.2340379 3.1856148 1.892954
5.1244431 3.3942552 1.8256127
4.6618505 3.3491547 1.6441276
0 0 0
5.8558197 3.5690963 1.8309942
5.2054238 3.4459338 1.5981998
0 0 0
4.1174946 3.1897287 1.226815
5.865418 3.5750871 1.5599883
0 0 0
6.8144608 4.8839159 1.7324042
4.1281738 3.1932776 1.0261196
5.8805938 3.5861673 1.297731
0 0 0
0 0 0
4.1111341 3.1775744 0.82445276
5.7404413 3.5000107 1.0117626
0 0 0
4.7593579 3.4036133 0.76533353
4.0997648 3.1629617 0.62789899
5.8529358 3.5671985 0.77501416
0 0 0
4.7146654 3.3687923 0.54366517
4.0977535 3.1582165 0.43698373
5.7460046 3.5007894 0.51323766
5.1758428 3.4192102 0.41321582
0 0 0
9.7685785 7.5236673 0.58621651
1.1641526 0.70876592 0.053812057
5.1024041 3.3671155 0.18293251
1.9134829 1.3650819 0.048333105
0 0 0
1.1403816 0.69407529 0.0037979188
1.1462178 0.75579494 -0.0093696052
0 0 -0
1.7909931 1.3771663 -0.057937536
1.1067895 0.67283601 -0.043873381
1.0928897 0.72005677 -0.056661714
1.187747 0.84552777 -0.077072106
1.1086752 0.85207385 -0.087237395
1.1110893 0.67444116 -0.091754749
1.0733103 0.70635116 -0.10292792
0 0 -0
0 0 -0
1.1374009 0.68997794 -0.14315654
1.0622767 0.69842583 -0.14889479
0 0 -0
0 0 -0
1.1276298 0.68278575 -0.19099413
1.0425255 0.68460619 -0.19261102
0.87912953 0.62476772 -0.1773295
0 0 -0
2.1542835 1.30217 -0.46032301
1.9984242 1.3109788 -0.46042517
1.8079437 1.2831832 -0.4488036
0 0 -0
2.1434817 1.2928332 -0.55512595
2.0786195 1.3622386 -0.57554191
1.806603 1.2819471 -0.53538626
0 0 -0
2.1352346 1.285116 -0.65194082
2.0179815 1.3203353 -0.65533704
1.7835238 1.2648685 -0.61736149
0 0 -0
5.2469325 3.1495056 1.8905926
5.2679453 3.4429889 1.8691746
4.728579 3.353297 1.6603734
0 0 0
5.9074192 3.5510178 1.8402807
5.3132529 3.4706159 1.6247373
0 0 0
4.1563168 3.1791885 1.2325467
5.9273615 3.5631464 1.5706185
0 0 0
6.7931333 4.8058138 1.7194531
0 0 0
5.9252248 3.5636923 1.3027302
0 0 0
0 0 0
0 0 0
5.9329939 3.5676599 1.0418224
0 0 0
4.6554031 3.2862852 0.74536037
0 0 0
5.9249611 3.5614216 0.78164303
0 0 0
0 0 0
0 0 0
5.9442954 3.5717726 0.52898163
5.1950531 3.3862977 0.41308287
0 0 0
0 0 0
1.1933227 0.71652633 0.054956153
5.185791 3.3766503 0.18517581
1.6782231 1.1817765 0.042206667
0 0 0
1.1257563 0.67574257 0.0037353314
1.1390991 0.74111301 -0.0092740674
0 0 -0
1.8057792 1.3709871 -0.058142629
1.1186117 0.67065746 -0.044178061
1.1123645 0.72313899 -0.05744027
1.1912786 0.83707571 -0.076966532
1.1496605 0.87240463 -0.090039454
1.1023686 0.65992546 -0.090698481
1.0968525 0.71223801 -0.10476448
0 0 -0
0 0 -0
1.1629437 0.69574732 -0.14583136
1.0798739 0.70054334 -0.15075597
0.95081252 0.66751266 -0.14704908
0 0 -0
1.1190525 0.66824293 -0.18884329
1.0541712 0.68303305 -0.19398463
0.84336329 0.59159523 -0.16937968
0 0 -0
2.1622329 1.2889271 -0.46032301
2.0872154 1.3509812 -0.47896326
1.8350487 1.2855624 -0.45356545
0 0 -0
2.1429834 1.2746658 -0.55296087
2.097574 1.3563358 -0.57847494
1.8239888 1.2775295 -0.53820539
1.6637577 1.2607825 -0.52701747
2.1530631 1.2779156 -0.6549778
2.0438814 1.3194426 -0.66110635
1.8527467 1.2969488 -0.63855612
0 0 -0
5.2727365 3.1211452 1.892954
5.3268366 3.4350176 1.8825563
4.8262477 3.3782454 1.6873579
0 0 0
6.1385345 3.6388564 1.9052863
5.3955207 3.477309 1.6433384
0 0 0
4.1563272 3.1389606 1.226815
6.9322429 4.1095214 1.8301735
6.7989907 4.383162 1.7522416
6.8249016 4.7657228 1.7200601
0 0 0
5.9326115 3.5187466 1.2995826
6.6621919 4.2925024 1.4114256
0 0 0
0 0 0
5.9581747 3.533206 1.0424176
0 0 0
0 0 0
0 0 0
6.0603876 3.5923886 0.79658604
0 0 0
0 0 0
0 0 0
5.8623037 3.4737272 0.51977861
5.4221811 3.4871287 0.42943338
0 0 0
0 0 0
1.1564264 0.68475348 0.053062476
0 0 0
0 0 0
12.42067 9.3175688 0.16938086
1.1376262 0.67340678 0.0037609353
1.1242701 0.72168547 -0.0091171106
4.9472823 3.4356341 -0.096933641
1.6325817 1.2237731 -0.052323237
1.1270072 0.66632438 -0.044347323
1.1268721 0.7227726 -0.057959307
1.1471581 0.79560435 -0.073799185
1.1470044 0.85934973 -0.08941678
1.1175641 0.6597414 -0.091613911
1.0684682 0.68452317 -0.1016503
1.061628 0.73603845 -0.11576939
0 0 -0
1.1406443 0.67293704 -0.14251459
1.0674213 0.68319577 -0.14842948
0.85703653 0.59386081 -0.13198
0 0 -0
2.1243138 1.2509171 -0.357182
1.0658365 0.68134266 -0.19535825
0.9775936 0.67684221 -0.19550049
0 0 -0
2.1658609 1.2731432 -0.45942363
2.1136727 1.3497758 -0.48312488
1.8574134 1.2843122 -0.45713684
0.8522839 0.63719547 -0.2265794
2.1600275 1.2669259 -0.55534244
2.1124272 1.3476313 -0.58027983
1.8805662 1.3000304 -0.55253553
1.6986344 1.2708796 -0.53558487
1.8519303 1.0838724 -0.56133723
2.1154261 1.3473117 -0.68156105
1.8725463 1.2937617 -0.64263201
1.6778804 1.2554433 -0.6151709
5.2909632 3.0882518 1.8926588
5.3769298 3.4207921 1.8928062
4.8943419 3.3813548 1.703879
4.4534359 3.3288615 1.5347363
6.164083 3.6030729 1.9063182
5.4829726 3.4862404 1.6634275
0 0 0
4.1567812 3.0994346 1.2213125
6.9615374 4.0693693 1.8312808
0 0 0
6.8435326 4.7165322 1.7174295
0 0 0
5.9846282 3.5001388 1.3062481
6.6692953 4.2393961 1.407393
0 0 0
0 0 0
0 0 0
0 0 0
0 0 0
0 0 0
6.2521749 3.6544185 0.8188321
0 0 0
4.9826655 3.4235229 0.56720537
4.4753141 3.3197169 0.47064966
6.2192659 3.6338725 0.54944116
5.5108767 3.4965582 0.43475062
0 0 0
0 0 0
1.189082 0.69427115 0.054364379
1.129625 0.71595395 0.040020227
4.9442353 3.3916585 0.12328951
0 0 0
1.1305093 0.65986049 0.0037239518
1.1345907 0.7185185 -0.00916488
1.0375304 0.7111153 -0.020242782
0 0 -0
1.1310745 0.65939665 -0.044347323
1.1034256 0.6982156 -0.056531951
1.1355373 0.77726936 -0.072743401
1.1338003 0.83864468 -0.087984614
1.1190048 0.65136623 -0.091402657
1.1232052 0.70990819 -0.10644136
1.0151607 0.69463807 -0.11023531
0 0 -0
1.1903014 0.69242263 -0.14818522
1.0892292 0.68776917 -0.15087229
0.98841274 0.67595553 -0.15156981
0 0 -0
2.134517 1.2393497 -0.35761216
1.1067783 0.69798589 -0.20207369
0.85137433 0.58175808 -0.16954193
0 0 -0
2.1591637 1.2514441 -0.45636562
2.1293924 1.3414918 -0.48482737
1.9178811 1.3088019 -0.4700335
1.7422583 1.2859797 -0.46107239
2.1491678 1.242896 -0.55057931
2.1338487 1.342947 -0.58388966
1.9214282 1.3109275 -0.56216735
1.7422754 1.2869321 -0.5468449
1.561078 0.90083247 -0.47149289
2.131007 1.3389268 -0.68392116
1.9003274 1.2958021 -0.64942515
1.7156513 1.2673588 -0.62615609
5.3081565 3.054776 1.8920685
5.3994417 3.3887546 1.8933755
5.0111055 3.4167905 1.7371967
4.4846363 3.3094862 1.5384613
6.2120252 3.5801384 1.914315
5.6117692 3.5199661 1.6959172
0 0 0
4.1639628 3.0652153 1.2178735
6.9863758 4.0265775 1.8312808
5.579833 3.50102 1.4268585
5.004252 3.4038074 1.250585
0 0 0
6.0162077 3.4692428 1.3084699
6.6935143 4.1973481 1.4070423
5.0432897 3.4266279 1.02613
0 0 0
0 0 0
5.55826 3.4815383 0.92128557
5.0096445 3.3999357 0.79192114
0 0 0
6.2718973 3.6144984 0.81849498
0 0 0
4.9673204 3.3682992 0.56309515
4.5173054 3.3080902 0.47292212
0 0 0
5.562675 3.4817357 0.43714336
4.9156971 3.3315411 0.33979982
0 0 0
1.1708043 0.6740005 0.053338639
1.2136647 0.75882 0.042831812
4.9699206 3.3646204 0.12341286
1.8412046 1.3462199 0.024881357
1.1544714 0.66438347 0.0037893839
1.1338897 0.70836437 -0.0091239344
4.9592552 3.3544974 -0.096354358
0 0 -0
1.1394316 0.65493435 -0.044516589
1.1042991 0.68931592 -0.056358941
1.1444225 0.77308214 -0.073007345
1.1848686 0.86522138 -0.091533884
1.1281713 0.64746702 -0.091825165
1.082709 0.67505163 -0.10220926
0 0 -0
0 0 -0
1.1557162 0.66284621 -0.14337052
1.1010162 0.68579888 -0.15191922
1.018856 0.68763787 -0.15558824
0.87173164 0.63583791 -0.14736116
2.13521 1.2222958 -0.35646501
1.0909005 0.6786527 -0.19841072
1.0316402 0.69568968 -0.204586
0.82624483 0.60246116 -0.1783375
2.1650937 1.237196 -0.45600581
2.1309114 1.3242544 -0.48331404
1.9356309 1.3035791 -0.4724144
1.7516972 1.2764174 -0.46148893
1.5613776 0.89022839 -0.39859083
2.1453595 1.331884 -0.58479208
1.9294357 1.2991132 -0.56216735
1.7532727 1.2785025 -0.54782403
1.5581671 0.88645303 -0.46896207
2.137542 1.3248093 -0.6833967
1.9250094 1.2954006 -0.6551314
1.7420017 1.2703768 -0.63291627
5.315166 3.0155475 1.8879361
5.4233937 3.3575788 1.8945144
5.0973778 3.4299872 1.7597755
4.5313487 3.3012056 1.547508
6.2237949 3.5362272 1.9112195
5.7453008 3.5547886 1.7296472
0 0 0
4.1819048 3.0390358 1.2176442
6.9787321 3.9653275 1.8228652
0 0 0
6.8529224 4.5999942 1.7054902
6.7806139 4.920135 1.6471157
6.0288382 3.4274058 1.3066183
6.7191429 4.1561985 1.4070423
0 0 0
0 0 0
0 0 0
0 0 0
0 0 0
4.6347728 3.3540683 0.69374663
6.529819 3.7099528 0.84916753
0 0 0
0 0 0
4.6126189 3.3346026 0.48074943
1.1869576 0.67412996 0.10412306
0 0 0
5.0547175 3.3806851 0.34796917
0 0 0
1.1618824 0.65940583 0.052746862
1.1859686 0.73142052 0.041695215
5.0794239 3.3934898 0.12561262
1.9078077 1.3770334 0.025666742
1.1333032 0.642977 0.0037068827
1.1084186 0.68303251 -0.0088850884
1.0902547 0.7277506 -0.021095619
0 0 -0
1.1399508 0.64595973 -0.044381179
1.1221195 0.69090807 -0.057050988
1.1142465 0.7427817 -0.070790209
1.041993 0.75113076 -0.080138847
1.1303866 0.63955009 -0.091684327
1.1182468 0.68771631 -0.10516374
1.0484736 0.6986981 -0.1129131
0 0 -0
1.2402525 0.70125288 -0.15332088
1.1077422 0.68059003 -0.15226819
1.0544331 0.70227098 -0.16036011
0.8715964 0.62758231 -0.14668456
2.1030226 1.1867974 -0.34986913
1.8506244 1.1355891 -0.3353141
1.0597125 0.7051999 -0.209291
0.8131355 0.58529431 -0.17472951
2.1632166 1.2185773 -0.45402712
2.1314621 1.3065358 -0.48161155
1.9378791 1.2878803 -0.47102553
1.7856981 1.2844927 -0.46836126
1.5285127 0.85910577 -0.38884798
2.1576455 1.3212391 -0.58592021
1.9729929 1.3109186 -0.57250386
1.7618712 1.2682869 -0.54806876
1.5407941 0.86409873 -0.46212885
2.1431606 1.3101587 -0.68260998
1.9906447 1.3218958 -0.67469567
1.756772 1.2647095 -0.63545126
5.3452435 2.9894068 1.8920685
5.447166 3.3262367 1.8956534
5.1631765 3.4284258 1.7751954
4.653255 3.3465054 1.582098
6.2386322 3.4941952 1.9091558
5.8356395 3.5613556 1.7502322
5.1808367 3.4345527 1.5282632
0 0 0
7.0335603 3.9395878 1.830838
6.8928328 4.2078571 1.7492778
6.8744869 4.5535321 1.7038713
6.772387 4.8510118 1.6378559
5.9623137 3.341346 1.2877328
5.8679409 3.5800846 1.2241706
0 0 0
0 0 0
0 0 0
5.851716 3.5661225 0.96259952
0 0 0
0 0 0
6.6556277 3.7275977 0.86253756
5.906796 3.5995479 0.71494007
5.1428757 3.3959656 0.57822806
4.6467814 3.3160772 0.48218021
1.1849815 0.66342455 0.10359065
5.8606453 3.5688996 0.45708302
5.1311941 3.3864517 0.35179681
0 0 0
1.1816032 0.66104567 0.053456992
1.1528596 0.70127344 0.040379152
5.1552424 3.3985782 0.12696949
1.9113348 1.3618199 0.025601292
1.1581736 0.64772576 0.0037751596
1.1271156 0.68504781 -0.0090010995
1.1047196 0.72764719 -0.021288713
0 0 -0
1.1456379 0.63992769 -0.044448886
1.098158 0.66689664 -0.055623636
1.1137774 0.73263806 -0.07047347
0 0 -0
1.1569405 0.64523476 -0.093515202
1.1096615 0.67308748 -0.10396598
1.032768 0.67911804 -0.11077087
0 0 -0
1.244532 0.69362968 -0.15332088
1.1458744 0.69436944 -0.15692115
1.0429699 0.68543553 -0.15797417
0.88108391 0.62624055 -0.14763178
1.939887 1.0790955 -0.32162151
2.1348805 1.2920513 -0.38537467
1.0640196 0.69868433 -0.209291
0.85124302 0.60482955 -0.18211728
1.9264113 1.069663 -0.40294003
2.1192713 1.2812402 -0.47707161
2.0104938 1.318426 -0.48669994
1.8031158 1.2803068 -0.47086033
1.5175295 0.84072167 -0.38473433
2.1573727 1.3029387 -0.58366406
2.0013216 1.3121115 -0.57837695
1.7585551 1.2495899 -0.54464185
1.52744 0.84433162 -0.45656106
2.1428952 1.2920012 -0.67998761
2.0083778 1.315986 -0.6779564
1.7809241 1.2655784 -0.64136642
5.3860774 2.9690061 1.9000381
5.4699364 3.2942345 1.8965075
5.2918668 3.4672801 1.8120924
4.7271514 3.3558352 1.6001915
6.2320423 3.4404409 1.9006432
5.8847718 3.5419676 1.7584167
5.3074579 3.4718053 1.559301
0 0 0
6.961132 3.8430982 1.8058126
5.886981 3.5444171 1.4884633
6.9096756 4.516088 1.7056926
6.7964168 4.8054004 1.6365055
6.9874187 3.8596792 1.5039905
5.8914843 3.5450273 1.2245213
0 0 0
0 0 0
6.9666057 3.8473892 1.1976271
5.8887649 3.5393324 0.96510333
0 0 0
4.8459582 3.417078 0.71902621
6.6896834 3.6929324 0.86399817
5.9210978 3.5586247 0.71401477
5.1594458 3.3616281 0.57776105
0 0 0
1.2108549 0.66818488 0.10549209
5.8978305 3.5421193 0.4582794
5.1410003 3.347821 0.35105413
0 0 0
1.1926371 0.65764302 0.053772606
1.1442837 0.68647325 0.039930493
5.1642652 3.3592501 0.12668167
0 0 0
1.1656293 0.64253819 0.0037865394
1.1312977 0.67811906 -0.0090010995
1.1116787 0.72248966 -0.021336988
6.8663468 4.8252459 -0.21521488
1.1530448 0.6348142 -0.044584293
1.115943 0.66835928 -0.056315687
1.1182518 0.72579026 -0.07047347
1.0339807 0.72624069 -0.078831218
1.167871 0.64196789 -0.094078548
1.1180476 0.66882467 -0.10436523
1.0544621 0.68415278 -0.11264532
1.0156586 0.71292174 -0.12324534
1.2496359 0.68645895 -0.15342787
1.182511 0.70668668 -0.16134146
1.0721281 0.695216 -0.16174145
1.0333411 0.72495681 -0.17239495
1.3095077 0.71795046 -0.21637399
2.1436169 1.2794341 -0.38552728
1.0616616 0.68785012 -0.20799306
1.0009228 0.70197868 -0.21321467
1.5403103 0.84295243 -0.32109284
2.1346836 1.2727383 -0.4787741
2.0399408 1.3199084 -0.4918586
1.8349661 1.2860596 -0.47710791
1.5355126 0.8384124 -0.38798195
2.1485868 1.2797064 -0.57915175
2.0599356 1.3325397 -0.59294212
1.8717637 1.3128242 -0.57719791
1.5308927 0.83401781 -0.45605487
2.1424878 1.2738965 -0.67736518
2.0859184 1.3485731 -0.70132482
1.8530695 1.299809 -0.66446352
5.4167867 2.9427433 1.9044658
5.4834528 3.2566936 1.8942298
5.376821 3.475976 1.8338453
4.851069 3.3992319 1.6350477
6.2657652 3.4090631 1.9045125
6.3395853 3.762917 1.8873837
5.3857741 3.4760354 1.5760139
0 0 0
7.004283 3.8110325 1.8109062
6.945631 4.1239524 1.7497013
5.4319477 3.5028825 1.3355762
6.8225551 4.7613616 1.6357336
7.0006123 3.8110943 1.5017687
5.9622321 3.5379508 1.2346905
0 0 0
0 0 0
7.0717254 3.8490076 1.2116152
0 0 0
0 0 0
0 0 0
6.8492546 3.7263715 0.88163763
6.0831561 3.605401 0.73087561
5.4538393 3.5059586 0.60830712
0 0 0
1.229823 0.66884112 0.10678507
5.9022832 3.4956949 0.4569501
0 0 0
0 0 0
1.1782129 0.6402933 0.05294412
1.1656798 0.68961799 0.040528703
1.2444482 0.79866469 0.030406067
0 0 0
1.1730646 0.63728338 0.0037979188
1.1311331 0.66862059 -0.0089669786
1.1051489 0.70863867 -0.021127801
1.0892035 0.75548416 -0.033993442
1.1577967 0.62820393 -0.044618148
1.116582 0.65946716 -0.056142677
1.1142745 0.71353 -0.069945581
1.0950136 0.7591179 -0.083127707
1.1752964 0.63669044 -0.09436021
1.121272 0.66144544 -0.10428539
1.0812893 0.6921683 -0.11505532
1.0380093 0.71914375 -0.12541966
1.2520758 0.67783177 -0.15321387
1.1953815 0.70446026 -0.1625047
1.1006087 0.70412916 -0.16538313
1.0377699 0.71860266 -0.17239495
1.3051814 0.70519751 -0.2149401
2.1318376 1.2547274 -0.38201693
1.0916357 0.69779801 -0.21302254
0.91287118 0.6319046 -0.19362848
1.3090901 0.70601118 -0.27198455
2.1356809 1.2556347 -0.47726077
2.0860035 1.3316261 -0.50098544
1.8749976 1.2970333 -0.48543802
1.5105377 0.81278396 -0.38040417
2.1412773 1.257618 -0.57509071
2.1114993 1.3475903 -0.60539293
1.8574624 1.2858622 -0.57034403
1.5308671 0.82186311 -0.45453638
2.0720119 1.2148463 -0.65271467
2.112004 1.3471345 -0.70730281
1.8444432 1.2769446 -0.65854836
5.4532728 2.9193718 1.9109597
5.5091224 3.2263775 1.8962228
5.4539738 3.4785888 1.8528445
4.918611 3.4017532 1.6507462
6.2950797 3.375118 1.9070921
6.3366365 3.7087774 1.8796954
5.5036573 3.5044696 1.6041868
4.8865809 3.3710341 1.3983077
7.0215192 3.7647576 1.809356
6.9767084 4.0847139 1.7511832
5.4839101 3.4889369 1.3430634
6.8492179 4.7177401 1.6351551
0 0 0
5.9965744 3.5087585 1.2373205
0 0 0
0 0 0
1.2714211 0.68193179 0.21711455
0 0 0
0 0 0
0 0 0
1.2383069 0.66389257 0.15886779
6.2545943 3.6553383 0.74876451
5.5055175 3.4916251 0.61167002
4.9617333 3.4047601 0.50827134
1.24445 0.66693443 0.10769776
1.1338888 0.66219461 0.087468557
0 0 0
4.9345479 3.3836992 0.28446507
1.2085454 0.64720356 0.054127671
1.1716162 0.68345988 0.040588528
1.177525 0.74555331 0.028658591
4.9635191 3.4005094 0.06563399
1.1681367 0.62535393 0.0037694699
1.1369424 0.66267461 -0.0089806272
1.1001812 0.6959644 -0.020950796
1.0946435 0.74935138 -0.034019075
1.1695616 0.62532908 -0.044922825
1.1180173 0.65109515 -0.056012917
1.1144104 0.70401281 -0.069681637
1.0947087 0.74900329 -0.082754105
1.174781 0.62711817 -0.094008125
1.1434039 0.66507792 -0.10596225
1.1006744 0.69509345 -0.11666199
1.0218664 0.69871938 -0.12294883
1.265861 0.67528409 -0.15439081
1.219433 0.70858943 -0.16518016
1.1074253 0.69895124 -0.16575986
1.0397055 0.71054435 -0.17198899
1.3007481 0.69252485 -0.21350621
2.1198366 1.2302138 -0.37850657
2.1166749 1.3348026 -0.41144335
0.99482018 0.67964011 -0.21012211
1.3081856 0.69519573 -0.27090523
2.1475928 1.2449692 -0.4782066
2.1314564 1.3423049 -0.50991392
1.8966528 1.2948793 -0.48897833
1.4878949 0.7888661 -0.37347591
1.9440907 1.1258198 -0.52026641
2.1295991 1.3408238 -0.60821199
1.9029438 1.3001484 -0.5818488
1.510226 0.79888332 -0.44694388
1.5572729 0.90025419 -0.48881483
2.1243029 1.3367127 -0.70866144
1.8958166 1.2953759 -0.67404032
5.4355893 2.8671341 1.8985623
5.5246649 3.1901166 1.8947991
5.5362411 3.4834564 1.8734961
5.017415 3.4247663 1.6768218
6.327631 3.342747 1.9107035
0 0 0
5.5735726 3.5011096 1.6182733
5.0608492 3.4456155 1.442098
6.9927535 3.6942725 1.7960683
7.0024872 4.0423174 1.7513949
5.8577409 3.6764777 1.4290664
5.0441093 3.4289386 1.199165
0 0 0
6.0094633 3.4669785 1.2355672
0 0 0
5.0082231 3.4017324 0.96063399
1.2878213 0.68058622 0.21919788
0 0 0
0 0 0
5.0082822 3.3952618 0.73371255
1.2581722 0.66463631 0.16089016
6.2829385 3.6203682 0.74948418
5.5082693 3.4461608 0.60961497
4.9775805 3.370899 0.50776637
1.2458737 0.65788931 0.1074696
1.1690594 0.67314881 0.089861311
0 0 0
4.9634895 3.3589561 0.28493997
1.1965865 0.63138235 0.053417541
1.1523932 0.6628027 0.039780941
1.1413747 0.71289152 0.027671782
4.9710369 3.3610287 0.06545946
1.1746054 0.61957425 0.0037780046
1.1323169 0.65070361 -0.0089123854
1.1018862 0.68761265 -0.020902522
1.0967358 0.74094188 -0.03394217
1.1654185 0.6139487 -0.044618148
1.1237241 0.64521784 -0.056099422
1.0941315 0.68184519 -0.068150744
1.0570992 0.71378773 -0.079578444
1.1830211 0.6222198 -0.09436021
1.142275 0.6550743 -0.10548315
1.1049187 0.68832672 -0.11666199
0.96344459 0.65013301 -0.11543749
1.2514986 0.65779001 -0.15214396
1.2263433 0.70257503 -0.16552913
1.0813743 0.67326641 -0.16123913
1.0514387 0.70913762 -0.17320687
1.3005909 0.68223196 -0.21278927
2.1204827 1.2132572 -0.3772856
2.1348796 1.3280444 -0.41339028
0.98181838 0.66195816 -0.20651412
1.2941258 0.67757392 -0.26712766
2.1304679 1.2176381 -0.47272083
2.1188385 1.3162712 -0.50495368
1.9507976 1.3143687 -0.50084877
1.4459791 0.7553131 -0.36178452
1.5516325 0.88587922 -0.41377652
2.1394374 1.3287572 -0.6086818
1.9261599 1.2987466 -0.58649969
1.5150995 0.78960174 -0.44694388
1.5610906 0.88972634 -0.48829037
2.1324646 1.3236531 -0.70866144
1.9721457 1.3298534 -0.69826406
5.4471445 2.8306441 1.8964961
5.541636 3.1547353 1.8939451
5.5926332 3.4712207 1.885336
5.1150846 3.4456158 1.7023652
6.3480225 3.3038585 1.9107035
6.438087 3.6628344 1.8963122
5.7344527 3.5532858 1.6586227
0 0 0
7.0005836 3.6436424 1.7923033
7.0016756 3.9847722 1.7450438
5.8826876 3.6420126 1.4296736
6.8080001 4.5671906 1.6118121
0 0 0
5.9878345 3.4057028 1.2268006
5.7267427 3.5414579 1.1331741
0 0 0
1.3393368 0.69733155 0.22723365
0 0 0
0 0 0
0 0 0
1.2622266 0.6569038 0.16089016
6.5160666 3.7016318 0.77456981
0 0 0
0 0 0
1.249887 0.65023237 0.1074696
1.2191573 0.69206947 0.093383983
0 0 0
0 0 0
1.2066441 0.62725443 0.053693704
1.172959 0.66508675 0.040349241
1.1491321 0.70797247 0.027754016
4.9790893 3.3221385 0.065295838
1.1774975 0.61189419 0.0037751596
1.1502091 0.6516301 -0.0090215718
1.113748 0.68555582 -0.021047344
1.1145697 0.7430709 -0.034352344
1.1682767 0.60632586 -0.044584293
1.1320091 0.64077133 -0.056315687
1.1178614 0.6871466 -0.069364898
1.0548145 0.70286053 -0.079080299
1.1744171 0.60852438 -0.093374364
1.1627598 0.65737402 -0.10700031
1.1294879 0.69404894 -0.11880422
0.97735476 0.65082771 -0.11662349
1.236087 0.64004081 -0.14979011
1.2470624 0.70431727 -0.16773929
1.1353632 0.69724983 -0.16864811
1.0541205 0.70157486 -0.17293623
1.2880473 0.66560638 -0.21006487
2.0581627 1.1608956 -0.36492309
2.140465 1.3133718 -0.41290355
1.053937 0.70121384 -0.22077425
1.3087499 0.67503166 -0.26928627
2.132766 1.2016507 -0.47158584
2.1335611 1.3073423 -0.50654095
1.9539388 1.299125 -0.49959925
1.3750621 0.70756406 -0.34294835
1.554492 0.87490839 -0.41309968
2.1351175 1.3079885 -0.60515803
1.9591162 1.3035537 -0.59408796
1.5052848 0.77277911 -0.4426415
1.5656792 0.87965822 -0.48802811
2.138905 1.3095387 -0.70811802
1.969085 1.3102858 -0.69432068
5.4542046 2.7919436 1.892954
5.5750999 3.128648 1.8987852
5.6408834 3.4534039 1.8944227
5.2035632 3.4589903 1.7247158
6.3544188 3.2577929 1.9065762
6.4908586 3.6403215 1.9052408
5.850605 3.5757637 1.6858406
0 0 0
7.1078496 3.6442196 1.8140067
7.0183229 3.9374321 1.7431386
5.8798494 3.5905371 1.4236027
6.8342595 4.5242481 1.6114264
0 0 0
5.963964 3.3438613 1.2176833
5.8982201 3.5976577 1.162715
0 0 0
1.3462299 0.69045424 0.22768009
0 0 0
5.8834257 3.5844085 0.90112478
0 0 0
1.2503171 0.64098692 0.15886779
6.660161 3.7296212 0.7889632
5.9337039 3.6117747 0.65174431
5.1599865 3.4028203 0.52207434
1.2556279 0.64346045 0.10762171
1.2007418 0.67190748 0.09165588
5.9005923 3.5896442 0.39521438
5.1544652 3.3967273 0.29348817
1.2389308 0.63441253 0.054956153
1.1717827 0.65495098 0.040169779
1.1568723 0.70298499 0.027836252
5.1012716 3.3586092 0.066626623
1.1954722 0.61194825 0.0038206778
1.1489475 0.64163494 -0.0089806272
1.1093866 0.67352021 -0.020886432
1.118273 0.73566866 -0.03432671
1.1782042 0.60233063 -0.044821266
1.1446439 0.63868141 -0.056748219
1.1075399 0.6714735 -0.068467483
1.0699486 0.70350337 -0.079889782
1.1807944 0.60266727 -0.093585618
1.1789618 0.65702057 -0.10811823
1.1209484 0.679362 -0.11746532
1.0312278 0.67760587 -0.1225535
1.2072197 0.61572963 -0.14583136
1.2530963 0.69761842 -0.16797194
1.1387715 0.68975621 -0.16852252
1.0592335 0.69563752 -0.17307153
1.2400701 0.63120335 -0.20160492
1.3224146 0.73524183 -0.23366676
2.1265342 1.2869303 -0.40868527
2.0925574 1.3737887 -0.43656605
1.3049742 0.66297865 -0.26766732
1.8602467 1.0331208 -0.4099184
2.1323152 1.2886499 -0.50435841
2.0264785 1.3294964 -0.51605123
1.2870709 0.65232939 -0.3199985
1.5572753 0.86393589 -0.41242284
2.1347835 1.2898364 -0.60280883
2.0067923 1.3175832 -0.60608232
1.4478369 0.73209661 -0.42441952
1.5735798 0.87143737 -0.48881483
2.1394854 1.2919128 -0.70567244
2.0428569 1.3413639 -0.71741778
5.4712329 2.7584245 1.892954
5.5883203 3.0911331 1.8967922
5.6586752 3.4167395 1.8933214
5.2843351 3.46612 1.7444055
6.3855004 3.2244031 1.9099296
6.5190077 3.6037066 1.9069768
5.9289889 3.5738873 1.7020758
0 0 0
0 0 0
7.0449166 3.8957133 1.7437737
5.9101591 3.559444 1.4256264
6.8659987 4.4849119 1.612391
0 0 0
6.9675465 3.8505478 1.4177375
5.8737073 3.5334404 1.1535871
0 0 0
0 0 0
0 0 0
5.9299564 3.5630507 0.90488595
0 0 0
1.2648708 0.63867766 0.16021605
6.6864038 3.6906078 0.78937441
5.9583149 3.5768356 0.65202457
5.1732521 3.3662043 0.52131689
1.2729046 0.64248329 0.10876258
1.2205685 0.67320126 0.092852257
5.915658 3.5492623 0.39475736
5.140039 3.3421669 0.29149359
1.246369 0.62859851 0.055113964
1.1582696 0.63810241 0.039571568
1.1491578 0.68867815 0.02754843
1.8674216 1.2131262 0.02429232
1.2108127 0.6104539 0.0038576613
1.1554909 0.63601965 -0.0090010995
1.1246505 0.67337769 -0.021095619
1.1101882 0.72062904 -0.03394217
1.1925898 0.60048348 -0.045227502
1.1406627 0.62731308 -0.056358941
1.1133534 0.66569 -0.068573058
1.1596488 0.75233138 -0.086241111
1.1844699 0.5954107 -0.093585618
1.1829709 0.64977419 -0.10811823
1.1191112 0.66889417 -0.1168405
1.0554055 0.68425792 -0.1249255
1.2154173 0.61054218 -0.14636633
1.2582239 0.69039416 -0.16808826
1.1991947 0.7163341 -0.17681053
1.0851009 0.70313394 -0.1765898
1.2394961 0.62136495 -0.20088798
1.3009005 0.71286601 -0.22908807
2.1335435 1.2733523 -0.40852302
2.0562992 1.3320017 -0.42728838
1.2632724 0.63207066 -0.25831336
1.4892784 0.8151809 -0.32706457
2.1292369 1.2690188 -0.50177908
2.0756512 1.3436117 -0.52646393
1.3286102 0.66316813 -0.32930833
1.5249364 0.83379978 -0.4024958
2.1301322 1.26925 -0.59928495
2.0490165 1.3273857 -0.61636317
1.4947363 0.74433011 -0.4368206
1.5755091 0.85991639 -0.48776588
2.1424108 1.2758064 -0.70404208
2.0808442 1.3481073 -0.72783959
5.4983249 2.7299004 1.8964961
5.6063404 3.0563269 1.8965075
5.6877933 3.3868728 1.8960748
5.3929038 3.4901946 1.773142
6.4068947 3.186022 1.9104456
6.5563097 3.5719814 1.9114411
6.623601 3.9373813 1.8945115
0 0 0
0 0 0
7.015481 3.823416 1.7306482
5.9554644 3.5371151 1.4312924
6.8999858 4.4469504 1.6139342
0 0 0
6.9512706 3.7860613 1.4096721
6.8239684 4.0482731 1.3353132
0 0 0
1.2713777 0.63248003 0.21369191
1.3117962 0.71361887 0.20976879
6.0839295 3.6049447 0.92498875
0 0 0
1.2589786 0.62603778 0.15898015
6.9404759 3.7754712 0.81661904
5.9878607 3.5447736 0.65286529
5.3807998 3.4544454 0.54008561
1.2839659 0.63821137 0.10937104
1.2150332 0.66045761 0.092121132
1.1762948 0.69597059 0.078208804
0 0 0
1.2528872 0.62227255 0.05523232
1.1709474 0.63575274 0.039870676
1.1542226 0.68212277 0.02756899
1.8697791 1.1984076 0.024226874
1.2234923 0.60745996 0.0038861101
1.1646456 0.6317786 -0.0090420451
1.126178 0.66493922 -0.021047344
1.1112217 0.71164691 -0.033839624
1.1899841 0.59004676 -0.044990532
1.148882 0.62268257 -0.056575209
1.1191374 0.65986049 -0.068678647
1.0944725 0.7005434 -0.081072867
1.191677 0.58990186 -0.093867287
1.1886888 0.64345247 -0.10827793
1.1497941 0.67769277 -0.11960755
1.0855708 0.69439167 -0.12798934
1.2057729 0.5964604 -0.14476144
1.2589418 0.68077117 -0.16762297
1.2027125 0.7084589 -0.17668495
1.100247 0.70340061 -0.17834894
1.2264243 0.6054244 -0.19816358
1.3052499 0.7048704 -0.22908807
2.1158044 1.2452223 -0.4036558
2.0918264 1.3368659 -0.43295807
1.2609501 0.62126416 -0.25705415
1.346469 0.72631049 -0.29471752
2.1420536 1.2589098 -0.50296956
2.1094098 1.3471701 -0.5329197
1.3168833 0.6472519 -0.32541117
1.5171593 0.81749541 -0.3991116
2.1144145 1.2423681 -0.59270716
2.1134932 1.3508168 -0.63325322
1.623491 0.79605168 -0.4730114
1.5833052 0.8516044 -0.48855257
2.1560078 1.266048 -0.70594418
2.1117141 1.3497835 -0.73572642
5.5175467 2.697371 1.8973817
5.6190767 3.0186937 1.8945144
5.7275348 3.3631051 1.902408
5.4970884 3.5099525 1.8002818
6.4297943 3.1483498 1.9114774
6.5849314 3.5353515 1.9134252
6.6233401 3.8824241 1.8875875
5.5598884 3.5407691 1.5526053
0 0 0
7.0663619 3.7950954 1.7374227
5.9838157 3.5044658 1.4329113
6.6886749 4.252903 1.5583744
0 0 0
0 0 0
6.9184771 4.0471559 1.3489219
0 0 0
1.2574735 0.61596698 0.21071568
1.2489463 0.66953003 0.19905779
6.0956612 3.5615439 0.92343241
0 0 0
1.2752903 0.6244185 0.1605531
1.242263 0.66591936 0.14568163
0 0 0
5.5349007 3.5056055 0.55338365
1.2887533 0.63075936 0.10944709
1.2366538 0.66241252 0.093450442
1.1693326 0.6821996 0.07746613
0 0 0
1.2548866 0.61369532 0.055153415
1.179233 0.63091367 0.040020227
1.1635692 0.67804801 0.027692342
1.4993112 0.94803351 0.019350955
1.2253999 0.59906298 0.0038804205
1.1570356 0.61849219 -0.0089533301
1.1302369 0.65801662 -0.021047344
1.1197931 0.70748496 -0.033967804
1.1962763 0.5840494 -0.045092087
1.1658999 0.62268132 -0.057224005
1.1231652 0.65298122 -0.068678647
1.1004382 0.69488043 -0.081197403
1.1961708 0.5830158 -0.09393771
1.1934941 0.63661581 -0.10835779
1.148764 0.66762227 -0.119072
1.0990683 0.69355935 -0.12907651
1.2129855 0.59079218 -0.14518942
1.2736137 0.67863834 -0.16901885
1.207037 0.7010659 -0.17668495
1.1137608 0.70245051 -0.17983744
1.2318963 0.59875304 -0.19845037
1.2964636 0.68988442 -0.22679871
2.1404743 1.2421219 -0.40690061
2.1199899 1.3366151 -0.43708149
1.2399569 0.60149413 -0.25201741
1.3248881 0.70420897 -0.28904262
2.1404095 1.2403371 -0.50078708
2.1474271 1.3529713 -0.54041684
1.2593143 0.60939163 -0.31025565
1.4782635 0.78487146 -0.38760528
1.6240895 0.9409098 -0.45363358
2.1389651 1.348683 -0.63839364
1.6440272 0.79364568 -0.4775669
1.5842375 0.83961391 -0.48724139
1.9721808 1.1418856 -0.64344716
2.1207681 1.3373127 -0.73600811
5.5417418 2.6671941 1.9000381
5.6332569 2.9819164 1.8930908
5.7447348 3.3259716 1.9013065
5.5560403 3.4997902 1.8125213
6.4489913 3.1088378 1.9114774
6.6321898 3.5084705 1.9208657
6.7462468 3.89905 1.9157605
5.651567 3.5506012 1.5720931
0 0 0
7.1594858 3.788693 1.7545702
6.0009656 3.4652352 1.4318994
6.7138133 4.2112608 1.5581815
0 0 0
0 0 0
6.9124274 3.9868915 1.3429472
0 0 0
1.2460874 0.60093737 0.20818591
1.3090714 0.69145477 0.20796044
6.4963002 3.7423494 0.98062813
0 0 0
1.2674613 0.61097246 0.1590925
1.2665553 0.66896939 0.14804626
0 0 0
5.5571513 3.472106 0.55346781
1.2890062 0.62110859 0.10914286
1.2354006 0.65201777 0.093051657
1.1804198 0.6789943 0.077923156
0 0 0
1.274834 0.61378622 0.055863541
1.1981137 0.63159013 0.040528703
1.1547042 0.66342467 0.027383963
1.1487629 0.7165485 0.014769557
1.2533813 0.60324198 0.003957232
1.174965 0.618837 -0.0090625174
1.1411904 0.65505129 -0.021176076
1.1173259 0.69637066 -0.033762716
1.2106469 0.58189374 -0.045498326
1.158205 0.60946763 -0.056661714
1.1262842 0.64558065 -0.068625852
1.1055284 0.68864292 -0.081259675
1.1970276 0.57437068 -0.093726456
1.1991426 0.63020813 -0.10851748
1.1813573 0.67690176 -0.12201755
1.1024584 0.68627661 -0.12897767
1.2076225 0.57903963 -0.14411949
1.2610453 0.66203904 -0.16680868
1.2311171 0.70498538 -0.17957319
1.1130023 0.69246292 -0.17902553
1.2221559 0.58477569 -0.19629954
1.2997969 0.68145758 -0.22664608
2.1437728 1.2265147 -0.4060894
2.1331704 1.3267035 -0.43811232
1.2427367 0.59345067 -0.25183755
1.3083068 0.68513334 -0.28450266
2.1224492 1.2125944 -0.49483478
2.1324286 1.3253134 -0.53458577
1.2991667 0.61886722 -0.31913248
1.4718294 0.76991588 -0.38467228
1.5378324 0.87837845 -0.42802715
2.1299107 1.3247794 -0.63325322
1.6427494 0.78063661 -0.47579533
1.5311913 0.79950517 -0.46940911
1.5604196 0.89073807 -0.50731248
2.130563 1.3252882 -0.73657137
5.5597301 2.6339586 1.9006284
5.6650472 2.9543879 1.8976464
5.7541804 3.2844646 1.8977269
5.6445484 3.5073512 1.8343399
6.4618349 3.0663097 1.9096717
6.6286793 3.454726 1.9136733
6.7970438 3.872967 1.9234008
5.737781 3.555851 1.5899761
0 0 0
7.2267962 3.767735 1.7653672
5.9965835 3.4138138 1.4258287
6.0970311 3.7724514 1.4096363
0 0 0
1.3079146 0.68145394 0.26264787
6.9256167 3.938066 1.3407899
0 0 0
1.265831 0.60091358 0.2108645
1.2377423 0.64409626 0.19599749
6.5320735 3.7097635 0.98257357
0 0 0
1.2765727 0.60573983 0.15976663
1.2715186 0.66164452 0.14814907
6.5491462 3.7159836 0.7064845
0 0 0
1.292793 0.61318767 0.10914286
1.2482307 0.64902824 0.093716308
1.1941168 0.67715585 0.078551576
0 0 0
1.2857997 0.60937595 0.056179155
1.2250301 0.63620454 0.041306376
1.1718023 0.66371816 0.027692342
1.1497313 0.70739031 0.014725924
1.2679037 0.60067773 0.003991371
1.1778524 0.61115533 -0.0090556927
1.1425776 0.64655948 -0.021127801
1.1122099 0.68374288 -0.033480719
1.2169048 0.57573664 -0.045599885
1.1725664 0.60786718 -0.057180751
1.1302242 0.63865775 -0.068625852
1.1080322 0.68080157 -0.081135139
1.2050391 0.56914502 -0.094078548
1.2012165 0.6219219 -0.10835779
1.1898246 0.67208964 -0.12246385
1.1312407 0.69459915 -0.13184385
1.2084552 0.57034576 -0.14379852
1.2377355 0.64014465 -0.16320266
1.2492425 0.70522141 -0.18158241
1.1645204 0.71464163 -0.18660332
1.2266164 0.57768732 -0.19644293
1.2890265 0.66575962 -0.22405149
2.1228957 1.1973407 -0.40073544
2.1362324 1.310499 -0.43708149
1.2285496 0.57744545 -0.24823986
1.3098681 0.67574221 -0.28393516
1.915498 1.0788239 -0.44503382
2.1388528 1.3111817 -0.53416926
1.2666976 0.59389204 -0.31025565
1.466134 0.75551534 -0.38196492
1.5338763 0.86367995 -0.42544299
2.1231234 1.3025589 -0.62884706
1.4871392 0.69553721 -0.42948118
1.5497984 0.79715723 -0.47360495
1.5650169 0.88067472 -0.50704074
2.1362014 1.3106852 -0.73572642
5.5792508 2.6014104 1.9018092
5.6915951 2.9239523 1.9004935
5.7616582 3.2420244 1.8935966
5.8188305 3.5663428 1.8838303
6.4752755 3.0241499 1.908124
6.6247592 3.4011567 1.9064808
6.7089205 3.7684128 1.8918852
5.8201175 3.5576363 1.6067127
0 0 0
0 0 0
5.9516578 3.3400512 1.410247
5.847856 3.5688462 1.3469386
0 0 0
1.2709049 0.65228742 0.25440726
6.9186821 3.8781385 1.3348153
5.9330878 3.6177359 1.1026136
1.2112607 0.56592727 0.20119183
1.2258087 0.6283583 0.19349362
6.5728827 3.6797857 0.9852972
5.8990159 3.589761 0.83735925
1.2694616 0.59285003 0.15841839
1.2702433 0.65110779 0.14753221
6.6665392 3.7287045 0.71666652
5.9254584 3.6018853 0.58570296
1.2902067 0.60229135 0.10861046
1.2566299 0.64363134 0.094048634
1.2287501 0.68686599 0.080551066
1.1610607 0.70524228 0.064586394
1.2940423 0.60358685 0.056376413
1.2289107 0.62867594 0.041306376
1.1688691 0.6526165 0.027527874
1.1497759 0.69772857 0.014671383
1.2688465 0.5916189 0.0039828364
1.1895939 0.60801262 -0.0091171106
1.1447769 0.63856238 -0.021095619
1.1249325 0.68208867 -0.033737082
1.2448771 0.57964951 -0.046513911
1.1736047 0.59929794 -0.057050988
1.1393561 0.63462645 -0.068942592
1.1224314 0.68019712 -0.08188235
1.2157453 0.56510407 -0.094641887
1.1916898 0.6077466 -0.10716001
1.1887047 0.66186917 -0.12192829
1.1346302 0.68712938 -0.13174501
1.2074233 0.56082588 -0.14326355
1.2310201 0.62712783 -0.16180675
1.4364634 0.79932821 -0.20807886
1.1544738 0.69876111 -0.18430293
1.219363 0.56515604 -0.19472225
1.2411171 0.6313988 -0.21504669
1.922357 1.06874 -0.36163536
2.1501334 1.3009363 -0.43828413
1.2463543 0.57650381 -0.251118
1.3139898 0.6676923 -0.28393516
1.5030456 0.83442104 -0.34801129
2.1443467 1.2965151 -0.53354448
1.264999 0.58365446 -0.30895659
1.4394681 0.73063141 -0.37384281
1.5195994 0.84340286 -0.4200398
2.1385415 1.2940247 -0.63105017
1.4281031 0.65727687 -0.41125926
1.602867 0.81205553 -0.48829037
1.5687081 0.87012178 -0.50649732
2.1335316 1.291095 -0.73206472
5.5681872 2.554776 1.8926588
5.7000203 2.8842137 1.8973618
5.7671504 3.1986835 1.8889157
5.867002 3.5465293 1.8923447
6.4875646 2.9815373 1.9063182
6.6653876 3.3704987 1.9121852
6.8287668 3.7807982 1.919103
5.9285312 3.5741227 1.6305566
0 0 0
0 0 0
7.0192246 3.882726 1.6575308
5.9032712 3.5531373 1.3546553
0 0 0
0 0 0
6.9492531 3.8394287 1.336143
5.9221649 3.5614123 1.0965018
1.271313 0.58450848 0.21056688
1.2517412 0.63198292 0.19697122
0 0 0
5.9388061 3.5642254 0.8398872
1.2793956 0.5879541 0.15920486
1.2768784 0.64464635 0.14784063
1.2337525 0.68015337 0.13217977
5.9765058 3.5828798 0.58856457
1.2975022 0.59602827 0.10891469
1.2685732 0.63995332 0.094646819
1.2338159 0.67979532 0.080608189
1.1653662 0.69810486 0.064586394
1.2940891 0.59396815 0.056218609
1.2443495 0.62697059 0.041695215
1.1737274 0.6459142 0.02754843
1.1591836 0.69374162 0.014736832
1.2824504 0.58840942 0.0040141298
1.1941954 0.60115153 -0.0091239344
1.1477973 0.63104445 -0.021079527
1.1222327 0.67106897 -0.033531994
1.2656736 0.57990992 -0.047157116
1.1754749 0.59118778 -0.056964483
1.1537331 0.63339031 -0.069576055
1.1154466 0.666641 -0.081072867
1.2219112 0.55887848 -0.094853148
1.2043042 0.60489726 -0.10795853
1.2102067 0.66414654 -0.12371348
1.1516399 0.68780816 -0.13322751
1.2180761 0.5567131 -0.14411949
1.2224165 0.61332691 -0.16017823
2.0980773 1.1506845 -0.30288848
1.174904 0.70131296 -0.18687396
1.2210069 0.55684227 -0.19443548
1.266174 0.63439649 -0.21870966
1.3101488 0.71789312 -0.24563299
2.1487696 1.2821662 -0.43639424
1.251659 0.56966048 -0.25147778
1.2767901 0.63896304 -0.27504447
1.5012585 0.82141918 -0.34642401
2.1463811 1.2798269 -0.53208673
1.2650006 0.57426739 -0.30809057
1.3794398 0.689551 -0.35714734
1.5238931 0.83359641 -0.41980487
2.1414456 1.2778975 -0.62958145
1.3862816 0.62774974 -0.39809895
1.6224989 0.80952936 -0.49274844
1.5799284 0.86371142 -0.50839937
2.1455331 1.2804381 -0.733473
5.5750499 2.5166314 1.8897071
5.6978765 2.8393509 1.8908131
5.811975 3.1770704 1.8971763
5.8903084 3.5114505 1.8928769
6.6131387 2.9902377 1.9377893
6.6911464 3.3321283 1.9136733
6.794724 3.7076619 1.9031066
6.6472902 3.9520326 1.821537
0 0 0
0 0 0
7.0368972 3.8363025 1.6561143
5.922431 3.5153463 1.3540766
1.3179229 0.59630811 0.27254391
0 0 0
7.0177159 3.821239 1.3447729
0 0 0
1.2352327 0.55876422 0.20401922
1.2254469 0.60930049 0.1922417
1.3048679 0.70963216 0.19428395
6.0998178 3.6101348 0.85950905
1.272114 0.57518023 0.15785661
1.2825912 0.63768506 0.14804626
6.9768715 3.7906353 0.74497074
0 0 0
1.2956834 0.58559185 0.10845835
1.2778375 0.63482106 0.095045619
1.2353318 0.6707828 0.080436811
1.179948 0.69703776 0.065156274
1.309548 0.59136271 0.056731481
1.2490685 0.6197679 0.041725125
1.1600914 0.62916732 0.027137261
1.1582515 0.68356657 0.014671383
1.2860367 0.58052939 0.0040141298
1.2104046 0.60003072 -0.0092194732
1.1578016 0.6273241 -0.021192165
1.1263292 0.66417044 -0.033531994
1.2737638 0.57418662 -0.047326382
1.1808707 0.58485091 -0.057050988
1.158476 0.62677437 -0.069628842
1.1169364 0.65826398 -0.080886066
1.2253175 0.55137044 -0.094853148
1.2053126 0.59617054 -0.10771897
1.2072504 0.65291786 -0.1229994
1.1618407 0.68426377 -0.13391934
1.2133077 0.54555899 -0.14315654
1.2092382 0.59745562 -0.15796806
1.6442808 0.88872087 -0.23658453
1.2150474 0.71519995 -0.19255732
1.2253035 0.54974496 -0.19457887
1.2664975 0.62486631 -0.21809916
1.3067149 0.705621 -0.24417283
2.1515021 1.26596 -0.43536338
1.2443571 0.55714589 -0.24931915
1.3062299 0.64370435 -0.28053021
1.5010942 0.80940115 -0.34523356
2.1449194 1.2611797 -0.52979594
1.2693918 0.56689274 -0.30830708
1.3687859 0.67375982 -0.35331193
1.5084447 0.8131606 -0.41416678
2.1191635 1.2470313 -0.62076926
1.3909911 0.61962551 -0.39835206
1.6499546 0.81062227 -0.49956667
1.5894345 0.85628313 -0.509758
2.1550033 1.2682226 -0.73403639
0.96054751 0.42652509 0.32469192
5.7194943 2.8064475 1.8922367
5.8279738 3.1395252 1.8960748
5.9250393 3.4830582 1.8971341
0 0 0
6.6905904 3.2807729 1.9077209
6.82932 3.6723394 1.9064492
6.7671399 3.9672911 1.8476737
0 0 0
1.0239881 0.50229639 0.24705401
7.0145817 3.7684889 1.6453893
5.988771 3.5052099 1.3643011
0 0 0
0 0 0
0 0 0
0 0 0
1.2657416 0.56323516 0.20848352
1.2522871 0.61309111 0.1958584
1.2069438 0.64681351 0.17910957
6.2521791 3.6486952 0.87780672
1.2756194 0.56736386 0.15785661
1.2784394 0.62586701 0.14712098
1.2525389 0.67060137 0.13330072
0 0 0
1.3019854 0.57884586 0.10868651
1.2781235 0.6252147 0.09477976
1.2499876 0.66884249 0.081122354
1.1885183 0.69229841 0.065393724
1.3131518 0.58331633 0.056731481
1.2555422 0.61340839 0.041814856
1.1850926 0.63334709 0.027630666
1.1667453 0.67896146 0.014725924
1.300542 0.57749748 0.0040482688
1.2284418 0.59961069 -0.0093286606
1.1642751 0.62162089 -0.021240439
1.1372969 0.66126674 -0.033737082
1.2836584 0.56919599 -0.047563352
1.1907231 0.58065957 -0.057353765
1.1631813 0.62012416 -0.069681637
1.1261321 0.65440696 -0.081259675
1.2523936 0.55433893 -0.096684009
1.2008823 0.58483565 -0.10700031
1.2173868 0.64877707 -0.12362422
1.197857 0.69561172 -0.13757619
1.2293626 0.54373437 -0.14465445
1.2093089 0.58828676 -0.15750277
1.2705514 0.67668283 -0.18221028
1.1748524 0.68186879 -0.18552078
1.2241266 0.54021841 -0.19386193
1.2214156 0.59333289 -0.20970486
1.3075354 0.69573581 -0.24352385
2.1558208 1.2507573 -0.43467617
1.2558546 0.5530684 -0.25093812
1.231528 0.59752816 -0.26369461
1.3242699 0.70360249 -0.30356744
2.1475403 1.2450515 -0.52854645
1.2782094 0.56144893 -0.30960613
1.3194162 0.6394313 -0.33954945
1.4790685 0.78565049 -0.4047699
1.5313454 0.88852251 -0.44697347
1.3726135 0.60137302 -0.39202496
1.6514226 0.79880232 -0.49851772
1.5887085 0.84335577 -0.50785595
2.1436565 1.2438997 -0.72755796
0 0 0
5.7322907 2.7692156 1.8908131
5.8471279 3.1037061 1.8960748
5.9679828 3.4592056 1.9040521
0 0 0
6.7158294 3.2421856 1.909209
6.8869047 3.6490066 1.916238
6.8730979 3.9729447 1.8699126
0 0 0
0 0 0
7.0903692 3.7533255 1.6577333
6.015265 3.4713402 1.3654586
1.3215404 0.57851392 0.27180329
0 0 0
0 0 0
6.919333 3.9895267 1.2673161
1.2637384 0.55307931 0.20759067
1.2140983 0.58518714 0.1893205
1.2827891 0.67736119 0.18974461
0 0 0
1.2854493 0.5623138 0.1586431
1.2858397 0.61973834 0.14753221
1.2716006 0.67080057 0.13488875
0 0 0
1.3119078 0.57364243 0.10921893
1.2900264 0.62125683 0.095377944
1.254068 0.66116011 0.081122354
1.1832157 0.67952073 0.064871334
1.3121281 0.57324785 0.056534223
1.2655877 0.60872579 0.042024229
1.1792253 0.62093955 0.027404523
1.1656854 0.66880393 0.014660476
1.3058938 0.57030708 0.0040539582
1.2402096 0.59595978 -0.0093900785
1.1654127 0.61306882 -0.021192165
1.1456693 0.65676183 -0.033865262
1.2917073 0.56330639 -0.047732618
1.2077732 0.57982826 -0.058002565
1.1705008 0.61483282 -0.069892794
1.1292603 0.64698869 -0.081197403
1.2612591 0.54903281 -0.097106524
1.2080436 0.57917994 -0.10731972
1.2098808 0.63527572 -0.12246385
1.1779224 0.67440462 -0.13480885
1.2335874 0.53657746 -0.14476144
1.207521 0.57828152 -0.15680483
1.2588669 0.66057658 -0.17994991
2.1223974 1.2144634 -0.33396447
1.2219712 0.5303331 -0.19300158
1.2205753 0.58369547 -0.20894174
1.309158 0.68632531 -0.24303713
2.1549037 1.2326145 -0.43295807
1.2673484 0.54887056 -0.25255707
1.2342851 0.58953714 -0.26350546
1.3155371 0.68864542 -0.30059129
2.0056894 1.1464273 -0.49189392
1.2816304 0.55359542 -0.30960613
1.2969364 0.61873889 -0.33278099
1.4537191 0.76078576 -0.39654765
1.5300356 0.87525809 -0.44501519
1.319414 0.56844103 -0.37582767
1.6667482 0.79363263 -0.50166458
1.6032339 0.83849788 -0.51084495
1.7931235 1.0258408 -0.60643911
0 0 0
5.7647572 2.7414012 1.895938
5.8745809 3.0722256 1.8988284
6.0075088 3.4330437 1.9099059
0 0 0
6.7557211 3.2104805 1.9149133
6.9246612 3.6147697 1.9205357
6.9345565 3.9519031 1.8800006
0 0 0
0 0 0
0 0 0
6.0228057 3.4266024 1.3623719
0 0 0
1.2467419 0.59229493 0.24581598
1.3066486 0.68060952 0.24794406
6.9325194 3.9406502 1.2652788
1.2943578 0.55704188 0.21205498
1.2561376 0.59597951 0.19530198
1.2473372 0.64888519 0.18390831
6.5373945 3.708354 0.91139257
1.2897881 0.5548085 0.15875545
1.2923143 0.61311603 0.14784063
1.268625 0.65931249 0.13414145
