# .PCD v0.7 - Point Cloud Data file format
VERSION 0.7
FIELDS x y z
SIZE 4 4 4
TYPE F F F
COUNT 1 1 1
WIDTH 1528
HEIGHT 1
VIEWPOINT 0 0 0 1 0 0 0
POINTS 1528
DATA ascii
-0 0 -0
0.035501819 1.0142283 -0.26548365
-0 0 -0
-0.033136498 0.82601547 -0.23341264
-0.061574213 0.7891981 -0.23237914
0.084231906 2.3278477 0.71963543
-0.0050601447 2.4022746 0.7135036
-0.093613289 2.3351505 0.66938108
-0.18711598 2.4132392 0.66812116
0.083010659 2.3346896 0.62374532
-0.0044048624 2.3879809 0.61135364
-0.094356097 2.3986552 0.59019941
-0.18442065 2.4156718 0.57064891
0.083120495 2.3389285 0.5315122
-0.0047569727 2.3973973 0.51930034
-0.093274102 2.3945587 0.49517494
-0.18335184 2.4245286 0.47804555
0.082777672 2.3442676 0.44195807
-0.004174911 2.4238584 0.43166828
-0.092551813 2.4073434 0.40543997
-0.18524633 2.4621527 0.3917757
0.083082274 2.3470862 0.35342497
-0.0029003185 2.3845873 0.3349624
-0.091342315 2.4087365 0.31528991
-0.18399683 2.4749899 0.30094853
0.083579488 2.3495333 0.26582831
-0.0028786231 2.4012065 0.2481831
-0.089664124 2.3898158 0.22437866
-0.18163824 2.4595206 0.20830792
0.084523588 2.3656139 0.18056108
-0.0021184979 2.3946922 0.15951712
-0.089102149 2.3904271 0.13687968
-0.17752664 2.4147482 0.11511575
0.085123949 2.3616252 0.093303159
-0.00095267716 2.4059229 0.071994528
-0.089339867 2.4298444 0.049998347
-0.1771414 2.4233899 0.026506662
0.085375287 2.3594463 0.0067167687
-7.1096518e-05 2.4139438 -0.016473582
-0.088190012 2.4250827 -0.039053444
-0.1754806 2.412832 -0.062039312
0.08678136 2.3640511 -0.080129862
0.00081291754 2.4117408 -0.10441326
-0.08649186 2.4190745 -0.12796082
-0.17850529 2.4627385 -0.15405092
0.089298084 2.3893816 -0.16879211
0.0020787332 2.4152622 -0.19347893
-0.085994206 2.4157825 -0.21663247
-0.18169007 2.5170348 -0.25064167
0.089447044 2.3755918 -0.2558201
0.003096815 2.3876781 -0.27964303
-0.086076409 2.4360301 -0.30853936
-0.17240094 2.3965025 -0.3281458
0.091772504 2.3853109 -0.34585425
0.0045073917 2.429199 -0.37514889
-0.041910857 1.1991574 -0.19728516
-0.073070988 1.0179758 -0.17799386
0.09315452 2.3737793 -0.43441975
0.0026571434 1.1419996 -0.21999775
-0.03235798 0.94231921 -0.19087051
-0.065815888 0.92095405 -0.19659096
0.080281861 1.9968339 -0.44319144
0 0 -0
-0 0 -0
-0.063409768 0.88295072 -0.22348674
0 0 -0
0 0 -0
-0 0 -0
-0.059893787 0.83358508 -0.24533603
0.098554127 2.3282416 0.71993059
0.0095525598 2.3706264 0.70410794
-0.079315923 2.3366416 0.66965646
-0.17079546 2.3931887 0.66226745
0.097052701 2.327379 0.62193954
0.010230968 2.384088 0.61036158
-0.079056576 2.3817191 0.58590186
-0.17061697 2.4313226 0.57408798
0.097470328 2.3383744 0.5315122
0.0099776154 2.4032454 0.52057052
-0.078419052 2.390192 0.49416319
-0.16949156 2.4402907 0.48093927
0.097200967 2.3446972 0.4421432
0.010536915 2.3874121 0.425181
-0.077524193 2.399981 0.40411231
-0.16959094 2.4553607 0.390522
0.097851567 2.3554244 0.35476425
0.011760519 2.3905017 0.33579698
-0.075836517 2.3864572 0.31230694
-0.16657884 2.4433882 0.296976
0.097414523 2.3350768 0.26425534
0.011805848 2.3912323 0.247155
-0.074780241 2.3833551 0.22372477
-0.16526496 2.4416993 0.20670879
0.098536529 2.3530962 0.1796484
0.012617014 2.4026423 0.16004886
-0.074650548 2.3979139 0.13727959
-0.16492175 2.4486802 0.11668292
0.099107578 2.3490787 0.092829749
0.01386718 2.4158788 0.072293639
-0.074092299 2.419354 0.049772203
-0.16493951 2.4643395 0.026942987
0.099766389 2.3568799 0.0067110793
0.014740585 2.4138987 -0.016473582
-0.072674014 2.4045906 -0.03871553
-0.16439047 2.4697213 -0.063474931
0.100729 2.3504934 -0.079689771
0.015585198 2.4076943 -0.10424025
-0.071381062 2.4105763 -0.12748572
-0.16200392 2.442874 -0.15274328
0.10209247 2.3459361 -0.16576414
0.0168078 2.4022458 -0.19244087
-0.070407197 2.3903797 -0.21431172
-0.16453806 2.4922857 -0.24807201
0.10319512 2.3561256 -0.25378725
0.017813716 2.3965528 -0.28068995
-0.070432812 2.4127128 -0.30552557
-0.16250509 2.4706764 -0.33815932
0.10605384 2.3767931 -0.34470713
0.019223046 2.4054074 -0.37148589
-0.065211549 2.2636549 -0.37234327
-0.066565424 1.0144731 -0.17730664
0.10651369 2.3466306 -0.42956287
0.013910566 1.643718 -0.31666052
-0 0 -0
-0.058889121 0.9018206 -0.19242589
0 0 -0
0.010180509 1.1417366 -0.26441988
-0 0 -0
-0 0 -0
0 0 -0
0 0 -0
-0.021525038 0.77344978 -0.21846771
-0.05169623 0.78702193 -0.23153411
0.11186655 2.3075523 0.71373194
0.024000825 2.3609376 0.70126075
-0.065511413 2.3563037 0.67516345
-0.1593066 2.4432492 0.6758374
0.11082347 2.3161242 0.619102
0.024707744 2.3694499 0.60664135
-0.065018848 2.4035151 0.5911544
-0.15600634 2.4371805 0.57523429
0.11214262 2.3445506 0.5330624
0.024301184 2.362093 0.51167911
-0.063908271 2.396502 0.49537733
-0.15482493 2.4461813 0.48190385
0.11125884 2.3371856 0.44084716
0.025071355 2.3764732 0.42325231
-0.06289988 2.4043548 0.40477616
-0.15470795 2.4593122 0.39099216
0.11112468 2.3300862 0.35104403
0.026285818 2.3775117 0.33398864
-0.061166644 2.3858862 0.31217721
-0.15428694 2.4879608 0.30227271
0.11207302 2.341383 0.26504183
0.026466938 2.39012 0.24705219
-0.060456239 2.3957126 0.22484572
-0.14972916 2.4337161 0.2059513
0.11278167 2.3484633 0.17934416
0.027325027 2.3995266 0.15984945
-0.060260065 2.4113016 0.13802226
-0.1495278 2.4436643 0.11639798
0.11250624 2.327467 0.092001259
0.02861925 2.4097514 0.07211417
-0.059246022 2.4197631 0.049772203
-0.149027 2.4523299 0.02680118
0.11432289 2.3582211 0.0067167687
0.029478265 2.4077637 -0.016432637
-0.057846133 2.4019926 -0.038667254
-0.14923346 2.4706833 -0.063474931
0.11426897 2.3318632 -0.079080425
0.030496802 2.4185419 -0.10471603
-0.056729287 2.4169588 -0.12780245
-0.14653224 2.4358521 -0.15224513
0.11613856 2.3382914 -0.16527121
0.031508114 2.3991072 -0.19220132
-0.055831641 2.3947496 -0.21466878
-0.14805338 2.4733818 -0.24609531
0.1167573 2.3375735 -0.25186136
0.032383587 2.3864672 -0.27952671
-0.054758545 2.3754106 -0.30075371
-0.14516072 2.4350324 -0.33315256
0.12023412 2.3681908 -0.34356004
0.033926141 2.4012914 -0.37087542
-0.054608013 2.4090276 -0.39619273
-0.064139932 1.0787829 -0.18847419
0.12111288 2.3498626 -0.43028244
0.033370737 2.2857256 -0.44037381
-0.020705383 0.93872583 -0.19007687
-0 0 -0
0 0 -0
0.029547399 1.9628245 -0.4546127
-0 0 -0
-0 0 -0
0.12397407 2.319524 -0.60765135
0 0 -0
-0 0 -0
-0.045782898 0.76912582 -0.22618236
0.12628391 2.3115923 0.71520776
0.038658705 2.3712895 0.70439267
-0.051156275 2.3614669 0.6765402
-0.14158493 2.3979912 0.66306567
0.12550172 2.3240833 0.62142366
0.039229907 2.3682849 0.60639334
-0.050229326 2.4019272 0.59067696
-0.13992479 2.4186571 0.57064891
0.12600075 2.3340809 0.53084779
0.038778208 2.3609223 0.5114674
-0.049282804 2.4007654 0.49618676
-0.13858119 2.4255335 0.4776597
0.12517545 2.3286088 0.43936595
0.039570522 2.3713529 0.42237568
-0.048086632 2.4017375 0.40427828
-0.1390554 2.4503546 0.38942504
0.12520705 2.3254106 0.35044876
0.040737275 2.3693848 0.33287582
-0.046699937 2.395139 0.31334448
-0.13525344 2.4214602 0.2940869
0.12611578 2.334698 0.2643677
0.040995006 2.3819563 0.24622972
-0.045717269 2.3940477 0.22465891
-0.13468318 2.4325993 0.20578298
0.12740523 2.3517098 0.1796484
0.042135146 2.4043016 0.16018178
-0.045312922 2.4036405 0.13756523
-0.13628736 2.4764512 0.11791766
0.12776382 2.3446922 0.092711389
0.04308062 2.3915415 0.071575783
-0.044214137 2.410085 0.049566615
-0.13403152 2.4541967 0.026812091
0.12851778 2.3524828 0.0067025446
0.043792047 2.3825421 -0.016262032
-0.043250203 2.4102998 -0.038795982
-0.13017215 2.3996818 -0.061629131
0.12829965 2.3261285 -0.078911155
0.044980329 2.3993306 -0.10389423
-0.042451836 2.4492118 -0.1294917
-0.13174482 2.4396951 -0.15243194
0.12959433 2.3215992 -0.16414452
0.046458635 2.4108281 -0.19315952
-0.041444562 2.4129727 -0.21627544
-0.13415493 2.4980919 -0.24846734
0.13182217 2.3497183 -0.25325227
0.047339182 2.402112 -0.2813879
-0.040417153 2.3895888 -0.30251175
-0.13201518 2.4695163 -0.33775336
0.13408786 2.3555515 -0.34183934
0.048499357 2.3931336 -0.36965445
-0.040086407 2.4251032 -0.39878857
-0.057571873 1.0801399 -0.188646
0.13558574 2.3500571 -0.4304623
0.047496855 2.2903867 -0.44131964
-0 0 -0
-0 0 -0
0.12502699 2.1314626 -0.47350252
0.04361327 2.058058 -0.47672293
-0 0 -0
-0 0 -0
0 0 -0
0 0 -0
-0 0 -0
-0.042341188 0.79334599 -0.23322415
0.13988549 2.3012373 0.71225601
0.052928343 2.3585486 0.70069134
-0.036874548 2.3751936 0.68039519
-0.12712303 2.4036281 0.66439611
0.14051387 2.3358071 0.62477714
0.053606775 2.3612201 0.60465729
-0.035433047 2.3983061 0.58972186
-0.12538308 2.4253025 0.57202452
0.14014439 2.3303437 0.53018337
0.052955177 2.3469608 0.50850362
-0.034424238 2.3922098 0.49436551
-0.12304634 2.413599 0.47515178
0.13916731 2.322892 0.43844017
0.053805605 2.357286 0.41992104
-0.033540603 2.4157917 0.4066017
-0.12416741 2.4541209 0.38989517
0.13905858 2.3176889 0.34940708
0.055205483 2.3661201 0.3324585
-0.032082237 2.4013293 0.31412265
-0.12192082 2.4529812 0.29781869
0.13972262 2.3219776 0.26301944
0.055563204 2.3796711 0.2460241
-0.03082039 2.3783543 0.22316429
-0.1223504 2.4861281 0.21024372
0.14171255 2.3488932 0.17949627
0.056343969 2.3810551 0.15865307
-0.030411297 2.3918939 0.13687968
-0.12001669 2.455292 0.11687288
0.14178523 2.3378799 0.092474677
0.057609223 2.3852365 0.071396321
-0.029510735 2.417309 0.049710531
-0.12051916 2.4869332 0.027161147
0.14258586 2.3456609 0.0066854749
0.058018047 2.3662338 -0.016152846
-0.028483678 2.4125195 -0.038828168
-0.11727038 2.4383793 -0.062603302
0.14348753 2.3402607 -0.07941895
0.059328672 2.3840282 -0.10324542
-0.027031679 2.4144773 -0.12764409
-0.11691576 2.4434485 -0.15261875
0.14439231 2.329721 -0.16477829
0.061376926 2.4154801 -0.19355877
-0.026616072 2.4111896 -0.21609691
-0.11603576 2.4402232 -0.24263616
0.14500166 2.3290184 -0.25111243
0.061795089 2.3908546 -0.28010833
-0.026128329 2.4245126 -0.30690688
-0.11540865 2.4395995 -0.33355853
0.14828952 2.3507335 -0.3412658
0.062973738 2.3848872 -0.36843342
-0.025143972 2.4193833 -0.39781514
-0.050989572 1.0814569 -0.18881783
0.14931335 2.3383825 -0.42848361
0.062288206 2.3175366 -0.4466162
-0 0 -0
-0 0 -0
0.14163929 2.1852126 -0.48562694
0.057784203 2.1142349 -0.4898085
-0 0 -0
-0 0 -0
0.1522384 2.3149319 -0.60689211
0 0 -0
-0 0 -0
-0 0 -0
0.15227978 2.2745962 0.70428634
0.067152649 2.3495555 0.69812888
-0.022227742 2.3676846 0.67819232
-0.11273228 2.412066 0.66652471
0.15362875 2.3165841 0.61987591
0.067982212 2.3569732 0.60366517
-0.020691488 2.3955653 0.58900559
-0.10992359 2.4133856 0.56904405
0.1539889 2.3226287 0.52863318
0.067354858 2.3465917 0.50850362
-0.019721018 2.3894379 0.49375844
-0.10836629 2.4172492 0.47573054
0.15328813 2.3200333 0.43806988
0.068382643 2.3608477 0.42062235
-0.018655835 2.4080634 0.40527403
-0.10765972 2.4222763 0.38472375
0.15255895 2.3059382 0.34777018
0.069781028 2.3677166 0.33273673
-0.017340191 2.4004893 0.31399295
-0.10682411 2.4526911 0.29769829
0.15423045 2.3250425 0.26346886
0.069782384 2.3663599 0.24468757
-0.01628763 2.387459 0.22400498
-0.10409249 2.417145 0.20435219
0.1558578 2.3439999 0.17919205
0.071220309 2.3896408 0.15925126
-0.015773743 2.3980255 0.13722245
-0.10362705 2.4250453 0.11540069
0.15659378 2.3439448 0.09275084
0.071517304 2.3608599 0.070678473
-0.014647499 2.4124455 0.049607735
-0.10305922 2.4356759 0.026593929
0.15630791 2.3347642 0.0066570262
0.072413318 2.3618352 -0.016125549
-0.013589489 2.3966513 -0.038570706
-0.10289308 2.4530358 -0.062962212
0.15824808 2.345319 -0.07962206
0.073676832 2.3746319 -0.10285614
-0.012246527 2.4205892 -0.12796082
-0.10162975 2.4371393 -0.15218286
0.15902355 2.3337669 -0.16513038
0.074876636 2.3732131 -0.19020505
-0.011757318 2.3983598 -0.21493655
-0.1012253 2.4448662 -0.24303149
0.15833935 2.3141978 -0.24961452
0.076590948 2.3944013 -0.28057364
-0.01117765 2.4087543 -0.3048977
-0.10068185 2.4462016 -0.33437043
0.16072793 2.3211477 -0.33710751
0.076995134 2.3656888 -0.36553362
-0.010311041 2.4224522 -0.39830187
-0.040438239 0.98627204 -0.17215239
0.16407081 2.3433096 -0.42956287
0.062216759 1.8843086 -0.36319488
-0 0 -0
-0 0 -0
0.16299409 2.2962928 -0.51052535
0.04751819 1.419613 -0.32894558
-0 0 -0
-0 0 -0
0 0 -0
0 0 -0
-0 0 -0
-0 0 -0
0.16776632 2.2945831 0.7107802
0.08120206 2.3385611 0.69499701
-0.0077682571 2.388926 0.68425006
-0.095897116 2.362628 0.65268862
0.16763061 2.3127069 0.619102
0.082443051 2.3565118 0.60366517
-0.005977612 2.3898208 0.58757311
-0.095649764 2.4276311 0.57225382
0.16844882 2.324558 0.52929753
0.081445694 2.3373435 0.50659829
-0.0050696996 2.3944106 0.49477026
-0.093153 2.4080639 0.47380137
0.16744988 2.3180687 0.43788472
0.082418196 2.3475931 0.41834304
-0.0038846496 2.4110911 0.40577191
-0.092832677 2.4238782 0.38488045
0.16713306 2.3108766 0.34866303
0.084237255 2.3652644 0.3324585
-0.0025977993 2.3886521 0.31243661
-0.089249209 2.3858423 0.28951252
0.16885301 2.3290079 0.26403064
0.08355695 2.3450117 0.24252857
-0.0016559128 2.4134004 0.22643374
-0.089038625 2.4117634 0.20384718
0.16806968 2.3131649 0.17691033
0.084770374 2.3582473 0.15719081
-0.0010704646 2.4230361 0.13865066
-0.088087931 2.4076679 0.11454587
0.16886403 2.3140392 0.091606736
0.086293079 2.3683677 0.070917755
0.00015462203 2.4024923 0.049402151
-0.0880761 2.4352629 0.02658302
0.17070372 2.3347585 0.006659871
0.087014236 2.3643444 -0.016146021
0.0011196015 2.4036884 -0.038683344
-0.086480521 2.415658 -0.061988041
0.17241552 2.3413141 -0.079520509
0.088060372 2.3691432 -0.10263988
0.0025997094 2.4146273 -0.12764409
-0.086354658 2.4287403 -0.15162246
0.17326637 2.3317525 -0.16505995
0.089474536 2.3737051 -0.19028489
0.002977394 2.4133267 -0.21627544
-0.085310325 2.4195845 -0.24046183
0.16987365 2.2774885 -0.24576278
0.090713605 2.3789988 -0.27882874
0.0035890462 2.3998487 -0.3037675
-0.084387541 2.4101357 -0.32936364
0.17422298 2.3102491 -0.33567363
0.091585688 2.3671467 -0.36583883
0.0046123886 2.454046 -0.40349358
-0 0 -0
0.17710094 2.3246038 -0.42632496
0.092721395 2.3676198 -0.45645276
0.0047596642 1.9112264 -0.38689965
-0 0 -0
0.16882004 2.1881769 -0.48670951
0.046316653 1.1691173 -0.27096272
0 0 -0
-0 0 -0
0.10417757 1.333914 -0.35001326
0 0 -0
0 0 -0
-0.028936809 0.82851225 -0.24336432
0.18161592 2.290653 0.70989466
0.095393091 2.3341873 0.69385809
0.0068623368 2.3793151 0.68149656
-0.081597596 2.3689523 0.65428513
0.18181796 2.3116348 0.619102
0.095985122 2.333699 0.59796089
0.0086967554 2.3927259 0.58828938
-0.079717018 2.397042 0.56491727
0.18064481 2.2972322 0.52331805
0.09586589 2.3387527 0.50702173
0.0095671276 2.3806865 0.49193722
-0.077769317 2.3899567 0.47013599
0.1814397 2.3140588 0.43732929
0.096293673 2.3342555 0.41606373
0.010869442 2.4021943 0.40427828
-0.076561652 2.3809683 0.37798521
0.18107703 2.30685 0.34821662
0.098252848 2.3528299 0.33078924
0.0121088 2.3985384 0.31373358
-0.074825428 2.3932905 0.29035518
0.18321829 2.3289185 0.26414299
0.097694986 2.3384919 0.24191171
0.01306565 2.3974354 0.22493914
-0.074024089 2.4052925 0.20325804
0.18186803 2.3071201 0.17653002
0.10016187 2.3796148 0.15865307
0.013740177 2.4130137 0.13807938
-0.073130727 2.4021726 0.11426093
0.18503045 2.3378623 0.092593037
0.099973015 2.3478208 0.070319548
0.014933228 2.4084446 0.049525503
-0.07301192 2.4317596 0.026539387
0.18376172 2.3177173 0.0066143526
0.10151994 2.363766 -0.016146021
0.015940946 2.4146349 -0.038860351
-0.071212173 2.4011545 -0.061603498
0.18542656 2.3232753 -0.078945003
0.10181727 2.3505919 -0.10186132
0.017415535 2.414566 -0.12764409
-0.071333192 2.4252341 -0.15137339
0.18781054 2.3336287 -0.16527121
0.10298984 2.349211 -0.18836847
0.017792571 2.414259 -0.21636468
-0.070056967 2.406137 -0.23907816
0.1471079 1.8215189 -0.19665301
0.10456228 2.3615294 -0.27685124
0.018344458 2.4037497 -0.30426982
-0.069540448 2.4086275 -0.32909304
0.16119412 1.9757371 -0.28720814
0.10593144 2.362591 -0.36522835
0.019377405 2.4174628 -0.39749062
-0.0523098 1.8217404 -0.31784621
0.18223715 2.2126918 -0.40599811
0.10671374 2.3552349 -0.45418277
0.019116048 2.2159669 -0.44860521
-0 0 -0
0.18078402 2.1695874 -0.48281235
0.053934723 1.1785431 -0.27321887
0 0 -0
-0 0 -0
0 0 -0
0 0 -0
0 0 -0
-0.023410894 0.81332839 -0.23885758
0.19526087 2.2847354 0.70841879
0.10903831 2.3191948 0.68958735
0.021478755 2.381151 0.68204731
-0.066869549 2.3626633 0.65242255
0.19567181 2.3066249 0.61807019
0.11002813 2.3272603 0.5964728
0.023093443 2.3634963 0.58112675
-0.065508813 2.4159729 0.56927329
0.19630277 2.3145425 0.52752584
0.10993829 2.332263 0.50575155
0.024055233 2.3688319 0.4895089
-0.063439973 2.4031403 0.47264388
0.19588354 2.3158393 0.43788472
0.11038151 2.3287034 0.41518703
0.025524724 2.3941939 0.40295061
-0.062721394 2.4110126 0.38268653
0.19597907 2.3145638 0.34955591
0.11211905 2.3403132 0.32912001
0.026615024 2.3795805 0.31126934
-0.060188927 2.3956892 0.29059589
0.19641268 2.3148789 0.26268238
0.11199424 2.3368547 0.24180888
0.027671978 2.38835 0.22409841
-0.059386794 2.4106822 0.20367885
0.19779438 2.3268244 0.17812723
0.11389562 2.361016 0.1574567
0.028380547 2.3989077 0.13727959
-0.058365632 2.4015775 0.11421344
0.19937181 2.3366828 0.092593037
0.11418249 2.3431697 0.070199907
0.029636886 2.4023094 0.049402151
-0.058137301 2.4341612 0.026561204
0.19985287 2.3384662 0.0066769402
0.11553145 2.3531108 -0.016077779
0.03071836 2.4114923 -0.038812079
-0.056430615 2.3995476 -0.061552223
0.19882217 2.3121364 -0.078606479
0.11549795 2.3349555 -0.10121253
0.032177385 2.4104195 -0.12743293
-0.056334786 2.4206369 -0.15106204
0.20117855 2.3215005 -0.16449662
0.11685494 2.3375835 -0.18749011
0.032632753 2.4160962 -0.21654321
-0.055451874 2.4134855 -0.23977
0.12969114 1.4917282 -0.16113135
0.11900037 2.3598514 -0.27673492
0.033093244 2.4035919 -0.30426982
-0.054782595 2.4099994 -0.32922834
0.1250318 1.4245917 -0.20719709
0.12037571 2.3609097 -0.36507574
0.034140497 2.4123652 -0.39667946
-0.045555167 2.018018 -0.35203612
0.12701224 1.4345073 -0.26335013
0.12101179 2.3515937 -0.45361528
0.033349205 2.2589285 -0.45733523
-0 0 -0
0 0 -0
0.11318829 2.1802838 -0.50560153
0 0 -0
-0 0 -0
0 0 -0
0.050804235 0.9646309 -0.26250196
0 0 -0
-0 0 -0
0.2077937 2.2673197 0.70340079
0.12250315 2.3041232 0.68531656
0.036059678 2.3790519 0.68149656
-0.052691635 2.3774848 0.65641367
0.21069703 2.3150027 0.62064976
0.12440923 2.328476 0.59696883
0.037749607 2.3730197 0.58351427
-0.050581392 2.411464 0.56812698
0.20952874 2.3026116 0.52508974
0.12357061 2.3188572 0.50299942
0.038477991 2.3617854 0.48809239
-0.048713267 2.4044654 0.47283682
0.20893475 2.3018708 0.43547773
0.12414162 2.3181512 0.4134337
0.039850354 2.3723001 0.39929947
-0.048162032 2.4232016 0.38456705
0.20972989 2.3083935 0.34881184
0.12690447 2.3474917 0.33023283
0.041129492 2.3744156 0.31062087
-0.045601182 2.401969 0.29131818
0.21259464 2.3354008 0.26515418
0.12686794 2.3460562 0.242837
0.042096734 2.3751941 0.22288404
-0.044317599 2.3960571 0.20241639
0.21315439 2.3374829 0.17903993
0.12816364 2.3562875 0.15719081
0.043099433 2.3986886 0.13727959
-0.04366501 2.4038877 0.11430842
0.21315935 2.3294451 0.092356324
0.12877686 2.346417 0.070319548
0.044228885 2.3940854 0.049237683
-0.043182731 2.4334722 0.026550295
0.21346755 2.3292294 0.0066541815
0.12969187 2.3473654 -0.016043657
0.045231368 2.3962629 -0.038570706
-0.041966766 2.4148414 -0.061936766
0.21282198 2.3088827 -0.078538775
0.13076594 2.3511608 -0.10194783
0.046791736 2.401191 -0.12695783
-0.041754551 2.4369037 -0.15205833
0.21403596 2.3053236 -0.16344035
0.13181052 2.3477702 -0.18836847
0.047124475 2.3989217 -0.21502581
-0.040457681 2.4028358 -0.23868284
0.14400455 1.546343 -0.16712296
0.13325347 2.3551102 -0.27626961
0.047623597 2.3924329 -0.30288848
-0.040207781 2.4231689 -0.33098748
0.14552757 1.5489342 -0.22540748
0.13491608 2.3611133 -0.36522835
0.048661612 2.3982987 -0.39440808
-0.036490805 2.2201841 -0.38725695
0.13664672 1.4425145 -0.26496905
0.13526919 2.3478663 -0.45304781
0.034920398 1.6707382 -0.3382892
-0 0 -0
0.13317893 1.3916764 -0.31003913
0.1247004 2.1474531 -0.49815628
0.024455465 1.1642164 -0.28143606
-0 0 -0
0 0 -0
0 0 -0
0 0 -0
-0 0 -0
0.22346947 2.2840693 0.70900917
0.13652514 2.3014145 0.68474716
0.050226774 2.3586023 0.67571419
-0.038164452 2.3816187 0.65747803
0.22424333 2.3069348 0.61884403
0.13875178 2.3286359 0.59721684
0.051838603 2.3513849 0.57826173
-0.035682891 2.404916 0.56652212
0.22412501 2.3061357 0.52619708
0.13797051 2.3209822 0.50363451
0.052881066 2.3575885 0.48728296
-0.033972681 2.4057002 0.47302973
0.22381353 2.3083706 0.43695897
0.13812849 2.3134151 0.41273239
0.054270089 2.3660958 0.39830372
-0.033129837 2.4116008 0.38268653
0.22388998 2.3070631 0.34881184
0.14082985 2.3387611 0.32912001
0.055674598 2.373127 0.31049117
-0.030785602 2.3962476 0.29059589
0.22509348 2.3152614 0.26301944
0.14108126 2.3422549 0.24252857
0.056408595 2.3639421 0.22185649
-0.029664092 2.4002693 0.20275304
0.22691305 2.3301766 0.17858358
0.14243822 2.352469 0.15699144
0.057672337 2.3923903 0.13693681
-0.028830122 2.3971188 0.11397599
0.22540823 2.3072093 0.091527842
0.1428673 2.3405943 0.070169993
0.058598083 2.3807757 0.048970424
-0.028227203 2.4316916 0.02652848
0.22717118 2.3219042 0.0066371122
0.14317325 2.3315539 -0.015941296
0.059458639 2.3769486 -0.038264971
-0.027249921 2.4240501 -0.062167495
0.22806123 2.3184743 -0.078911155
0.14457394 2.3403425 -0.1015153
0.061089389 2.3838878 -0.12606041
-0.026570728 2.4161558 -0.1507507
0.22857037 2.3079376 -0.16372201
0.1454699 2.3349786 -0.18741025
0.061663397 2.3916175 -0.21440099
-0.025596276 2.3920932 -0.23759565
0.16095817 1.6206242 -0.17525443
0.14739071 2.349292 -0.27568802
0.06217324 2.3871369 -0.30226061
-0.025183354 2.4085088 -0.32895774
0.15315516 1.5293021 -0.2226831
0.14840214 2.34446 -0.36278635
0.063376382 2.3979549 -0.39440808
-0.022451369 2.1799779 -0.38021275
0.14421117 1.4289256 -0.26263055
0.14892295 2.3352325 -0.45077783
0.06127917 2.2661872 -0.45892254
-0 0 -0
0.14062701 1.3801494 -0.30765757
0.074182518 1.1549897 -0.26802972
0.053701624 1.9782925 -0.47830033
-0 0 -0
0.2207137 2.1460819 -0.56437421
0 0 -0
0 0 -0
-0.0082670897 0.79731071 -0.23406915
0.23777665 2.285506 0.70989466
0.15058114 2.2995768 0.68446237
0.06443429 2.3486397 0.67296064
-0.023693355 2.3962665 0.66146916
0.23819545 2.3035934 0.61832809
0.15202054 2.312274 0.59324867
0.066511698 2.3597589 0.58041054
-0.020798901 2.3904898 0.56308305
0.23786984 2.300837 0.52531123
0.15214521 2.3191166 0.5034228
0.067317992 2.3562407 0.48708054
-0.018975899 2.3764279 0.46724227
0.23746902 2.3020661 0.43603319
0.15238543 2.3135061 0.41290772
0.068357244 2.3509326 0.39581433
-0.01823432 2.3989196 0.38064927
0.2370261 2.2958095 0.34732375
0.15498081 2.3348887 0.32870269
0.070146769 2.3697674 0.31010208
-0.016015304 2.3864644 0.28939211
0.23868211 2.3079062 0.26234534
0.15452784 2.3274498 0.24108921
0.070374973 2.3456385 0.22017506
-0.014861356 2.388449 0.20174307
0.24100102 2.326757 0.17843148
0.15554173 2.3316391 0.15566212
0.072260126 2.3889978 0.13676542
-0.014227045 2.41523 0.11483081
0.24162592 2.3256602 0.092316873
0.15749429 2.3436627 0.070289634
0.072744153 2.3653815 0.048662044
-0.013273263 2.4258194 0.026463032
0.24234512 2.3294179 0.0066627157
0.15747669 2.3306317 -0.015941296
0.073699705 2.3655457 -0.038087968
-0.012421647 2.4331684 -0.062398214
0.24290647 2.3229952 -0.079114273
0.15764467 2.3204727 -0.10069349
0.075430147 2.3744853 -0.12558532
-0.011720718 2.4112833 -0.15043937
0.24220532 2.3015316 -0.16336992
0.15979433 2.3340421 -0.18741025
0.075891994 2.3772571 -0.21315135
-0.011049895 2.4210629 -0.24046183
0.15441433 1.4633802 -0.15834954
0.16077884 2.3334804 -0.27394313
0.07697884 2.3916683 -0.30288848
-0.010395987 2.4066362 -0.32868707
0.15583771 1.4653502 -0.21350621
0.16175744 2.3287168 -0.36049703
0.077446312 2.3777962 -0.39116323
-0.0073525589 1.7663234 -0.30805311
0.15308097 1.428992 -0.26281047
0.16249532 2.3234997 -0.44869703
0.050479602 1.5212878 -0.30813086
-0 0 -0
0.13786624 1.2754034 -0.28449121
0.070528038 1.0019382 -0.23260827
0.06461037 1.9410098 -0.46937335
-0 0 -0
0.25485325 2.3370359 -0.61499077
0.076152928 1.0703776 -0.29161057
0 0 -0
-0.0034640708 0.81845546 -0.24026594
0.25284275 2.2935009 0.7128464
0.16386618 2.2871356 0.68104577
0.078747287 2.3453178 0.67213464
-0.0090077752 2.4011867 0.6627996
0.25253609 2.3040094 0.61884403
0.16620553 2.3112977 0.59324867
0.080389969 2.3418372 0.57611293
-0.0061157621 2.3847322 0.56170744
0.25240797 2.3032117 0.52619708
0.16630222 2.3171647 0.50321114
0.081468582 2.3469746 0.48525929
-0.0044521084 2.4078984 0.47341558
0.25276494 2.3113117 0.43806988
0.16558771 2.2987802 0.41045308
0.082642168 2.3465266 0.39515045
-0.0035231647 2.4049122 0.38158953
0.25196916 2.3021758 0.3485142
0.16801482 2.3161154 0.32619882
0.084296465 2.3583922 0.30867544
-0.0013770686 2.3954523 0.29047555
0.25348836 2.3123248 0.26301944
0.168302 2.3195131 0.24036954
0.084730253 2.3441677 0.22008166
-0.00020789095 2.41241 0.20376301
0.255382 2.3262255 0.17850752
0.16904773 2.319694 0.15493099
0.085864499 2.3595757 0.13510869
0.00059206143 2.4122753 0.11468834
0.25578201 2.3231406 0.092277423
0.17187178 2.3426523 0.070289634
0.087035306 2.358896 0.048538692
0.001610206 2.4238553 0.026441215
0.25652403 2.3268933 0.006659871
0.17059769 2.3136652 -0.015832109
0.088548444 2.3740418 -0.038232792
0.0024804042 2.4062078 -0.06170604
0.25693545 2.3194742 -0.079046562
0.17224902 2.3244433 -0.10090975
0.089809135 2.3689883 -0.12532136
0.0030786768 2.414304 -0.15062617
0.25775898 2.3128901 -0.16428536
0.17463203 2.3399761 -0.18796921
0.090022482 2.3648033 -0.21208026
0.0037806486 2.4051635 -0.23888049
0.16570893 1.4831556 -0.1605964
0.17293765 2.3037279 -0.27056977
0.091310404 2.3822289 -0.30175829
0.0043602539 2.4007099 -0.32787517
0.17368166 1.5430429 -0.22497733
0.17492516 2.3128982 -0.35820767
0.091920227 2.3743184 -0.39067653
0.0047393972 2.4017432 -0.41886976
0.15963067 1.4084772 -0.25921279
0.17719606 2.3283334 -0.44983199
0.08504013 2.1624317 -0.43808949
0 0 -0
0.15356149 1.343401 -0.29986328
0.075930797 0.99177289 -0.23035213
0.040327564 1.0227364 -0.24737245
0 0 -0
0.2451496 2.1268735 -0.56007183
0.076619409 0.99099541 -0.27010691
0 0 -0
0.0015488106 0.81366378 -0.23885758
0.2666896 2.2900083 0.71225601
0.17745046 2.2803528 0.6793375
0.093098246 2.3438299 0.6718592
0.0057074102 2.3934851 0.66067094
0.26611266 2.2976177 0.61755425
0.17963015 2.3005762 0.59076852
0.094522081 2.3354781 0.57468039
0.008516795 2.3847249 0.56170744
0.2677694 2.3122752 0.52863318
0.17968157 2.3053825 0.50088245
0.095627949 2.34056 0.48404518
0.010280497 2.3980682 0.47148639
0.26626518 2.3038599 0.43695897
0.17915234 2.2908504 0.40922576
0.096794091 2.3400636 0.3941547
0.011247005 2.4078515 0.38205969
0.26711285 2.3094273 0.34985352
0.18261161 2.319977 0.32689434
0.098641202 2.3548586 0.30828634
0.013409506 2.411299 0.29240161
0.26584229 2.2949328 0.2612218
0.18315567 2.32637 0.24119204
0.099112198 2.3436036 0.22008166
0.014503959 2.3974195 0.20250055
0.2675826 2.3067863 0.17713848
0.18390694 2.3265707 0.15546273
0.10080767 2.3699768 0.13573712
0.015387118 2.4112272 0.11464085
0.26887721 2.3116019 0.091882899
0.1848955 2.3246148 0.069781162
0.10107765 2.3483288 0.048333105
0.016428275 2.4158006 0.02635395
0.26975566 2.3163359 0.006634267
0.18471119 2.3115778 -0.015825283
0.10194188 2.3464828 -0.03779833
0.017344872 2.4201422 -0.062064946
0.2706981 2.3138835 -0.078911155
0.18722777 2.3323054 -0.10129903
0.1037719 2.3554232 -0.1246351
0.017885113 2.4132416 -0.15056391
0.27287826 2.3191903 -0.1648487
0.18818372 2.3289247 -0.1871707
0.10431097 2.3592312 -0.21163395
0.018546054 2.4060903 -0.23897934
0.16630472 1.4100296 -0.15278591
0.1602881 1.9729699 -0.23183385
0.10592577 2.3816237 -0.30175829
0.019161562 2.409555 -0.32909304
0.16587058 1.3964999 -0.20375577
0.18161991 2.2201769 -0.34401366
0.1058237 2.3589232 -0.3882429
0.019603945 2.4174306 -0.4216187
0.16710219 1.3977039 -0.25741395
0.16208892 1.9699993 -0.38078713
0.10520804 2.3136308 -0.46884304
0 0 -0
0.16460532 1.3656957 -0.30505946
0.17720331 2.1418042 -0.49770501
0.062446054 1.3700899 -0.33147433
0.0081260949 1.0063891 -0.25408462
0.18539189 1.5260497 -0.40214828
0.085107297 1.0193563 -0.2779741
0 0 -0
0.0063176276 0.78581405 -0.23068911
0.27992138 2.2816904 0.71018982
0.19368567 2.3059678 0.68730956
0.10655295 2.3230476 0.66607684
0.020262038 2.3779821 0.65641367
0.28043967 2.2978597 0.61807019
0.19414949 2.3042572 0.59200853
0.10862441 2.330004 0.57348669
0.023092339 2.3787878 0.56033182
0.28218848 2.3125246 0.5290761
0.19374181 2.3032625 0.50067067
0.10943577 2.3281901 0.48161685
0.024943439 2.3930542 0.47052184
0.28063402 2.3041339 0.43732929
0.19452982 2.3054044 0.41203108
0.11138464 2.3443508 0.39498451
0.026031766 2.4087248 0.38221636
0.28020141 2.2989104 0.3485142
0.19650824 2.3148661 0.32633793
0.11313606 2.3551993 0.30841604
0.02808859 2.4012449 0.29119781
0.27979833 2.2922721 0.26110944
0.19608009 2.3093443 0.23954707
0.11300871 2.3330066 0.21914752
0.028934706 2.3743687 0.20056476
0.28354624 2.319947 0.17827936
0.1986874 2.3313634 0.15586151
0.11476512 2.3573472 0.13505158
0.029981796 2.3951068 0.11388101
0.28317744 2.3109007 0.091922358
0.19821656 2.3124814 0.069452137
0.11538658 2.3456674 0.048291992
0.03114756 2.4076555 0.026266687
0.28445044 2.3186076 0.0066456469
0.19906282 2.3123937 -0.015838932
0.11609007 2.3408196 -0.037717871
0.032087874 2.4119937 -0.061859857
0.28391302 2.3042438 -0.078640334
0.19981396 2.3112056 -0.10043397
0.11812241 2.3527477 -0.12452953
0.032611027 2.4070988 -0.15019029
0.2879619 2.3244019 -0.16534163
0.20272933 2.3307054 -0.18741025
0.11878498 2.3585467 -0.21163395
0.033212766 2.3989658 -0.23828748
0.18401958 1.4819971 -0.16070339
0.13017985 1.4891037 -0.17506771
0.11973456 2.3650758 -0.29974908
0.033848248 2.4024572 -0.3281458
0.1730859 1.3846536 -0.20217848
0.13373974 1.520039 -0.23565088
0.11999417 2.3523166 -0.38726944
0.034366485 2.4123394 -0.42075965
0.17064187 1.3566364 -0.25003871
0.12770997 1.443714 -0.27920607
0.11258069 2.1808016 -0.44205767
0.030686345 2.1075284 -0.44878551
0.16745736 1.3210762 -0.29531661
0.14340352 1.6127853 -0.37497088
0 0 -0
0 0 -0
0.29157656 2.2830069 -0.60208356
0.17048185 1.901147 -0.51871014
0 0 -0
0.011111971 0.78384161 -0.23012576
0.29477143 2.2865632 0.71225601
0.20653977 2.290415 0.68303883
0.12050525 2.3165896 0.66442472
0.034725536 2.3691387 0.65401906
0.29650065 2.3114285 0.62219751
0.20819725 2.3020577 0.59176058
0.12210023 2.3137779 0.56966656
0.037718713 2.3805478 0.56079042
0.29562819 2.3049462 0.52774733
0.20769495 2.3000836 0.5002473
0.12366724 2.3264971 0.4814145
0.03959398 2.3908939 0.47013599
0.29401785 2.29652 0.43621838
0.20867185 2.3041673 0.41203108
0.12486887 2.3268833 0.39216322
0.040476281 2.3887696 0.37908217
0.2955586 2.3069563 0.35000232
0.21106756 2.3175614 0.32689434
0.12672673 2.3386195 0.30634093
0.042697906 2.3940792 0.29035518
0.2956284 2.3043103 0.26268238
0.21033649 2.3090882 0.23964988
0.12764727 2.3382342 0.21970798
0.043466501 2.3721538 0.20039642
0.29841104 2.3231087 0.17865965
0.212807 2.3281133 0.15572859
0.12862606 2.3456333 0.13442317
0.044584177 2.3898842 0.11364356
0.2972239 2.3081284 0.091882899
0.21240196 2.3112218 0.069452137
0.12999815 2.3489082 0.048374224
0.045729369 2.3974214 0.026157603
0.29713753 2.3049169 0.0066115079
0.21398267 2.3190947 -0.015893526
0.13078481 2.3460534 -0.03781442
0.046517797 2.392761 -0.061372772
0.29881603 2.3084049 -0.078843445
0.21537387 2.3248582 -0.10108276
0.13126397 2.329047 -0.12331538
0.047203302 2.3978724 -0.14962988
0.30015934 2.3067644 -0.16421494
0.21554694 2.3135374 -0.18613264
0.13274871 2.3488238 -0.21083063
0.047912039 2.397722 -0.23818865
0.19092381 1.4640795 -0.15888451
0.13894409 1.4843212 -0.1746024
0.13300687 2.3425057 -0.2969864
0.048528701 2.3992324 -0.32773986
0.18183626 1.3855278 -0.20246525
0.14158149 1.5034469 -0.23320891
0.13436913 2.3505509 -0.38710722
0.048926752 2.400264 -0.41869792
0.17728907 1.3428859 -0.24770021
0.13832399 1.4614773 -0.2828002
0.13025637 2.2544346 -0.45713684
0.03450929 1.6672608 -0.35507157
0.17671856 1.3287336 -0.29726517
0.18115203 1.9047669 -0.44310638
0.11413541 1.9718328 -0.47736067
0 0 -0
0.28811032 2.1507671 -0.56766427
0.10801554 1.1267829 -0.3076072
0 0 -0
0 0 -0
0.31122744 2.3027012 0.71786439
0.21994595 2.2824254 0.68104577
0.13387986 2.3014107 0.66029441
0.049161434 2.3640623 0.65268862
0.31029129 2.3066933 0.62142366
0.2218526 2.2959156 0.59052044
0.13600938 2.3081381 0.5684728
0.052025285 2.3666477 0.55758065
0.31288525 2.3262839 0.5330624
0.22152248 2.2958477 0.49961221
0.13747616 2.3178735 0.4797956
0.054085355 2.3827584 0.46859267
0.30849582 2.2975945 0.43677384
0.22176312 2.2920644 0.41010243
0.13849626 2.3152449 0.39033762
0.054836441 2.3756404 0.37704495
0.30825981 2.2943189 0.3483654
0.22537974 2.3172083 0.32703343
0.14113358 2.3387876 0.30647063
0.057006221 2.3778932 0.28842908
0.31161669 2.3162401 0.26425534
0.22623445 2.3255746 0.24150047
0.14169015 2.332438 0.21924092
0.057874732 2.3658655 0.19989143
0.31239352 2.3192575 0.17850752
0.22611882 2.316833 0.15506394
0.14289461 2.3428068 0.1343089
0.058925528 2.3765843 0.11302619
0.31445575 2.3290367 0.092790291
0.22726239 2.3168383 0.069661513
0.14416285 2.344075 0.048291992
0.060136363 2.3851001 0.026026707
0.31127462 2.3030503 0.0066115079
0.22693455 2.304801 -0.015804812
0.14493035 2.3412149 -0.037750054
0.060917433 2.381438 -0.061090779
0.31216824 2.3005862 -0.078640334
0.22845575 2.3115623 -0.10056373
0.14542764 2.3262043 -0.1232098
0.06173512 2.3905537 -0.149194
0.31444252 2.3058677 -0.16428536
0.22973847 2.3121712 -0.18613264
0.1466599 2.3400126 -0.21011654
0.062311463 2.3854456 -0.23700264
0.19788441 1.4481039 -0.15727961
0.15051493 1.5081483 -0.1775105
0.14750235 2.3436258 -0.29723758
0.063196972 2.3969085 -0.3274692
0.1889863 1.3745817 -0.20103137
0.14557303 1.4504325 -0.22511984
0.14866459 2.3477125 -0.38678274
0.063287899 2.3861318 -0.41629261
0.18377401 1.3291054 -0.24536172
0.14255983 1.4137053 -0.27372029
0.13689503 2.141109 -0.43431967
0.051875971 1.9329584 -0.41171643
0.18567607 1.333426 -0.29856423
0.17575179 1.7349689 -0.40384951
0 0 -0
0.025930192 0.97893035 -0.24723065
0.30291373 2.1604557 -0.5707013
0.11443744 1.1212988 -0.30629599
0 0 -0
0.019486779 0.73664665 -0.21632384
0.32521692 2.2998023 0.71756923
0.23423992 2.2838936 0.68189996
0.148554 2.3091803 0.6627726
0.063769937 2.3675704 0.65375292
0.32390037 2.3009191 0.62039185
0.23563862 2.29162 0.5897764
0.15061077 2.3140433 0.57014406
0.066408969 2.361419 0.55643427
0.32660949 2.3204577 0.53217655
0.23470686 2.2856951 0.49770692
0.1516318 2.3160093 0.47959325
0.068223819 2.3657079 0.46531311
0.32395527 2.3053899 0.43862534
0.23743591 2.3063297 0.41290772
0.15269974 2.3143516 0.39033762
0.069123566 2.365387 0.37547785
0.3246724 2.309031 0.3508952
0.2386764 2.3069165 0.32578149
0.15488926 2.3289731 0.30530334
0.071446218 2.3725371 0.28782716
0.32596156 2.3152685 0.2643677
0.2387591 2.3073225 0.23975268
0.15546732 2.3235774 0.21849363
0.072024561 2.353514 0.19888146
0.32689667 2.3192718 0.17865965
0.24187557 2.3302886 0.1560609
0.15673196 2.3339169 0.13385189
0.073445097 2.3741813 0.11293121
0.32762235 2.3191483 0.092474677
0.24126662 2.3134122 0.069601692
0.15800314 2.335166 0.048127521
0.074581906 2.3786895 0.025961259
0.32624012 2.3070381 0.0066285776
0.2427377 2.3192778 -0.015913999
0.15915725 2.3382864 -0.037717871
0.075179875 2.3700285 -0.060808782
0.32698077 2.3035748 -0.078809597
0.24346982 2.3180659 -0.10090975
0.16010876 2.3312459 -0.12352654
0.076561555 2.3951175 -0.14950533
0.32943019 2.3098202 -0.16470787
0.24402601 2.3117094 -0.18621248
0.16122039 2.3420496 -0.21038432
0.076947108 2.3850183 -0.23700264
0.19509155 1.3651689 -0.1483992
0.15474053 1.4597878 -0.17192695
0.16126427 2.3337691 -0.29610738
0.077806361 2.3935049 -0.32706326
0.19333349 1.3449879 -0.19687308
0.14933844 1.4013588 -0.21764131
0.16258828 2.3398654 -0.38564703
0.077734768 2.3797908 -0.41526175
0.19473994 1.3474241 -0.24895939
0.1475735 1.3786312 -0.26709956
0.14900197 2.1255629 -0.4313435
0.070408762 2.1349552 -0.45482481
0.19624411 1.3486854 -0.30224484
0.11943799 1.1110251 -0.25877956
0.069094054 0.98417222 -0.23844543
0 0 -0
0.16768627 1.1448486 -0.30268681
0.12121157 1.1196162 -0.30603376
0 0 -0
0.025194209 0.7729553 -0.22702737
0.34169498 2.3138318 0.72258717
0.25042593 2.3024261 0.68787903
0.16238205 2.3034306 0.66139585
0.077754147 2.3507564 0.64922959
0.33885568 2.3046234 0.62193954
0.25032532 2.2959094 0.59126449
0.16404749 2.3024209 0.56751782
0.080830455 2.3590217 0.55597579
0.33616069 2.2865717 0.52486831
0.2490446 2.2871268 0.49834201
0.16576976 2.3140585 0.47939089
0.082498126 2.3583806 0.4639627
0.33638218 2.2916913 0.43640351
0.250835 2.2979786 0.4116804
0.1666846 2.3104205 0.38983977
0.083286941 2.3550479 0.37391073
0.33710992 2.2952552 0.34910947
0.25099167 2.2886744 0.32341674
0.16917665 2.3279788 0.30530334
0.085786678 2.3661017 0.28710493
0.34204099 2.3260052 0.26582831
0.25150219 2.2929599 0.23841615
0.16906853 2.313643 0.2176529
0.086171366 2.3450615 0.19820814
0.34213784 2.3241274 0.17919205
0.25562391 2.3238018 0.15572859
0.17068462 2.3279328 0.13356623
0.087863371 2.3696933 0.11274125
0.34272125 2.3230255 0.092711389
0.25556669 2.3128817 0.069631606
0.17247571 2.3361468 0.048168641
0.088763714 2.3671956 0.025841272
0.3403897 2.3049927 0.0066285776
0.25784549 2.325696 -0.015968593
0.17313161 2.3322802 -0.037637416
0.089985453 2.3765154 -0.060988232
0.34374654 2.3193207 -0.07941895
0.25790951 2.3185141 -0.10099626
0.17381372 2.3222528 -0.12310421
0.090306088 2.3696694 -0.14794865
0.34374368 2.3087418 -0.16477829
0.25887012 2.3161125 -0.1866916
0.1755134 2.340023 -0.21029507
0.091503486 2.3825128 -0.23680499
0.2127061 1.425899 -0.15513976
0.16358396 1.457824 -0.17181063
0.1735705 2.306025 -0.29271686
0.09226156 2.3870418 -0.32625133
0.18719429 1.2478622 -0.18282098
0.1648009 1.4613037 -0.22710395
0.1764213 2.3319364 -0.38451135
0.091953404 2.3694251 -0.41354367
0.19845685 1.3160504 -0.24338299
0.15602985 1.3776997 -0.26709956
0.15674932 2.0552218 -0.41725641
0.066568755 1.7015269 -0.36256868
0.20275778 1.3358732 -0.29964676
0.14386441 1.2651479 -0.29487783
0.1040738 1.3626837 -0.33029974
0.037565567 0.96884996 -0.24478284
0.29405242 1.9251384 -0.50945526
0.13411541 1.171582 -0.32045692
0 0 -0
0.031756457 0.81976694 -0.24082927
0.35675824 2.3173575 0.72435826
0.26553413 2.3094172 0.69044149
0.17688 2.3071835 0.6627726
0.091987774 2.3454192 0.64789927
0.35533273 2.317781 0.62606686
0.26474077 2.2972174 0.59200853
0.1781718 2.3013709 0.56751782
0.095146403 2.3545909 0.55505866
0.35151434 2.2931411 0.52686149
0.26340872 2.2884684 0.49897712
0.17950962 2.3071396 0.47817674
0.096725412 2.3519475 0.46280521
0.35162681 2.2973552 0.43788472
0.26414061 2.2895501 0.41045308
0.18024197 2.3014891 0.38851207
0.097612791 2.3515322 0.37344059
0.35522878 2.3195353 0.35312736
0.26730981 2.3067651 0.32619882
0.18306801 2.3219547 0.3046549
0.099966735 2.3575959 0.28614187
0.35615602 2.3228803 0.26571593
0.2682007 2.3140996 0.24078079
0.18349756 2.3155396 0.21793315
0.10107118 2.3564351 0.19921812
0.35533309 2.3150856 0.17865965
0.26999286 2.3231807 0.15579505
0.184728 2.3238559 0.13339485
0.10248815 2.3711054 0.11283623
0.35727242 2.322854 0.092790291
0.27021694 2.3152411 0.06975124
0.1860095 2.3250785 0.047963053
0.10306888 2.3616114 0.02578673
0.35406998 2.2998958 0.006620043
0.27083164 2.3131447 -0.015893526
0.18743895 2.3311739 -0.037637416
0.10381857 2.3589404 -0.060552422
0.35797113 2.3171678 -0.07941895
0.27224734 2.3178804 -0.10103951
0.1883821 2.3251243 -0.12331538
0.10391775 2.3481317 -0.14664102
0.35836223 2.3095465 -0.16498955
0.27307665 2.3144805 -0.1866916
0.18817583 2.3180544 -0.2084206
0.10576625 2.3739533 -0.23601431
0.2107605 1.3557949 -0.14765026
0.17462847 1.4745466 -0.17390446
0.15727618 1.9311464 -0.24524926
0.10650738 2.3775227 -0.32503352
0.2133389 1.3650033 -0.20017102
0.16850923 1.4161038 -0.2202359
0.15612209 1.9079204 -0.31474769
0.10622474 2.3629115 -0.41251281
0.20378065 1.2973161 -0.24014507
0.16075273 1.3455161 -0.26104635
0.1228905 1.4906046 -0.30277377
0.096823804 2.1388156 -0.4558661
0.19784252 1.2516735 -0.28102711
0.14501195 1.2091061 -0.2820178
0.080766313 0.97840655 -0.23727079
0.047773555 1.0635241 -0.26877156
0.18293823 1.1503481 -0.30471149
0 0 -0
0 0 -0
0 0 -0
0.37127289 2.3170116 0.72494853
0.27912274 2.3029861 0.68901789
0.19079518 2.3031805 0.66194654
0.10580933 2.3322921 0.64444023
0.37076584 2.3231897 0.62813061
0.27976575 2.3032434 0.59399271
0.1920467 2.2973311 0.56680155
0.10904891 2.3422952 0.55230749
0.36680749 2.298645 0.52863318
0.27756324 2.2877791 0.49918881
0.19341671 2.303067 0.47756964
0.11073786 2.3424885 0.46106893
0.3689639 2.3155344 0.44177294
0.27830288 2.2888634 0.41062838
0.19436026 2.3003399 0.38851207
0.11152251 2.3400373 0.3717168
0.37474796 2.3505139 0.3581869
0.28085873 2.3001666 0.32550329
0.19663982 2.3128836 0.3036173
0.11419009 2.3519804 0.28553998
0.36899272 2.3118203 0.26470476
0.28118891 2.3025367 0.23975268
0.19702405 2.3064339 0.21718583
0.11513763 2.3478086 0.19854482
0.36638519 2.2931693 0.17713848
0.28387874 2.3185091 0.15559566
0.1983017 2.3147211 0.13293782
0.11600064 2.3494811 0.11183894
0.37104461 2.3176582 0.092671938
0.2834422 2.305603 0.069511965
0.20001487 2.320905 0.047901377
0.11745807 2.3589373 0.025764914
0.37149781 2.3184152 0.006679785
0.28587642 2.3183868 -0.015941296
0.20122173 2.324003 -0.037540868
0.11814056 2.3552637 -0.060475513
0.37408599 2.3267686 -0.079825185
0.286955 2.3201323 -0.10121253
0.20247175 2.3219347 -0.1232098
0.11847439 2.3504403 -0.14682782
0.37459353 2.320106 -0.16590498
0.28616706 2.3038583 -0.18597293
0.20126876 2.303957 -0.20726024
0.11982667 2.3633215 -0.23502597
0.20875676 1.2906783 -0.14069571
0.18035565 1.4468365 -0.17076372
0.13153973 1.5012239 -0.19074942
0.12079109 2.3708873 -0.32422158
0.20614621 1.2679384 -0.18611892
0.17130089 1.3679732 -0.21290997
0.12829168 1.4577175 -0.24060352
0.12031906 2.3543446 -0.41113836
0.20713748 1.2678876 -0.23492846
0.16765848 1.3337873 -0.25896552
0.12485295 1.4087902 -0.28630576
0.11084958 2.1557634 -0.45961463
0.20741893 1.2619962 -0.28362519
0.14633104 1.1598659 -0.27073708
0.087283641 0.98370183 -0.23868033
0.059985299 1.1745673 -0.29692158
0 0 -0
0 0 -0
0.088293865 0.99213678 -0.28123644
0.041764963 0.81835723 -0.24054761
0.38359934 2.3033803 0.7214064
0.29385424 2.305985 0.69044149
0.20441218 2.296221 0.66029441
0.11957247 2.3210094 0.64151335
0.38311628 2.3094335 0.62503505
0.29327938 2.2966785 0.59275258
0.20613924 2.2961094 0.56680155
0.12254796 2.3250577 0.54840994
0.38250056 2.3059711 0.53084779
0.29196656 2.2889414 0.4998239
0.20692883 2.2950094 0.47615314
0.12479493 2.3358862 0.45991144
0.38573423 2.3287389 0.44473538
0.29259148 2.2890658 0.41097906
0.2075807 2.289283 0.38685247
0.12524179 2.3274741 0.36983627
0.38512143 2.3237815 0.35446665
0.29521909 2.3003643 0.32578149
0.21118793 2.3155832 0.30413607
0.12796873 2.3393407 0.28409544
0.38414663 2.3153942 0.26537889
0.29417202 2.2918887 0.23882741
0.21135402 2.3071647 0.21737266
0.12915693 2.3400931 0.19795564
0.38273588 2.3046489 0.1782033
0.29771748 2.3137546 0.15539625
0.21250083 2.3134608 0.13293782
0.13052537 2.3507197 0.11193392
0.38640657 2.3222375 0.092948101
0.29719964 2.3008463 0.06942223
0.21461973 2.3236163 0.047983613
0.13176246 2.3551769 0.025732189
0.38604489 2.3180649 0.0066854749
0.29932559 2.3106389 -0.015900351
0.21446177 2.3117731 -0.037363861
0.13219652 2.3475077 -0.060296055
0.38967335 2.3323157 -0.080096014
0.30041337 2.3123834 -0.10095301
0.21699362 2.3236315 -0.12336817
0.13221788 2.3377116 -0.14608061
0.38898742 2.3187475 -0.16597539
0.30145833 2.310955 -0.1866916
0.21642223 2.3135874 -0.2082421
0.13353467 2.3486328 -0.23364231
0.22046198 1.3119248 -0.14315654
0.1901322 1.4525962 -0.17157798
0.13898809 1.4816214 -0.18836349
0.13505387 2.3651555 -0.32354498
0.21672399 1.283239 -0.18855652
0.18252522 1.3884531 -0.21626768
0.13741872 1.4588677 -0.24092799
0.13476278 2.3535619 -0.41113836
0.21672332 1.2772608 -0.23690715
0.17455485 1.3229984 -0.25707388
0.1329397 1.4021431 -0.2851153
0.086352155 1.4998394 -0.31987679
0.21269485 1.2462642 -0.28037757
0.16815025 1.2700118 -0.29668275
0.13115938 1.3818258 -0.33546802
0 0 -0
0.38082591 2.2187994 -0.58892328
0 0 -0
0 0 -0
0.048100337 0.84107625 -0.24730772
0.402282 2.3273447 0.72967136
0.30825195 2.3060386 0.69101089
0.21867992 2.2968376 0.66084516
0.13364518 2.3173451 0.64071518
0.39891908 2.3165605 0.62761462
0.30762321 2.2967563 0.59324867
0.22078061 2.3006012 0.56823409
0.13669755 2.3223186 0.54795134
0.3976354 2.3093472 0.53217655
0.30678341 2.2929192 0.5010941
0.22053722 2.2888224 0.47514132
0.1390086 2.3331177 0.45952564
0.39885011 2.3195486 0.4434393
0.30636978 2.2852759 0.41062838
0.22124326 2.2840402 0.38618866
0.13963878 2.3286338 0.3701497
0.40088156 2.3301454 0.35580593
0.30827168 2.2906582 0.32466868
0.22510377 2.3112831 0.303747
0.14213933 2.3355386 0.28373429
0.39851505 2.3139727 0.26549125
0.31088296 2.3097568 0.2408836
0.22618489 2.3127606 0.21802655
0.14333001 2.3362732 0.19770317
0.40008807 2.3209267 0.1796484
0.31044132 2.3010073 0.15466514
0.22776355 2.3230429 0.13356623
0.14470068 2.3458867 0.11174396
0.40285897 2.3326232 0.093460977
0.31399435 2.3187897 0.070020437
0.22877507 2.3212607 0.047963053
0.14602514 2.35133 0.025699466
0.40026101 2.3156526 0.0066854749
0.31430507 2.3147042 -0.015941296
0.22893792 2.3133986 -0.037412137
0.14684738 2.3506434 -0.060398605
0.40363532 2.3279111 -0.080028303
0.31351793 2.3025773 -0.10060699
0.23124707 2.3222563 -0.12336817
0.14674675 2.3398447 -0.14626741
0.40423408 2.3222136 -0.1663979
0.31482241 2.3031361 -0.18621248
0.23061407 2.3122158 -0.2082421
0.14788052 2.3467762 -0.23354349
0.2421703 1.3889061 -0.15171598
0.20012113 1.4592743 -0.17250857
0.14906371 1.4906123 -0.18961924
0.14837517 2.3454947 -0.32097396
0.21639563 1.2350938 -0.18167385
0.18173854 1.3197529 -0.20573665
0.1482403 1.4766515 -0.24401058
0.14882733 2.3467917 -0.41010749
0.22506788 1.2788134 -0.23744681
0.18643294 1.3491381 -0.26237047
0.13858567 1.3720464 -0.279163
0.14532077 2.2801571 -0.48647931
0.2211885 1.2497424 -0.28146011
0.18329842 1.3220304 -0.30909154
0.11792758 1.1663026 -0.28331545
0.071695961 1.1311668 -0.28615114
0.20984447 1.1791701 -0.31331629
0.15723073 1.1277959 -0.30944288
0 0 -0
0.052046966 0.82161349 -0.24167429
0.41689178 2.3267136 0.73026174
0.3218644 2.3003063 0.68987203
0.23315687 2.2992783 0.66194654
0.14798442 2.3184052 0.64124727
0.41720092 2.3368959 0.63380563
0.32090309 2.2890692 0.59176058
0.23489268 2.2992034 0.56823409
0.15107077 2.3233788 0.54840994
0.41385424 2.3183837 0.53483415
0.32111782 2.2929294 0.50151753
0.23497662 2.2913229 0.47595075
0.15306425 2.3283041 0.45875394
0.41428238 2.3238299 0.44473538
0.32202783 2.2950525 0.41273239
0.23616359 2.2914681 0.38768229
0.15392438 2.327733 0.3701497
0.41256696 2.3130393 0.3535738
0.32301161 2.2936268 0.3253642
0.23764659 2.2940784 0.30167189
0.15606894 2.3286796 0.283012
0.41462699 2.3222442 0.26672712
0.32643685 2.3176556 0.24191171
0.24088641 2.3162806 0.21849363
0.1572597 2.3293846 0.19719817
0.41590014 2.3272619 0.18033291
0.32831997 2.3257349 0.1564597
0.24139211 2.3156435 0.13322346
0.15821308 2.3319993 0.11112659
0.41645971 2.3261731 0.093303159
0.32653379 2.3049433 0.069661513
0.24322206 2.3218019 0.048004169
0.15997316 2.3434064 0.025623109
0.41640207 2.3239806 0.0067167687
0.32822064 2.3107519 -0.015927646
0.24354663 2.3159277 -0.037476502
0.16058341 2.339725 -0.060142245
0.4198561 2.336211 -0.080400683
0.32890812 2.3095117 -0.10099626
0.24486153 2.3148353 -0.12305143
0.16034658 2.3279474 -0.14558247
0.42006916 2.3285248 -0.16703168
0.3299357 2.3080688 -0.18677145
0.24458735 2.3087764 -0.20806357
0.16241463 2.34781 -0.23374113
0.24892001 1.3776098 -0.15064606
0.18877038 1.3164446 -0.15575792
0.15653075 1.4738849 -0.18761003
0.16235234 2.3386097 -0.32016206
0.22520734 1.240559 -0.18267757
0.19335361 1.3430679 -0.20955224
0.15280086 1.4335229 -0.23703422
