# .PCD v0.7 - Point Cloud Data file format
VERSION 0.7
FIELDS x y z
SIZE 4 4 4
TYPE F F F
COUNT 1 1 1
WIDTH 1500
HEIGHT 1
VIEWPOINT 0 0 0 1 0 0 0
POINTS 1500
DATA ascii
7.8819647 -2.3871658 0.47125232
0.89242041 -0.23544921 0.043880757
8.0348425 -3.0921233 0.33991545
7.9340119 -2.7259665 0.2510387
7.884325 -2.3922379 0.16942285
0 -0 0
8.0471706 -3.0981576 0.024531426
7.965692 -2.7401156 -0.057486933
7.9174933 -2.4057732 -0.13317111
0 -0 -0
7.9896808 -3.0808287 -0.29005182
1.5727804 -0.5416649 -0.072016604
7.9146066 -2.4101782 -0.43735784
0 -0 -0
1.5548368 -0.60073137 -0.1176686
1.5840205 -0.54646397 -0.1342295
8.0422745 -2.4504364 -0.75343823
7.7841902 -2.0647676 -0.79985923
1.5449548 -0.59740925 -0.17825024
1.5799468 -0.54583013 -0.19577338
5.9147029 -1.8038694 -0.78271306
0 -0 -0
1.5511705 -0.60127592 -0.24103691
2.7578976 -0.95450574 -0.45069757
2.9831054 -0.91104126 -0.51284409
1.5233608 -0.40472829 -0.274894
1.6009401 -0.62198257 -0.31407738
3.9829988 -1.3806142 -0.8120811
3.7619374 -1.1514097 -0.79641813
1.5662011 -0.41663691 -0.34507543
1.5846535 -0.61740643 -0.37715656
3.3012657 -1.1459855 -0.80927831
3.230679 -0.98917842 -0.81658739
2.9583561 -0.78586894 -0.77277941
1.4976448 -0.58513284 -0.4206233
1.4582392 -0.50743276 -0.41958353
1.4262066 -0.43708837 -0.42117533
1.3465227 -0.35764509 -0.40898725
5.7436366 -2.2518606 1.9059417
6.0105677 -2.0948951 1.8905284
6.3154087 -1.9356664 1.8919445
0.93246162 -0.24814805 0.2663438
6.6803889 -2.614284 1.9153467
7.0532708 -2.4603851 1.9124331
7.4360914 -2.2852612 1.9126568
0.96383566 -0.25772268 0.23500007
7.9550867 -3.1129606 1.9400194
8.4338989 -2.9406672 1.9347272
8.3649645 -2.5742381 1.8084915
0 -0 0
8.5206871 -3.3320606 1.7237661
8.4494877 -2.9485838 1.5937712
8.3813953 -2.5839391 1.4760472
0 -0 0
8.523119 -3.333869 1.3772413
8.4488831 -2.9531708 1.2572217
8.3938999 -2.592608 1.1491027
0 -0 0
8.0244608 -3.1404309 0.97432929
7.941957 -2.7761383 0.86956614
7.8908806 -2.4407115 0.77495641
0 -0 0
8.0219946 -3.140919 0.65713888
7.9468989 -2.780668 0.5608356
7.8986416 -2.4452269 0.47313756
0 -0 0
8.0287428 -3.1464703 0.34046778
7.9680748 -2.7924488 0.25265387
7.9029198 -2.4509354 0.1701424
0 -0 0
8.0401125 -3.1522212 0.024568411
7.9704313 -2.7965553 -0.05764389
7.9035378 -2.4546053 -0.1331872
0 -0 -0
8.0013266 -3.141849 -0.29116899
1.5552882 -0.54633844 -0.071367808
7.9082503 -2.4613667 -0.43783295
0 -0 -0
1.5743279 -0.61939055 -0.11942905
1.5853391 -0.55782735 -0.13462876
8.0784397 -2.5157285 -0.75825834
7.805944 -2.1218886 -0.80341727
1.5375595 -0.60542059 -0.17782226
1.5803148 -0.55683446 -0.19623867
1.6006664 -0.49892753 -0.21222286
0 -0 -0
1.5336436 -0.60533226 -0.23888607
1.5777574 -0.55692416 -0.2583918
3.0076008 -0.93873602 -0.51803577
1.6472694 -0.44848722 -0.29774457
1.5998378 -0.63287961 -0.31461704
4.0124102 -1.4184459 -0.8198368
3.7604139 -1.1762263 -0.79760849
1.4796311 -0.40334517 -0.32654092
1.5835577 -0.62819809 -0.3778061
1.631933 -0.57774556 -0.40091652
1.523219 -0.47662541 -0.38574123
2.8674095 -0.78057629 -0.7502594
1.4931273 -0.59395361 -0.42037025
1.45237 -0.51540262 -0.41879684
1.4198244 -0.44468066 -0.42008844
1.3415256 -0.36514449 -0.40814227
5.7022028 -2.2760804 1.8967912
6.0003099 -2.1326988 1.8913825
6.3171735 -1.9786909 1.8960748
1.0034608 -0.27364653 0.28709784
6.6480665 -2.6487882 1.9107035
7.0334778 -2.5019934 1.9111931
7.4163704 -2.3290992 1.9112241
0.94909334 -0.26003096 0.2317903
7.9294949 -3.1591868 1.9384692
8.4230623 -2.9949803 1.9364207
8.3733015 -2.6331544 1.8137528
8.2816868 -2.2753747 1.6885927
8.536602 -3.3988202 1.7311722
8.4590635 -3.0102761 1.5990313
8.3935995 -2.644207 1.4810261
8.3550692 -2.2989869 1.3749759
8.5328188 -3.3981767 1.382152
8.4641848 -3.0169258 1.2622294
8.4033642 -2.6521206 1.1526045
7.864922 -2.1716504 0.98939848
8.038271 -3.2028496 0.97837394
7.9472604 -2.8328328 0.8720336
7.9023376 -2.497484 0.77757198
0 -0 0
8.0405474 -3.20522 0.66025728
7.9428444 -2.8340712 0.56176615
7.9149013 -2.503582 0.47502279
0 -0 0
8.0389843 -3.2075243 0.34173024
7.9799695 -2.8517148 0.25358108
7.9201379 -2.5096488 0.1708414
0 -0 0
8.0503387 -3.2133577 0.024659446
7.9860754 -2.857198 -0.057882734
7.9226375 -2.513941 -0.1337665
0 -0 -0
8.0412903 -3.2146282 -0.29333553
1.5594311 -0.55856633 -0.071713835
7.9091768 -2.5149889 -0.43873039
7.8271441 -2.1768117 -0.50686109
1.5501257 -0.62087905 -0.11787985
1.583763 -0.56821752 -0.13478845
1.5831473 -0.50368875 -0.14888462
7.7812734 -2.1665421 -0.80223125
1.5338159 -0.61484349 -0.17782226
1.5712601 -0.56450576 -0.19554074
1.6108093 -0.51295406 -0.21398093
0 -0 -0
1.5528581 -0.62395573 -0.24247079
1.5854691 -0.57061064 -0.26022327
2.9717009 -0.94757998 -0.51284409
2.9312286 -0.81741083 -0.53071725
1.6023116 -0.64525634 -0.31587622
3.9251106 -1.4147376 -0.80375785
3.7503252 -1.1983826 -0.79701334
2.6424394 -0.737773 -0.58415002
1.5715261 -0.63461274 -0.3758575
1.6127794 -0.58212525 -0.39708108
1.6119262 -0.51526254 -0.40899849
1.550362 -0.43228006 -0.40633953
1.4993187 -0.6070981 -0.42315412
1.459162 -0.52791584 -0.42168146
1.4005703 -0.44810542 -0.41519737
1.3688362 -0.3816146 -0.41715574
5.6987519 -2.3153412 1.9003333
6.003334 -2.1753542 1.8965075
6.3067451 -2.0180011 1.8966256
1.0175459 -0.28420684 0.29162118
6.627212 -2.6877143 1.9094138
7.0161724 -2.5444424 1.9106971
7.3899193 -2.3707051 1.9081205
7.9041009 -2.2177799 1.9336492
7.9180942 -3.2110801 1.9404624
8.4265795 -3.0546007 1.9415015
8.3812284 -2.6922696 1.8190142
8.3289652 -2.3434215 1.7011323
8.5501957 -3.4651618 1.7382079
8.4543152 -3.0671594 1.6016612
8.3931751 -2.7007945 1.4838473
8.3436575 -2.3510129 1.3754461
8.560379 -3.4701586 1.3900391
8.4697132 -3.0775974 1.2658461
8.4124136 -2.7118468 1.1561062
7.8638673 -2.2233787 0.99096334
8.0433302 -3.2621949 0.98140752
7.9605799 -2.8927538 0.87542629
7.9067616 -2.5523477 0.77953368
7.8289981 -2.2176523 0.68728989
8.0429039 -3.2634933 0.66208267
7.9787531 -2.9021955 0.56555468
7.9259911 -2.5606937 0.47662237
7.8280544 -2.2201896 0.38685352
8.060812 -3.2737095 0.34350556
7.9773483 -2.9060996 0.25405964
7.9274192 -2.565587 0.1713348
7.9066772 -2.2460673 0.089664511
8.0740137 -3.2803843 0.024793154
7.9806066 -2.9106002 -0.057971451
7.9260859 -2.568671 -0.13408832
7.8941102 -2.2456245 -0.2104722
8.0343752 -3.269182 -0.2938095
1.5709897 -0.57360679 -0.072405882
7.8100157 -2.5363283 -0.43408492
7.8913932 -2.2469361 -0.51190484
1.5610663 -0.63640392 -0.11900654
1.5774381 -0.5768975 -0.1345489
1.5790796 -0.51308548 -0.14879535
7.7994137 -2.2232485 -0.80549276
1.5355378 -0.62649679 -0.17846422
1.5677668 -0.5741362 -0.19554074
1.6000839 -0.52037352 -0.21297631
1.5758979 -0.44963124 -0.22381572
1.536176 -0.62822753 -0.24046333
1.5689486 -0.57556301 -0.25808656
2.9592626 -0.96365732 -0.51170832
2.9346833 -0.83781499 -0.53226352
1.5965019 -0.65432966 -0.31551644
4.0297265 -1.4804451 -0.82702506
3.7261295 -1.2158988 -0.79344189
2.9246891 -0.83595556 -0.64766723
1.5730206 -0.64647013 -0.37715656
1.6164916 -0.59470105 -0.398886
1.6558597 -0.54052675 -0.42097947
1.5318307 -0.43726048 -0.40217823
1.5089825 -0.6218152 -0.42695037
1.4622332 -0.53919625 -0.42351717
1.4279823 -0.46655381 -0.42416432
1.3544742 -0.38658303 -0.41349402
5.6597157 -2.3400428 1.8920685
6.0249438 -2.2251012 1.9076115
6.3061237 -2.0605421 1.9002053
1.0565625 -0.30210525 0.3033286
6.6141677 -2.7298019 1.9104456
6.9977016 -2.5864372 1.909953
7.3918443 -2.4214456 1.912418
7.8594713 -2.2573695 1.9260833
7.8883271 -3.2555122 1.9380263
8.4186792 -3.1103122 1.944042
8.4110785 -2.7589064 1.8291322
8.3427162 -2.4026291 1.7069197
8.5587521 -3.5299242 1.744318
8.4574986 -3.1271708 1.6058692
8.397994 -2.7593231 1.4876645
8.3556461 -2.4098277 1.3798341
8.5718336 -3.5361948 1.3953962
8.4720278 -3.1374185 1.2690455
8.423871 -2.7727134 1.1599971
7.862474 -2.275176 0.99252838
8.0332651 -3.3156564 0.98264337
7.9594703 -2.9477625 0.87727684
7.8994617 -2.6036196 0.78037435
7.8468261 -2.2748044 0.69006729
8.0439253 -3.3215349 0.66383201
7.9926043 -2.9628892 0.56781447
7.9234033 -2.613657 0.47742218
7.8737588 -2.2854428 0.38979787
8.0738173 -3.3368475 0.34492579
7.9912267 -2.9668212 0.25507662
7.9257669 -2.6188855 0.17164317
7.8994679 -2.2964935 0.089740872
8.0694437 -3.3363593 0.024841517
7.9794688 -2.9657843 -0.058094285
7.9282117 -2.6232238 -0.13439405
7.8984194 -2.2993286 -0.21095929
8.0815725 -3.3463299 -0.29628077
1.5580771 -0.57975131 -0.071973346
1.5744063 -0.52199435 -0.087682724
7.9157858 -2.3064823 -0.51439553
1.5663457 -0.64979273 -0.11971072
1.5673304 -0.58412886 -0.13398995
1.5787377 -0.52370566 -0.14906314
7.8429422 -2.2877822 -0.81142271
1.5279918 -0.63438195 -0.17803624
1.5670061 -0.58478683 -0.19588971
1.5921532 -0.52861863 -0.21234843
1.4913154 -0.43541136 -0.21217839
1.5386884 -0.64030313 -0.24146707
1.5774219 -0.58967775 -0.26007068
3.0001125 -0.99736124 -0.51982045
2.9493451 -0.86160731 -0.53587151
1.5888253 -0.66259885 -0.31479692
1.602893 -0.60006052 -0.32971284
3.694422 -1.2306852 -0.78828329
2.9579935 -0.86514246 -0.65620559
1.5771306 -0.65949959 -0.37910512
1.5991288 -0.59947884 -0.39550179
1.6340687 -0.54453075 -0.41628104
1.4993368 -0.43795213 -0.39434516
1.506031 -0.63143659 -0.42720345
1.4670273 -0.55121291 -0.4258773
1.4333091 -0.47804734 -0.42660984
1.359445 -0.39703861 -0.4157474
5.6505351 -2.3769491 1.8938396
5.9923363 -2.2549379 1.9016324
6.2933617 -2.0991971 1.9002053
1.0306346 -0.30154464 0.29641059
6.6097655 -2.7755713 1.914057
6.9735403 -2.6262529 1.9077209
7.3888202 -2.4707592 1.9155219
7.829597 -2.3008866 1.922186
7.8753963 -3.3068733 1.9397981
8.3966923 -3.1608768 1.9434068
8.4311371 -2.822901 1.8372266
8.3598175 -2.4632027 1.7134787
8.5623045 -3.5930204 1.7495022
8.4768457 -3.1935837 1.6132331
8.406148 -2.8192666 1.4921453
8.3681736 -2.4691575 1.3843787
8.5846233 -3.6032674 1.401051
8.5100622 -3.2110176 1.27767
8.4461765 -2.8376119 1.1654443
7.8578844 -2.3261943 0.99373204
8.048501 -3.3798902 0.9870252
7.9970727 -3.0176158 0.8834455
7.9173098 -2.6634693 0.78373724
7.84514 -2.326592 0.69116151
8.0702753 -3.3905256 0.6677109
7.9892087 -3.0175161 0.56887788
7.9422255 -2.6740115 0.47953591
7.8796959 -2.3396831 0.39079517
8.0697708 -3.3932967 0.34563595
7.9953094 -3.0242856 0.25579444
7.9218645 -2.6716213 0.17191043
7.888104 -2.3457756 0.089773595
8.0764732 -3.3974419 0.024926864
8.0003977 -3.029563 -0.058380898
7.9498591 -2.6846173 -0.13503771
7.8937435 -2.3506021 -0.21121566
8.0553608 -3.3935263 -0.29607764
1.5572931 -0.59036303 -0.072103113
1.5749574 -0.53292513 -0.087893881
7.9206138 -2.3607106 -0.51564085
1.5568151 -0.6570642 -0.11928821
1.5702399 -0.59621167 -0.1345489
1.567004 -0.53050828 -0.1482598
7.8449678 -2.3406994 -0.8131029
1.5359772 -0.6487748 -0.17942715
1.5438924 -0.58697855 -0.1934469
1.592638 -0.53965145 -0.21285073
1.6082366 -0.48027676 -0.22922845
1.538376 -0.65127558 -0.24204062
1.5691561 -0.59758693 -0.25930756
2.9939363 -1.0157509 -0.51982045
2.9572175 -0.88363647 -0.53827685
1.5901631 -0.6746403 -0.31587622
1.6083559 -0.61338347 -0.33160451
3.7220638 -1.265318 -0.79582286
3.5467157 -1.0609964 -0.78823805
1.5622737 -0.66457832 -0.37650704
1.5872294 -0.60615158 -0.39347124
1.6325372 -0.55517286 -0.41675088
1.5170596 -0.45324993 -0.39973038
1.4994586 -0.63952684 -0.4264442
1.4753337 -0.56468844 -0.42928642
1.4394593 -0.48993382 -0.4293271
1.351467 -0.40372467 -0.41405734
5.6349654 -2.4111996 1.8935444
5.9416885 -2.277596 1.889959
6.2703519 -2.1343653 1.8971763
1.0352294 -0.30979732 0.29827312
6.5970526 -2.8179734 1.9153467
6.9563904 -2.6686454 1.907473
7.3799543 -2.5182447 1.9171932
7.8134665 -2.3483243 1.9217273
7.8540602 -3.3547504 1.9395765
8.3744011 -3.2112885 1.9427717
8.4358988 -2.8821793 1.8420833
8.3783674 -2.5246429 1.7204237
8.5735378 -3.6597648 1.7563528
8.5048857 -3.2638791 1.6223503
8.4278774 -2.884203 1.4991156
8.3869047 -2.5307283 1.3900203
8.6041861 -3.6737356 1.4078963
8.5244007 -3.2763188 1.2828168
8.4398623 -2.8932419 1.1670007
7.8748178 -2.3838573 0.99770457
8.0659895 -3.4456058 0.99174404
8.0201883 -3.0826876 0.88807195
7.9356604 -2.7239587 0.78719354
7.8755345 -2.3882761 0.69511724
8.0713253 -3.4493842 0.66953635
7.9975495 -3.0768702 0.57080543
7.94172 -2.7282081 0.48050711
7.872838 -2.3903096 0.39117509
8.0846272 -3.4580734 0.34717456
8.0148439 -3.088021 0.25702077
7.9384112 -2.7315643 0.17262998
7.8879128 -2.3984957 0.089937225
8.0839748 -3.4591296 0.025015056
8.0311069 -3.0976682 -0.058742583
7.9653788 -2.7444203 -0.1355848
7.9107304 -2.4086018 -0.21206164
8.0830755 -3.463753 -0.29787186
1.5564374 -0.6009869 -0.072232872
1.5801531 -0.54551172 -0.088368982
7.9136176 -2.4115939 -0.51613903
1.536255 -0.6595211 -0.11802069
1.570271 -0.60727346 -0.13486831
1.5778408 -0.54499084 -0.1495987
7.8371205 -2.3908236 -0.81379473
1.5310541 -0.65779477 -0.17932017
1.5597118 -0.60397238 -0.19588971
1.5827334 -0.54714459 -0.2119717
0 -0 -0
1.5234432 -0.65600574 -0.24031995
1.5673026 -0.60791856 -0.2596128
2.9745927 -1.0295836 -0.51754904
2.9696405 -0.90723372 -0.54154122
1.5878001 -0.68516421 -0.31623599
1.6073078 -0.62430716 -0.33217198
3.7484925 -1.300015 -0.80316406
3.5569746 -1.0878878 -0.79198664
1.5662307 -0.67764074 -0.37845558
1.6007315 -0.62258893 -0.39775792
1.5712459 -0.54510832 -0.40195084
1.5086862 -0.46085036 -0.3982617
1.4981689 -0.64987034 -0.42720345
1.4772357 -0.5758332 -0.43085986
1.4382443 -0.49938828 -0.42987055
1.369153 -0.41817567 -0.42025414
5.6077995 -2.440392 1.8894119
5.9249225 -2.3129647 1.8891048
6.2616782 -2.174376 1.8985531
6.4570289 -1.9755445 1.8638743
6.5769792 -2.8572443 1.914573
6.9660525 -2.7215018 1.9146652
7.3735342 -2.5666721 1.9195805
7.8203111 -2.4027979 1.9270006
7.8234897 -3.3986049 1.9371405
8.3463459 -3.2594128 1.9408664
8.4541206 -2.9464562 1.8499752
8.3711586 -2.5786037 1.72216
8.604104 -3.7353914 1.7672768
8.5103741 -3.3260369 1.6272596
8.4435387 -2.9475617 1.5050901
8.3948126 -2.5894194 1.3939379
8.595089 -3.7323689 1.4101285
8.5161257 -3.3332543 1.2846252
8.4612617 -2.9587197 1.1724478
7.8714228 -2.4356527 0.99914914
8.0583658 -3.5009718 0.9934293
8.0289097 -3.1427174 0.8911562
7.9291344 -2.7762191 0.78822112
7.8797669 -2.4424548 0.69680047
8.092988 -3.5175247 0.67311102
8.0258999 -3.1444473 0.57419515
7.9559231 -2.787781 0.48239234
7.8847346 -2.4468608 0.39250481
8.085248 -3.5171809 0.3481214
8.0162163 -3.1451731 0.25767884
7.9648967 -2.7954526 0.17357568
7.9102879 -2.4584236 0.090362631
8.1075277 -3.5282192 0.025154455
8.0435944 -3.159317 -0.058974601
7.9757457 -2.8028569 -0.13605146
7.9139385 -2.4627395 -0.21254873
8.0726643 -3.5180759 -0.29827809
1.5517907 -0.61016011 -0.072189614
1.5664152 -0.5515489 -0.087788306
7.9110589 -2.4639637 -0.51694846
1.5413212 -0.67292619 -0.11872487
1.57579 -0.62054944 -0.13566682
1.563194 -0.55069065 -0.14852758
7.817553 -2.4373853 -0.81330055
1.5315446 -0.6691671 -0.17985512
1.5513567 -0.61170954 -0.19530809
1.5802821 -0.5571757 -0.21209729
1.6296505 -0.50853533 -0.23315266
1.5266418 -0.66851687 -0.24146707
1.5690582 -0.61970216 -0.26052853
2.9858983 -1.0540569 -0.52063161
2.9790637 -0.93013567 -0.54429013
1.579963 -0.6933127 -0.31551644
1.6034468 -0.63415766 -0.33217198
3.700712 -1.3089373 -0.79463238
3.6053109 -1.1269084 -0.80427361
1.5629369 -0.68763137 -0.37867212
1.5869176 -0.62845331 -0.39527616
1.5999438 -0.56608665 -0.41017309
1.5280426 -0.47703326 -0.40413645
1.4968086 -0.66022199 -0.42796272
1.4889226 -0.59093827 -0.43531793
1.4460392 -0.51205868 -0.43313128
1.3757206 -0.4294278 -0.42307085
5.5944672 -2.4755282 1.8900023
5.9293261 -2.3567114 1.8950839
6.2373443 -2.208905 1.8952488
6.5588689 -2.0507979 1.896868
6.5540209 -2.8952036 1.9130251
6.9537234 -2.7659838 1.9159054
7.3549018 -2.6108925 1.9188644
7.796134 -2.4478214 1.9247079
7.8024893 -3.4465449 1.9371405
8.302577 -3.3011749 1.9353622
8.4414196 -3.0002422 1.8511895
8.3757706 -2.6364009 1.7264042
8.6133871 -3.8024023 1.7739422
8.536459 -3.3967566 1.6362017
8.4503784 -3.0082445 1.5095711
8.4155025 -2.6524591 1.4000496
8.6009722 -3.7978189 1.4148904
8.52495 -3.3971763 1.2890764
8.4653625 -3.018574 1.1755605
7.8714743 -2.4886932 1.0010751
8.0667267 -3.5636017 0.99713695
8.0390453 -3.2037067 0.89444619
7.9438305 -2.8362012 0.79139715
7.9197297 -2.5082078 0.70168209
8.1104689 -3.5844479 0.67638153
8.0333319 -3.2043548 0.57612264
7.9555912 -2.842592 0.48342067
7.9048023 -2.5063648 0.39426193
8.0991535 -3.5824893 0.34966004
8.0413218 -3.2120979 0.2591145
7.9814811 -2.8563991 0.17431578
7.9284105 -2.5175056 0.090744413
8.1140747 -3.5904438 0.025242645
8.0528412 -3.2201221 -0.059186153
8.0016956 -2.8672574 -0.13679165
7.9196377 -2.5179157 -0.21311273
0 -0 -0
1.5554377 -0.62264049 -0.072535641
1.5770994 -0.56621128 -0.088580139
7.8995962 -2.5136693 -0.51719761
1.5389866 -0.68318039 -0.11886571
1.5636257 -0.62686825 -0.13494816
1.5579109 -0.55959851 -0.14834906
1.5711095 -0.50044399 -0.16376705
1.5210494 -0.67572623 -0.17910616
1.5374352 -0.61714709 -0.19402853
1.5768336 -0.56686163 -0.21209729
1.6246116 -0.51792324 -0.23288202
1.5442096 -0.68753248 -0.24490839
1.5551398 -0.62526268 -0.25884968
2.9858735 -1.0746974 -0.52176732
2.9845629 -0.95198977 -0.54635185
1.5675942 -0.69938701 -0.31389752
1.5986148 -0.64361763 -0.33198282
3.6704829 -1.3236401 -0.78987056
3.6281438 -1.1585295 -0.8109377
1.5488851 -0.69282347 -0.3762905
1.5947778 -0.642914 -0.39820915
1.5973547 -0.57622296 -0.41040802
1.5250868 -0.48640019 -0.40413645
1.4847846 -0.66583109 -0.42568496
1.473637 -0.59536368 -0.43190882
1.4446805 -0.52157539 -0.43367472
1.3694031 -0.43669489 -0.42194414
5.6044412 -2.5211756 1.8985623
5.9343042 -2.4009585 1.9013478
6.2182479 -2.2451761 1.8935966
6.5746279 -2.1000965 1.9051164
6.5299635 -2.9325931 1.9112195
6.9285398 -2.8053269 1.9136733
7.346961 -2.6589463 1.9210131
7.7679915 -2.4914496 1.9214981
7.7803044 -3.4939556 1.936919
8.2921314 -3.3560901 1.937691
8.4587593 -3.0649924 1.8590815
8.4061422 -2.7027612 1.73605
8.6374111 -3.8765078 1.7837554
8.5619926 -3.4679208 1.6451436
8.4623508 -3.0711401 1.5150478
8.4094105 -2.7073753 1.4017735
8.628027 -3.8732007 1.4232237
8.5553341 -3.4702654 1.2968664
8.4830265 -3.0836713 1.1806188
7.9165163 -2.5564692 1.0087795
8.1099739 -3.6423426 1.0052265
8.0367489 -3.2600772 0.89639956
7.9534106 -2.8947654 0.79410613
7.9146194 -2.5601285 0.70260787
8.1092405 -3.6435442 0.67813087
8.0338583 -3.2618442 0.57758492
7.9811506 -2.9070706 0.48604855
7.9234853 -2.5658991 0.39597157
8.1070929 -3.6456409 0.35096195
8.0575743 -3.2760606 0.26028103
7.9966774 -2.9173114 0.17503533
7.9461055 -2.5769022 0.091126196
8.1256351 -3.6553428 0.025347909
8.0764627 -3.2871902 -0.059506889
7.9989786 -2.9217896 -0.13704911
7.9278088 -2.5741804 -0.21375363
1.533607 -0.69086373 -0.056974463
1.5469619 -0.63028795 -0.072319373
1.5726577 -0.57553434 -0.088527344
1.591802 -0.51729226 -0.10442334
1.5265828 -0.68891776 -0.11823194
1.5597498 -0.63645071 -0.13494816
1.5759596 -0.57702339 -0.15040202
1.5774723 -0.51315308 -0.16475539
1.5214053 -0.68709272 -0.17964114
1.5299417 -0.6250664 -0.19356322
1.5789146 -0.57857424 -0.21285073
1.6214031 -0.52788192 -0.23288202
1.5066022 -0.68189579 -0.23960301
1.537554 -0.62917876 -0.25656033
1.6109668 -0.59102106 -0.28213724
2.9814756 -0.97120011 -0.54686725
1.558794 -0.70696092 -0.31299809
1.5946355 -0.65341443 -0.33198282
3.7588859 -1.3816415 -0.81070358
3.5893507 -1.1704597 -0.80385703
1.5392727 -0.69988966 -0.37499148
1.5899017 -0.6523174 -0.39798352
1.5937889 -0.58601326 -0.41040802
1.5303708 -0.49845123 -0.40633953
1.4868335 -0.67773789 -0.42745656
1.4842364 -0.61026603 -0.43610466
1.4513878 -0.53408581 -0.43666372
1.4369487 -0.46796757 -0.44363287
5.6062441 -2.5634627 1.9044658
5.8999591 -2.4292958 1.8950839
6.2187896 -2.2886004 1.8980023
6.5093818 -2.1233585 1.88995
6.5030575 -2.9685929 1.9086398
6.9031343 -2.844465 1.9114411
7.3131971 -2.6975913 1.9164768
7.7590332 -2.541187 1.923103
7.7613811 -3.5428438 1.9375834
8.2731895 -3.4076507 1.9381144
8.4590855 -3.1239612 1.863331
8.4341488 -2.7689807 1.7453101
8.6429672 -3.9428926 1.7898655
8.562398 -3.5293953 1.6493516
8.4757185 -3.1349797 1.5208564
8.4179726 -2.767251 1.4060045
8.6328878 -3.9392047 1.4279857
8.5576782 -3.5325181 1.300483
8.4927692 -3.1463425 1.1846393
7.9195375 -2.6112132 1.0111871
8.1163979 -3.7052407 1.0088217
8.035903 -3.3172989 0.89855856
7.9560356 -2.9511297 0.79616123
7.9025459 -2.6098933 0.70294452
8.1184759 -3.7077308 0.68079287
8.0588789 -3.3297474 0.58084172
7.992178 -2.9667578 0.48781955
7.9578567 -2.6310871 0.39848858
8.1481857 -3.7243936 0.35372356
8.064105 -3.3365211 0.26114842
8.0039291 -2.9757302 0.17559041
7.9681144 -2.6381819 0.091562517
8.1585283 -3.7304981 0.025521446
8.071846 -3.3431897 -0.059622902
8.0090113 -2.9812796 -0.13753183
7.9460249 -2.6341002 -0.21467653
1.5484217 -0.70899844 -0.057685375
1.5402968 -0.63862014 -0.072189614
1.5541263 -0.57959014 -0.087682724
1.5923872 -0.52830684 -0.10467242
1.5187001 -0.69660813 -0.11795027
1.5604184 -0.64792043 -0.13534741
1.5630577 -0.58320063 -0.14950943
1.5761827 -0.52344984 -0.16495305
1.51445 -0.69517058 -0.17932017
1.5251604 -0.63406092 -0.1934469
1.5744056 -0.58790433 -0.21272516
1.6012094 -0.53219563 -0.23044631
1.5275644 -0.70270813 -0.24361791
1.5409633 -0.64164031 -0.25778133
1.6054615 -0.60020357 -0.28181276
2.985743 -0.99289536 -0.5487572
1.5580002 -0.71815932 -0.3137176
1.5942215 -0.66469812 -0.33273947
1.621842 -0.60745692 -0.35059062
3.6303577 -1.2085258 -0.81468624
1.5411528 -0.71218807 -0.37650704
1.581374 -0.66018403 -0.39685544
1.5874325 -0.59475845 -0.40970325
1.5401642 -0.51211494 -0.40976647
1.4817691 -0.68644148 -0.42720345
1.4751225 -0.617127 -0.43453121
1.4615999 -0.54804957 -0.4407396
1.4313186 -0.47586757 -0.44278786
5.5609498 -2.5841241 1.8944298
5.884058 -2.4650812 1.8947991
6.192028 -2.3219895 1.8941474
6.5812864 -2.1915832 1.9146953
6.4864731 -3.0092523 1.9091558
6.8891249 -2.8882666 1.9124331
7.3019609 -2.7444632 1.9179093
7.745141 -2.589365 1.9235615
7.717381 -3.5801404 1.9320467
8.2557306 -3.4598608 1.9389611
8.4672556 -3.1861534 1.8694019
8.4281635 -2.8244205 1.7476249
8.6346588 -4.0032907 1.7931981
8.5714493 -3.5948126 1.6553128
8.4904652 -3.1997938 1.5269969
8.4139433 -2.8232491 1.4081985
8.6363649 -4.0049973 1.4325988
8.5741901 -3.6010664 1.3063254
8.530818 -3.2201037 1.1926804
7.9362969 -2.6708398 1.0154004
8.1349745 -3.7742095 1.01399
8.0649195 -3.3873441 0.90411031
7.9899325 -3.0196021 0.80139238
7.9194317 -2.6694732 0.7058903
8.1380816 -3.7772048 0.68436754
8.0870476 -3.399627 0.58436441
8.0065069 -3.0281022 0.48981902
7.95292 -2.6836987 0.39905846
8.1623344 -3.791579 0.35534105
8.0821743 -3.4022269 0.26240468
7.9967394 -3.0290353 0.17583711
7.9659872 -2.6918254 0.091726147
8.1635981 -3.7935514 0.025609639
8.0797482 -3.4046924 -0.059834454
8.0167456 -3.0402937 -0.1379824
7.9694843 -2.6962621 -0.21575324
1.5458546 -0.7193293 -0.057753082
1.5280646 -0.64456463 -0.071800336
1.5626761 -0.59372592 -0.088368982
1.5976236 -0.54094833 -0.10523283
1.5107808 -0.70422786 -0.1176686
1.5499858 -0.65476751 -0.13478845
1.5659668 -0.5952577 -0.15013425
1.5814233 -0.53598607 -0.16584256
1.5002444 -0.69982648 -0.17814323
1.5194117 -0.64263338 -0.19321425
1.5605688 -0.59367341 -0.21134382
1.6072967 -0.54519314 -0.23179948
1.5115689 -0.70661944 -0.24175385
1.5488273 -0.65609467 -0.25976542
1.5934492 -0.60688233 -0.28035259
2.9711988 -1.0083475 -0.54721087
1.5393114 -0.72102934 -0.31083947
1.588305 -0.67370069 -0.33236116
1.6125898 -0.61530048 -0.34940016
3.6441741 -1.2380147 -0.81947607
1.5341028 -0.72038609 -0.3758575
1.5746034 -0.66873223 -0.3961786
1.5864776 -0.6055274 -0.41040802
1.5314841 -0.51968622 -0.40829778
1.4696515 -0.69181222 -0.42492571
1.4819632 -0.63070124 -0.43767807
1.4627048 -0.55872452 -0.44209823
1.4256461 -0.48371616 -0.44194287
5.5423975 -2.6169732 1.8935444
5.8511844 -2.4936221 1.8891048
6.1606011 -2.3534212 1.8889157
6.5239058 -2.217036 1.9019235
6.4547772 -3.0428162 1.9052863
6.8908772 -2.938844 1.9178895
7.2867985 -2.7899101 1.9183869
7.7373977 -2.639668 1.9256248
7.7137928 -3.636158 1.9366976
8.241538 -3.5135183 1.9406548
8.4822941 -3.2513669 1.8770914
8.4357424 -2.8846538 1.7528336
8.6694956 -4.0842571 1.8056034
8.579113 -3.6600873 1.6610987
8.5130215 -3.2680879 1.534631
8.443181 -2.8908191 1.4160341
8.6742449 -4.0874195 1.4430156
8.5883589 -3.6691709 1.3118896
8.5405159 -3.2837746 1.1968306
7.9272714 -2.722065 1.0163635
8.1467152 -3.8405786 1.0183718
8.0668507 -3.4465358 0.90668052
8.0000582 -3.0796587 0.80428821
7.9339986 -2.7287102 0.7086677
8.1454144 -3.8415291 0.68695354
8.0908051 -3.4597764 0.58615893
8.0073404 -3.0847089 0.49101871
7.9419699 -2.7343972 0.39934337
8.1795797 -3.8607838 0.35711637
8.0933065 -3.4655249 0.26345155
8.024642 -3.0960393 0.17686504
7.9568834 -2.7432606 0.091813415
8.1772413 -3.8610764 0.025726276
8.1000643 -3.4719326 -0.060141541
8.0109978 -3.0944703 -0.13820769
7.9631848 -2.7486989 -0.21603523
1.5558681 -0.73563617 -0.058294728
1.5451976 -0.66298896 -0.07279516
1.559935 -0.60366356 -0.088421769
1.5895575 -0.5491116 -0.10492149
1.4956131 -0.70836079 -0.11682358
1.5541816 -0.6678074 -0.13550711
1.5613562 -0.60449553 -0.15004499
1.5630572 -0.54047626 -0.16426122
1.4797499 -0.70135355 -0.17621736
1.525476 -0.65626174 -0.19449382
1.548571 -0.60001183 -0.21021365
1.6029849 -0.55472106 -0.23166418
1.4955833 -0.71036106 -0.23988979
1.54568 -0.66597682 -0.25991803
1.5933753 -0.61807555 -0.28100157
2.9770575 -1.0307494 -0.54944438
1.537523 -0.73172897 -0.31137913
1.5796332 -0.68148881 -0.33141533
1.6115248 -0.6262486 -0.34999537
3.6060123 -1.249782 -0.81260371
1.5270102 -0.72852445 -0.37520799
1.5543723 -0.67142743 -0.39211756
1.5881681 -0.61736351 -0.41181755
1.5612507 -0.5404923 -0.41710997
1.4662516 -0.70123416 -0.4251788
1.4727519 -0.63748258 -0.43610466
1.468218 -0.57117814 -0.44481549
1.4389722 -0.49810424 -0.44701296
5.5374351 -2.6563034 1.8973817
5.8533645 -2.537102 1.8947991
6.1693392 -2.4002404 1.8960748
6.5238409 -2.2617607 1.9059147
6.4394712 -3.084034 1.9063182
6.8771591 -2.9829979 1.9191296
7.2613993 -2.8313932 1.916238
7.7238135 -2.6880538 1.9263127
7.6746254 -3.6754177 1.9324898
8.232378 -3.5694642 1.9436187
8.5406399 -3.3339784 1.8944945
8.4410448 -2.9444394 1.7576565
8.6859331 -4.1573157 1.8143055
8.5799761 -3.7228477 1.6656574
8.527709 -3.3339057 1.5409375
8.4467297 -2.9500611 1.4196384
8.6739759 -4.1525226 1.4471822
8.6256275 -3.7478449 1.3210704
8.5515985 -3.348408 1.2012403
7.9675717 -2.7906723 1.0237066
8.1767683 -3.9162471 1.025113
8.0583239 -3.5015178 0.90811986
8.0134544 -3.1414065 0.80755764
7.9330912 -2.7829485 0.71009856
8.1828365 -3.9207339 0.6921255
8.0886393 -3.5177119 0.58755469
8.0170736 -3.1450858 0.49278972
7.9674525 -2.7979703 0.40148044
8.1971817 -3.9307745 0.35893115
8.0975494 -3.5262935 0.26428902
8.0268965 -3.1536279 0.17733788
7.9757476 -2.8046365 0.092227921
8.1912651 -3.9293437 0.02584576
8.112525 -3.5363531 -0.060394034
8.0318699 -3.1593041 -0.13889959
7.9678574 -2.8051441 -0.21662487
0 -0 -0
1.5429319 -0.67325675 -0.072881669
1.5496981 -0.61066103 -0.08805225
1.5833343 -0.5578596 -0.10473469
1.4813509 -0.71276683 -0.11604898
1.5381805 -0.67214239 -0.13446906
1.5641038 -0.61662149 -0.1506698
1.5634654 -0.55138069 -0.16465656
1.4897518 -0.71732146 -0.17792925
1.5150509 -0.6628229 -0.19367956
1.553166 -0.61277932 -0.21134382
1.5986167 -0.56421655 -0.23152885
1.5045664 -0.72597563 -0.24204062
1.5234605 -0.66751593 -0.25686556
1.5978127 -0.63110316 -0.2824617
3.0254831 -1.06835 -0.5595811
1.5303473 -0.73986477 -0.31083947
1.5781196 -0.69235194 -0.33198282
1.6131201 -0.63828868 -0.35118586
3.5567787 -1.2572165 -0.80323231
1.5198758 -0.73660296 -0.37455848
1.5528991 -0.68212765 -0.3927944
1.5816388 -0.62602353 -0.41111279
1.5505908 -0.54747933 -0.41515172
1.4627916 -0.71064049 -0.42543188
1.4732288 -0.64845103 -0.43741587
1.4655805 -0.58053064 -0.44508722
1.4322696 -0.50564653 -0.44588625
5.502995 -2.6814415 1.891183
5.8297925 -2.5694902 1.8922367
6.151814 -2.4369874 1.8952488
6.5125666 -2.3027117 1.9067129
6.43259 -3.129405 1.9099296
6.8578401 -3.0247483 1.9188815
7.2411823 -2.8748205 1.9155219
7.7117615 -2.7370236 1.9274591
7.6536827 -3.7232921 1.9329327
8.1924353 -3.6120243 1.9393845
8.5373135 -3.3931925 1.8983394
8.441309 -3.0027544 1.7615149
8.684123 -4.2221346 1.8193046
8.6110163 -3.7992682 1.6761774
8.5400753 -3.3992965 1.546912
8.4535913 -3.0107806 1.4238696
8.6990223 -4.2303171 1.4556645
8.6233025 -3.8099046 1.3242698
8.5797081 -3.4202774 1.2081141
7.9774098 -2.8491907 1.0271975
8.1767092 -3.9780822 1.0281465
8.08218 -3.5709972 0.91326034
8.0282421 -3.2041721 0.81101394
7.9365072 -2.8389561 0.71195018
8.1792459 -3.9809053 0.69387478
8.0997543 -3.581804 0.58994746
8.0439835 -3.2127335 0.49564615
7.9933925 -2.8622949 0.40366495
8.1989603 -3.9936869 0.36007527
8.1059208 -3.589268 0.26527607
8.0426702 -3.2169302 0.17811911
7.9753308 -2.859597 0.092424266
8.2146454 -4.0027461 0.025996542
8.1327276 -3.6047037 -0.060707949
8.042964 -3.2207935 -0.1394306
8.0003624 -2.8718817 -0.21798357
2.3596067 -1.1512936 -0.08893162
1.5405983 -0.68352163 -0.072968177
1.560751 -0.6261071 -0.088896878
1.5817602 -0.56823915 -0.10485923
1.4841192 -0.72534692 -0.11661233
1.5303835 -0.67994887 -0.13414966
1.5427283 -0.61915851 -0.14897387
1.5637983 -0.56231034 -0.16505189
1.4781771 -0.72295421 -0.17707331
1.5254751 -0.67856526 -0.19554074
1.5410913 -0.61896998 -0.21021365
1.5988537 -0.57535678 -0.23207012
1.4840873 -0.72735405 -0.23945962
1.5364883 -0.68449235 -0.25976542
1.5865861 -0.6379503 -0.28116378
3.0114555 -1.0842241 -0.55820662
1.5072365 -0.74013555 -0.30706191
1.5702546 -0.70042199 -0.33122617
1.607355 -0.64744216 -0.35078904
3.5572789 -1.2820013 -0.80510658
1.5135756 -0.74505252 -0.37412545
1.5424577 -0.68886238 -0.39121512
1.581374 -0.63716954 -0.41205245
1.5499392 -0.5579685 -0.41588604
1.4566685 -0.71874648 -0.42492571
1.4639372 -0.65511334 -0.43584239
1.4610982 -0.58915246 -0.44481549
1.4309456 -0.51507515 -0.44644961
5.4872947 -2.7155807 1.8914782
5.8051686 -2.6012928 1.8893895
6.1010823 -2.4603071 1.8842348
6.4475327 -2.3243217 1.8918126
6.4245276 -3.1743796 1.9132831
6.8479905 -3.0707338 1.9213617
7.234211 -2.9235637 1.9183869
7.6746855 -2.7770042 1.9224151
7.6359382 -3.7727759 1.9342613
8.17101 -3.6626239 1.9395963
8.549015 -3.458735 1.9056244
8.4679251 -3.0708842 1.7709677
8.7082777 -4.3001409 1.8298582
8.6450319 -3.8778207 1.6873988
8.5455618 -3.4623725 1.5517249
8.4739485 -3.076751 1.4304514
8.7039337 -4.2989407 1.4608728
8.6205397 -3.8720767 1.3274692
8.5631542 -3.4747212 1.2087626
7.9616437 -2.8987651 1.0274384
8.1895628 -4.0466671 1.0328654
8.105485 -3.6409004 0.91840088
8.0545511 -3.2721086 0.81568462
7.9891496 -2.9132025 0.71826255
8.1850567 -4.0460405 0.69646078
8.1112967 -3.6465735 0.59240669
8.0509405 -3.2729335 0.49730289
7.991631 -2.9171102 0.40447229
8.2056475 -4.0594273 0.36145607
8.1265831 -3.6582212 0.26668188
8.0663013 -3.2839367 0.17908536
8.0008364 -2.9242687 0.092926033
8.2257805 -4.0708165 0.026110336
8.146924 -3.6709695 -0.060980916
8.0702724 -3.2893307 -0.14025126
7.9966722 -2.9260697 -0.21836813
8.2189674 -4.072804 -0.31070209
1.537286 -0.69337249 -0.073011428
1.5550308 -0.6349169 -0.088791296
1.5819925 -0.57930666 -0.1051083
1.4715991 -0.73044807 -0.11597856
1.50438 -0.67947888 -0.13223323
1.5647175 -0.63915879 -0.15147313
1.5696619 -0.57531959 -0.16604023
1.4612468 -0.72581828 -0.17557541
1.5140429 -0.6846388 -0.19461015
1.5280812 -0.62466031 -0.20895788
1.5794799 -0.57935596 -0.22976972
1.4751666 -0.73424166 -0.23874266
1.5322593 -0.6939072 -0.25976542
1.587208 -0.64954203 -0.281975
2.9816258 -1.0941969 -0.55391145
1.5009061 -0.74849176 -0.30670214
1.5623502 -0.70842165 -0.33046952
1.6006315 -0.65617722 -0.3501938
3.5851514 -1.3169569 -0.81322849
1.5081023 -0.75388908 -0.37390894
1.5506209 -0.70395178 -0.39437369
1.5666428 -0.64243519 -0.40923342
1.5628705 -0.57348025 -0.42029214
1.4487711 -0.72593731 -0.42391339
1.4607683 -0.66448313 -0.43610466
1.4663589 -0.60176015 -0.44753274
1.433163 -0.5258286 -0.44813964
5.4824805 -2.7552054 1.8956106
5.7742677 -2.6301088 1.8845494
6.0912075 -2.4998863 1.8858869
6.4385781 -2.365834 1.893409
6.4057927 -3.2141733 1.9135411
6.8025751 -3.1006408 1.9139212
7.2026644 -2.9623561 1.9148055
7.6456299 -2.8196647 1.9194348
7.611774 -3.8191209 1.9340401
8.1554976 -3.7159331 1.9412898
8.5484591 -3.519701 1.9102786
8.4811354 -3.1346908 1.7777197
8.7133532 -4.3693514 1.8365238
8.6461573 -3.9422288 1.6923081
8.5569773 -3.5282748 1.5576994
8.4882555 -3.1410275 1.436093
8.7295427 -4.3784232 1.4696527
8.6371555 -3.9434063 1.3337289
8.5600023 -3.5347672 1.2113565
7.9706974 -2.9575772 1.0309293
8.2054319 -4.1173406 1.0380336
8.1182804 -3.7066784 0.92241043
8.0757265 -3.3385859 0.81988817
7.9982119 -2.9722342 0.72070336
8.2188911 -4.1257105 0.70148057
8.1386824 -3.7190838 0.5960623
8.0620718 -3.3352475 0.49924523
7.9997945 -2.975842 0.40580201
8.223443 -4.1312304 0.36334974
8.1539755 -3.73089 0.26832694
8.0644722 -3.3410218 0.17949653
8.0099173 -2.9834275 0.09324237
8.2319202 -4.1369286 0.026209906
8.1433382 -3.7296331 -0.061124224
8.0804157 -3.3514283 -0.14078228
8.0310211 -2.9946404 -0.21980374
0 -0 -0
1.5221045 -0.69779593 -0.072492391
1.5630941 -0.64942729 -0.089477554
1.5737327 -0.58725804 -0.10479696
1.4483833 -0.73003536 -0.11449979
1.5146769 -0.69535083 -0.13351084
1.5497297 -0.64416021 -0.15040202
1.5549158 -0.58076191 -0.16485423
1.439899 -0.72626328 -0.17354254
1.5071062 -0.6926716 -0.19426116
1.5242196 -0.63402468 -0.20895788
1.5749671 -0.58868968 -0.22963439
1.4538516 -0.73479736 -0.23601827
1.5252796 -0.70205629 -0.25930756
1.579549 -0.65775144 -0.28132603
1.623068 -0.60695934 -0.30221158
1.5076938 -0.76346415 -0.30904064
1.553515 -0.71593982 -0.32952371
1.6001934 -0.66749543 -0.35098743
1.6103384 -0.60277575 -0.36610901
1.5008365 -0.76180279 -0.37325943
1.5330034 -0.70733064 -0.39098948
1.5626713 -0.65203583 -0.40923342
1.5484242 -0.57898408 -0.41735473
1.4442896 -0.73481315 -0.42391339
1.4584155 -0.67424363 -0.43662915
1.4670793 -0.61260033 -0.44889137
1.4370997 -0.53730065 -0.45039302
5.4731312 -2.7927015 1.8982671
5.7762895 -2.6739461 1.8905284
6.1005921 -2.5475867 1.8935966
6.4284544 -2.406986 1.8947394
6.3868108 -3.2538567 1.913799
6.7843008 -3.1427295 1.9141693
7.1834559 -3.0061202 1.9145666
7.6409411 -2.8713179 1.9226445
7.5890656 -3.8661964 1.9342613
8.1325436 -3.7659042 1.9412898
8.563735 -3.5876017 1.9185754
8.4874525 -3.1963537 1.7831213
8.7397985 -4.4499321 1.847818
8.6396713 -4.0034852 1.6958147
8.5824537 -3.6005507 1.5663294
8.4956236 -3.203156 1.4406377
8.726305 -4.4440207 1.4736706
8.6361523 -4.0071654 1.3373456
8.5930014 -3.6102684 1.2191383
8.0099726 -3.0281944 1.0383929
8.2295952 -4.1928716 1.0443254
8.1576424 -3.7853105 0.92950433
8.0761976 -3.3969529 0.82203668
7.9984612 -3.0283108 0.7223866
8.2387285 -4.1991549 0.70535952
8.1573381 -3.7882843 0.59911972
8.0801029 -3.4009194 0.50164461
8.0028687 -3.0330138 0.4068943
8.2442255 -4.2052202 0.36540121
8.1535883 -3.7913878 0.26907471
8.0963345 -3.4125762 0.18066837
8.0092239 -3.0392599 0.093449622
8.2339945 -4.2014503 0.026298098
8.1538439 -3.7951422 -0.061376717
8.0808878 -3.4098861 -0.14115237
8.0283823 -3.0498967 -0.22023956
0 -0 -0
1.4969653 -0.69741827 -0.071497567
1.5480422 -0.65434051 -0.088844083
1.5589049 -0.59264725 -0.10404974
1.4332207 -0.7334556 -0.11365477
1.5139953 -0.70631737 -0.13383025
1.5347397 -0.6490019 -0.14933091
1.5485328 -0.58923006 -0.16455773
1.4548848 -0.74505496 -0.17589638
1.5019277 -0.70148563 -0.19414485
1.5084232 -0.63833892 -0.2073254
1.5750293 -0.59975278 -0.23017567
1.4598817 -0.74912614 -0.23773895
1.5236287 -0.71265811 -0.25976542
1.5836606 -0.67089516 -0.28278619
1.6147103 -0.61515331 -0.30135256
1.4863589 -0.76415527 -0.30562285
1.5419787 -0.7221269 -0.32801038
1.5906543 -0.67500424 -0.34979698
1.602954 -0.61125124 -0.36527598
1.4865878 -0.76607805 -0.37087783
1.5321629 -0.71837801 -0.39189196
1.5568516 -0.66085231 -0.40876359
1.5647761 -0.59606737 -0.42273998
1.4406133 -0.74410528 -0.42416647
1.4507574 -0.68153834 -0.43558019
1.4491204 -0.61557037 -0.44454375
1.4346725 -0.5464499 -0.45067465
5.4389248 -2.8174422 1.8923637
5.7502317 -2.70485 1.8873965
6.0786524 -2.58234 1.8916693
6.4000549 -2.4412317 1.8907483
6.3624349 -3.290765 1.9125093
6.772778 -3.1880112 1.9164014
7.1764913 -3.0550852 1.9176706
7.628633 -2.9202356 1.9240201
7.5617356 -3.9108975 1.9333756
8.099556 -3.8111565 1.9389611
8.5766964 -3.6550536 1.9264674
8.4795904 -3.2529404 1.7856294
8.7428837 -4.5192685 1.8542984
8.6496811 -4.0727782 1.7026526
8.5937576 -3.6674652 1.5724698
8.5089998 -3.2679713 1.4462792
8.7357655 -4.5165548 1.4799206
8.6830597 -4.0938654 1.3484739
8.5980406 -3.6746161 1.2230291
7.997726 -3.0797827 1.0392355
8.2319565 -4.2578974 1.0479208
8.1603546 -3.8475959 0.93248582
8.0707636 -3.4531016 0.82362473
8.0039024 -3.0866532 0.72457486
8.2322903 -4.2597089 0.7070328
8.1682291 -3.8544459 0.60164535
8.0801926 -3.4594719 0.5029586
7.9962211 -3.0867376 0.40751165
8.2439995 -4.2690516 0.36654532
8.1636095 -3.8571448 0.27018139
8.1037283 -3.4744031 0.18130568
8.0277319 -3.102766 0.093885951
8.2426891 -4.2698326 0.026409047
8.1539078 -3.8562171 -0.061554145
8.1149416 -3.4830678 -0.14211786
8.0421476 -3.1117263 -0.22113682
0 -0 -0
1.5107179 -0.71513957 -0.072362632
1.5311543 -0.65830475 -0.08810503
1.5766457 -0.61049014 -0.10548191
1.4419712 -0.74913394 -0.11471104
1.4844123 -0.70363873 -0.13159442
1.5197492 -0.65368414 -0.1482598
1.5495275 -0.60051852 -0.16505189
1.4414642 -0.74938178 -0.17482646
1.4814438 -0.70302337 -0.19205101
1.5117681 -0.6507203 -0.20833001
1.5648533 -0.60689783 -0.22922845
1.4236598 -0.74160981 -0.23257695
1.5111938 -0.71817571 -0.2583918
1.5686398 -0.67591399 -0.28083929
1.6109054 -0.62504941 -0.30135256
1.4833863 -0.77417129 -0.30598262
1.5384055 -0.73199666 -0.32819957
1.589182 -0.68591678 -0.35039219
1.6046437 -0.62319988 -0.3665255
1.4991605 -0.78423578 -0.37520799
1.5198104 -0.72399479 -0.3898614
1.5581217 -0.67270422 -0.41017309
1.5529537 -0.60250109 -0.42053691
1.442018 -0.75607538 -0.42593804
1.4456773 -0.6900115 -0.43531793
1.4674023 -0.63399279 -0.45133692
1.4384489 -0.5580188 -0.45292804
5.4333744 -2.856987 1.8964961
5.7456355 -2.7458687 1.8913825
6.0759301 -2.625309 1.8957995
6.3957376 -2.4846447 1.8939413
6.3575206 -3.337826 1.9171525
6.7391062 -3.222821 1.9124331
7.1576104 -3.099062 1.9176706
7.6232672 -2.9719386 1.9272298
7.5436406 -3.9603949 1.9349258
8.0663195 -3.8561461 1.9366325
8.6026287 -3.7286408 1.9373949
8.5216188 -3.3291888 1.7987477
8.7611103 -4.5970287 1.8641114
8.6822557 -4.1533904 1.7140491
8.6027536 -3.7338684 1.5782784
8.5384569 -3.3395464 1.4547415
8.749917 -4.5921288 1.4870634
8.6836767 -4.1594729 1.3525079
8.6026125 -3.7391613 1.22692
8.0101013 -3.1411204 1.0433284
8.2382278 -4.3254185 1.0520778
8.1760645 -3.9165022 0.93700945
8.0622053 -3.5081193 0.82493252
8.0219116 -3.1502757 0.72794145
8.2501364 -4.333324 0.7108357
8.192112 -3.9273539 0.6051681
8.0835285 -3.519747 0.50450104
8.0440645 -3.1620545 0.41093096
8.2618742 -4.3428016 0.36851791
8.1893511 -3.9309533 0.27182648
8.1070023 -3.5348506 0.18186077
8.0308743 -3.160754 0.094147742
8.2676706 -4.347322 0.026574053
8.1832714 -3.9317265 -0.061956774
8.1034975 -3.5371943 -0.14229485
8.0526657 -3.1727397 -0.22195716
0 -0 -0
1.4891945 -0.71616882 -0.071540818
1.5234263 -0.66608715 -0.087893881
1.5561572 -0.61356324 -0.10436109
1.428524 -0.75331467 -0.11400685
1.4845574 -0.71489608 -0.13199368
1.5184472 -0.66419423 -0.14852758
1.5467393 -0.61038023 -0.16515073
1.4236488 -0.751252 -0.17322156
1.4824703 -0.71468806 -0.19274895
1.5168352 -0.6639623 -0.20958576
1.5592568 -0.61576033 -0.2289578
1.4392052 -0.76097101 -0.23587489
1.4934088 -0.72098964 -0.25610244
1.5635592 -0.68513024 -0.28067708
1.6042912 -0.63383597 -0.30083713
1.4768696 -0.78233767 -0.30562285
1.5312328 -0.74014032 -0.32763207
1.5831485 -0.69486707 -0.34999537
1.5916942 -0.62943727 -0.36444297
1.4822485 -0.78701007 -0.37217689
1.5118318 -0.73160911 -0.38895896
1.5441747 -0.67795378 -0.40758896
1.5510311 -0.61273098 -0.42102647
1.4296653 -0.76081878 -0.42366028
1.4388112 -0.69760603 -0.43453121
1.4670088 -0.6445331 -0.45242381
1.4412448 -0.56930202 -0.45489976
5.4157419 -2.8902717 1.8964961
5.7450638 -2.789026 1.8967922
6.0605869 -2.6629274 1.8960748
6.3938169 -2.52916 1.8979324
6.3156047 -3.3654134 1.9107035
6.7392459 -3.2738466 1.9181374
7.1251287 -3.1370523 1.9140892
7.5940318 -3.014349 1.9244785
7.5493193 -4.0226574 1.942677
8.0521774 -3.9102635 1.9389611
8.6028881 -3.7916243 1.9426562
8.538413 -3.3962829 1.8066572
8.7691679 -4.6701002 1.8718878
8.697341 -4.2263794 1.7221146
8.6076488 -3.7989268 1.5834233
8.5590954 -3.4083169 1.4617934
8.773942 -4.673625 1.4959921
8.6864862 -4.226541 1.3569592
8.6284819 -3.8135207 1.2339237
8.0238676 -3.2034614 1.047662
8.2492399 -4.3959799 1.0569091
8.19034 -3.9853103 0.94143027
8.0951576 -3.5816929 0.83053732
8.0301886 -3.2105358 0.73046649
8.2647467 -4.4059105 0.71441042
8.191184 -3.988904 0.60689616
8.1165533 -3.5935311 0.50792879
8.0680971 -3.2287953 0.41316298
8.2624016 -4.4079943 0.36974093
8.182147 -3.9894514 0.27239478
8.1006985 -3.5914164 0.18221027
8.0642366 -3.2311699 0.094769508
8.2646599 -4.4106817 0.026650863
8.1958389 -3.999846 -0.062236566
8.1328192 -3.6095641 -0.14319596
8.0710869 -3.2373486 -0.22300825
0 -0 -0
1.4991351 -0.73230898 -0.072232872
1.5129231 -0.67258257 -0.087524354
1.5532893 -0.6234718 -0.10442334
1.3922136 -0.74512047 -0.11147181
1.4819337 -0.72486764 -0.13215338
1.5134331 -0.67309403 -0.14843832
1.5420415 -0.61948842 -0.16505189
1.4093711 -0.75480968 -0.17204463
1.464677 -0.71721894 -0.1910041
1.4982308 -0.6668027 -0.20757656
1.551772 -0.62383783 -0.22841655
1.4414852 -0.77353114 -0.23702201
1.4862947 -0.72883403 -0.25564459
1.5611286 -0.69551432 -0.28100157
1.6031138 -0.64477062 -0.30135256
1.4833049 -0.79744017 -0.30796134
1.5240182 -0.7482236 -0.32706457
1.5734849 -0.70217156 -0.34880495
1.5896167 -0.63992238 -0.36485949
1.4765322 -0.79562706 -0.37196037
1.5046914 -0.73958254 -0.38828212
1.5390981 -0.68701965 -0.40735403
1.5445437 -0.62115115 -0.42029214
1.4241189 -0.76911706 -0.42340723
1.4319065 -0.70514226 -0.43374449
1.4586331 -0.65155983 -0.45106518
1.4332734 -0.57634473 -0.45349142
5.3794227 -2.9134376 1.8900023
5.7261233 -2.8233767 1.8962228
6.0467672 -2.7012408 1.8969009
6.3746014 -2.5669038 1.896868
6.2880368 -3.4004252 1.9086398
6.7042623 -3.3078494 1.9139212
7.102201 -3.1791253 1.9131342
7.5564413 -3.0532305 1.9196639
7.5167747 -4.0647287 1.9406838
8.0341682 -3.9626234 1.940443
8.5910797 -3.8495455 1.945287
8.5556116 -3.4640758 1.8147596
8.768877 -4.7392378 1.8779978
8.7074413 -4.2975307 1.7293032
8.6156664 -3.8658001 1.5892317
8.5636511 -3.4711587 1.4661815
8.8016424 -4.7579389 1.5056647
8.7065544 -4.3025742 1.3641926
8.6447163 -3.8842733 1.2396302
8.0307322 -3.263473 1.0511531
8.2500801 -4.4616394 1.0605043
8.1978359 -4.0513558 0.94513148
8.1229677 -3.6537595 0.835675
8.033412 -3.2691371 0.73257059
8.2726364 -4.4755173 0.7174527
8.1826525 -4.0470514 0.60809255
8.1380491 -3.6629343 0.5106709
8.0758858 -3.2895436 0.41458768
8.2835274 -4.4847736 0.37191075
8.1960316 -4.0586548 0.27368093
8.11588 -3.657897 0.18305315
8.079443 -3.2949393 0.095184013
8.27701 -4.4827399 0.026778882
8.2195234 -4.0740399 -0.062605076
8.1314812 -3.6688564 -0.14356607
8.0806875 -3.2989016 -0.2238286
0 -0 -0
1.4901386 -0.73927367 -0.072016604
1.5078578 -0.68144178 -0.087471567
1.5512825 -0.63374585 -0.10454789
1.392875 -0.75650549 -0.11189432
1.4694235 -0.72995573 -0.13143471
1.5047368 -0.68031597 -0.14799203
1.5391326 -0.62931514 -0.16515073
1.4125755 -0.76771623 -0.17300758
1.461138 -0.7266348 -0.19112043
1.4995344 -0.67843676 -0.20833001
1.544247 -0.63184679 -0.22787528
1.4297585 -0.77857494 -0.23587489
1.4817947 -0.73794007 -0.25564459
1.5568316 -0.70508009 -0.28100157
1.5963923 -0.6534754 -0.30083713
1.4032558 -0.76554066 -0.29231143
1.5185198 -0.75712252 -0.32687539
1.5664691 -0.71059835 -0.34820971
1.5874704 -0.65040565 -0.36527598
1.4630566 -0.79998815 -0.36979529
1.5001249 -0.74880123 -0.38828212
1.5339684 -0.6960488 -0.4071191
1.5514711 -0.63502389 -0.42322955
1.4108889 -0.77319139 -0.42087638
1.428416 -0.71434665 -0.43400675
1.4344535 -0.65134609 -0.44481549
1.4394782 -0.58912605 -0.45658979
5.3915887 -2.9629557 1.9006284
5.6821194 -2.8451531 1.8873965
6.0300789 -2.7382922 1.8969009
6.3694344 -2.6103559 1.900061
6.2789121 -3.445451 1.9122514
6.6829734 -3.3484898 1.9136733
7.1073089 -3.2339046 1.9198194
7.5276628 -3.0954666 1.917142
7.4788685 -4.1037378 1.9373618
8.0035858 -4.0087819 1.9389611
8.5726442 -3.9046223 1.946501
8.5605049 -3.5273476 1.8203542
8.7947779 -4.8231959 1.8898475
8.7134733 -4.3671989 1.7357905
8.6267767 -3.9345515 1.5957043
8.569582 -3.5349376 1.4708828
8.8078299 -4.8313537 1.511766
8.718049 -4.3750148 1.3701742
8.6522875 -3.9516606 1.2441695
8.0472517 -3.327862 1.0559683
8.2809153 -4.5442057 1.068032
8.1959372 -4.1131806 0.94780451
8.1293716 -3.7167802 0.83866429
8.0178051 -3.3202741 0.7329914
8.2791071 -4.5449057 0.72041893
8.2165146 -4.1267395 0.61247927
8.1580906 -3.732321 0.51335591
8.0647774 -3.3428593 0.41506258
8.290884 -4.5547605 0.37348881
8.2147303 -4.1308718 0.27514654
8.1460018 -3.7317777 0.18424557
8.0858564 -3.3555665 0.095500343
8.3071899 -4.5652289 0.026966644
8.236352 -4.1455274 -0.062925808
8.1678915 -3.7457731 -0.144612
8.0962982 -3.3633785 -0.22482841
2.336174 -1.285441 -0.090319596
1.4695143 -0.74031222 -0.071238048
1.4927588 -0.68567908 -0.086838096
1.5667182 -0.65129781 -0.10585551
1.3820913 -0.76166749 -0.11140139
1.4711469 -0.74210083 -0.13199368
1.4923888 -0.6857931 -0.14718869
1.5435109 -0.64218754 -0.16604023
1.3886839 -0.76580632 -0.17065373
1.4504458 -0.73245245 -0.19030614
1.5043569 -0.69176978 -0.20958576
1.5385115 -0.64054853 -0.22760463
1.4058971 -0.77680343 -0.23272033
1.4657737 -0.74122053 -0.25366047
1.5417197 -0.70966816 -0.27905464
1.5987184 -0.66590989 -0.3020398
3.9012589 -2.1594832 -0.81541389
1.5147216 -0.76686931 -0.32706457
1.5638596 -0.72101742 -0.34860653
1.5879635 -0.66201574 -0.36631724
1.4666574 -0.81368643 -0.37196037
1.4911573 -0.75578952 -0.38715404
1.5279034 -0.70463383 -0.40664926
1.5368049 -0.64005828 -0.42029214
1.3985083 -0.77760267 -0.41859862
1.4291686 -0.72571933 -0.43558019
1.4461585 -0.66739416 -0.44970655
1.4402652 -0.59979182 -0.45799813
5.3891621 -3.0048227 1.9062368
5.667973 -2.8817022 1.8885354
6.0201464 -2.7784634 1.8991038
6.3568568 -2.6508729 1.9011253
6.2534323 -3.4815629 1.9109615
6.64676 -3.3815258 1.909209
7.0961466 -3.2815294 1.922207
7.510323 -3.1423485 1.9176005
7.4544001 -4.1500244 1.9375834
7.9849358 -4.0609169 1.940443
8.5458584 -3.9559152 1.9458939
8.5694666 -3.5927062 1.8269134
8.8010845 -4.8971372 1.8976239
8.7444229 -4.4500523 1.7473624
8.6507854 -4.0098047 1.6046661
8.5859795 -3.6035058 1.4774646
8.8194952 -4.9083891 1.518909
8.7280979 -4.4473081 1.3760165
8.6539602 -4.0167823 1.2479308
8.063282 -3.3925762 1.0607834
8.3162527 -4.6302166 1.0762339
8.2254934 -4.1913919 0.95417869
8.1425295 -3.7833724 0.84240079
8.0790071 -3.4038408 0.74048203
8.2954912 -4.6203642 0.72429794
8.2203722 -4.1920362 0.6146726
8.1685324 -3.7978818 0.51546973
8.0652819 -3.4012079 0.41615483
8.3038025 -4.6284122 0.37534305
8.2462044 -4.2102885 0.27706081
8.1637373 -3.8006785 0.18517068
8.1213083 -3.4288421 0.096165732
8.3148317 -4.6360812 0.027083285
8.2535009 -4.2178283 -0.063253365
8.1873493 -3.815671 -0.14536828
8.0902414 -3.4192197 -0.22523859
0 -0 -0
1.4560496 -0.74476552 -0.070805512
1.5020965 -0.70116138 -0.087629937
1.5535002 -0.65701109 -0.10523283
1.3669438 -0.76429182 -0.11055637
1.4488215 -0.74202573 -0.13039666
1.4962749 -0.69873023 -0.14799203
1.5340431 -0.64931893 -0.16544722
1.3900328 -0.77771097 -0.17140269
1.4538786 -0.74541676 -0.19135307
1.491096 -0.6967873 -0.20833001
1.5263413 -0.64649874 -0.22638677
1.3743427 -0.77041346 -0.22827528
1.4620774 -0.75065184 -0.25381309
1.5328673 -0.71702415 -0.27824345
1.5909741 -0.67416942 -0.30135256
3.8278966 -2.1496639 -0.80282211
1.5152277 -0.77884245 -0.32819957
