# .PCD v0.7 - Point Cloud Data file format
VERSION 0.7
FIELDS x y z
SIZE 4 4 4
TYPE F F F
COUNT 1 1 1
WIDTH 1542
HEIGHT 1
VIEWPOINT 0 0 0 1 0 0 0
POINTS 1542
DATA ascii
-0.21139665 3.1677842 -0.25432539
-0.2477034 2.3945749 -0.21573988
-0.44986752 3.2026467 -0.32120878
-0.072044492 2.4119928 -0.25967184
-0.21201633 3.1980731 -0.37537774
-0.22166578 2.1483617 -0.27337819
-0.31134951 2.2204633 -0.30622429
-0.067903101 2.3375959 -0.33882821
-0.075455219 1.1478858 -0.17765389
-0.10886834 1.0591239 -0.17505811
-0.14320061 1.0224372 -0.18005559
-0.028001921 0.99017787 -0.18114315
-0.059214503 0.90735143 -0.17516588
-0.090657569 0.88728905 -0.18055317
-0.12331194 0.88245237 -0.1897186
-0.027034342 0.98957968 -0.2195389
-0.058717936 0.9060694 -0.21027248
-0.090506651 0.88673025 -0.21542309
-0.1187795 0.84785765 -0.21614324
-0 0 -0
-0 0 -0
-0.086552627 0.85019445 -0.24129272
-0.10545845 0.75257969 -0.22308397
-0 0 0
-0.15071833 2.371613 0.70581627
-0.24305461 2.3881381 0.68755436
-0.33781162 2.4191816 0.67424095
-0 0 0
-0.15156358 2.3948188 0.61432981
-0.26010254 2.5748246 0.63627893
-0.33540761 2.4229569 0.57615137
-0 0 0
-0.15528458 2.4481905 0.53136724
-0.244249 2.427206 0.50407881
-0.33368841 2.4233031 0.48093927
-0 0 0
-0.15304808 2.4229712 0.43236962
-0.24766035 2.4736733 0.41838488
-0.34084976 2.482363 0.39757398
-0.062052164 2.3882937 0.35952622
-0.15289703 2.4402106 0.34344772
-0.24310119 2.4410291 0.32086682
-0.33340627 2.4442954 0.29914287
-0.061883397 2.397917 0.27122125
-0.15384813 2.4560769 0.25435171
-0.24321423 2.4521461 0.23119782
-0.3276878 2.4111705 0.20553048
-0.061463688 2.3962486 0.18284281
-0.15510334 2.4886453 0.16609719
-0.23954734 2.4211988 0.13922194
-0.33439136 2.4666255 0.11834507
-0.060637385 2.3933668 0.094526164
-0.15095139 2.4412427 0.07319095
-0.2421868 2.4605873 0.050841246
-0.32768863 2.4248128 0.0266921
-0.062264219 2.4712059 0.0070325509
-0.15061107 2.4503186 -0.016753374
-0.23702453 2.4180965 -0.039101716
-0.32070374 2.379698 -0.061577864
-0.060122129 2.4368606 -0.082567275
-0.14945449 2.4461429 -0.10610013
-0.2371856 2.4350598 -0.12933333
-0.32186809 2.3927546 -0.15062617
-0.057628021 2.4003332 -0.1694963
-0.18978584 3.1332021 -0.25145075
-0.23358431 2.4019976 -0.21627544
-0.42954609 3.2004154 -0.32071459
-0.057125494 2.4074197 -0.25913689
-0.19215085 3.1953478 -0.37491241
-0 0 -0
-0.18023652 1.3453799 -0.18538547
-0.054079909 2.3607249 -0.34212613
-0.061886825 1.0388218 -0.16071269
-0.10151378 1.0509324 -0.17359796
-0.14019068 1.0477073 -0.1843508
-0.022230603 1.0040992 -0.18366151
-0.054341178 0.91946048 -0.17743583
-0.08689706 0.90539002 -0.18412456
-0.1159538 0.8686502 -0.1865948
-0 0 -0
-0 0 -0
-0.085898943 0.89597708 -0.21753739
-0.11473253 0.85721958 -0.21834628
-0 0 -0
-0 0 -0
-0 0 -0
-0 0 -0
-0 0 0
-0.13819583 2.4079037 0.71635079
-0.22976871 2.403939 0.6916846
-0.32538304 2.439363 0.67929643
-0 0 0
-0.13769522 2.4102113 0.61804998
-0.22825666 2.4071918 0.59449697
-0.32857001 2.4857626 0.5905953
-0.047198907 2.3955245 0.54413557
-0.13623646 2.3788443 0.51612484
-0.22797026 2.4140344 0.50104338
-0.32162645 2.4467077 0.48518342
-0 0 0
-0.13772987 2.4160013 0.43096697
-0.22869663 2.4348922 0.4115805
-0.32933387 2.5128067 0.40211859
-0.047435939 2.3906069 0.35982385
-0.13775373 2.4381366 0.34303039
-0.22636682 2.423717 0.31840262
-0.31814581 2.4443262 0.29890209
-0.0463873 2.3585124 0.26672712
-0.1389994 2.460947 0.25476295
-0.22641201 2.4347565 0.22942297
-0.30648062 2.3637266 0.20132224
-0.046973385 2.4075468 0.18367946
-0.13770412 2.451694 0.16357152
-0.22560862 2.432564 0.13979323
-0.31348518 2.4240527 0.11620802
-0.046008356 2.3966908 0.094644524
-0.13985896 2.5119836 0.07528469
-0.21973833 2.3823822 0.049196564
-0.3135711 2.4327283 0.026757549
-0.047290545 2.4815395 0.0070609995
-0.13678829 2.4731627 -0.016903507
-0.22291438 2.4274709 -0.039230451
-0.31234041 2.4302051 -0.062834032
-0.045205742 2.4391823 -0.082634978
-0.13630588 2.480931 -0.10757075
-0.21888362 2.3996737 -0.12738013
-0.30616444 2.3867648 -0.15012802
-0.043718603 2.4465201 -0.17273553
-0.17077395 3.138289 -0.25177014
-0 0 -0
-0.40547952 3.1684437 -0.31725541
-0.041618329 2.3659723 -0.25464317
-0.17173794 3.1815903 -0.37316757
-0 0 -0
-0.21076724 1.6501514 -0.22719869
-0.039875858 2.3778341 -0.34456375
-0.064262681 1.2030035 -0.18604821
-0.097462259 1.0780694 -0.17797846
-0.13251284 1.0387757 -0.18263271
-0.016147839 1.0091345 -0.18456092
-0 0 -0
-0.079849996 0.88931096 -0.18075159
-0.11136245 0.87516689 -0.18784432
-0 0 -0
-0 0 -0
-0.080660187 0.89939165 -0.21824215
-0 0 -0
-0 0 -0
-0 0 -0
-0 0 -0
-0.098280415 0.76999754 -0.22787237
-0 0 0
-0.124694 2.4335976 0.72375345
-0.21193267 2.3708327 0.68177187
-0.3063969 2.4097574 0.67051589
-0 0 0
-0.12127631 2.3790834 0.60986555
-0.21459667 2.4211218 0.59760076
-0.3144061 2.4964235 0.5926587
-0.03210254 2.3665168 0.53749168
-0.12268531 2.4001324 0.52057052
-0.21031283 2.3831954 0.49436551
-0.31587297 2.5226297 0.49984503
-0.033000313 2.3926711 0.45084539
-0.12295298 2.4177842 0.4311423
-0.21349356 2.4333026 0.41108266
-0.29898459 2.395215 0.3829999
-0.032400675 2.364156 0.35580593
-0.12234285 2.4300346 0.34177846
-0.21200779 2.4309871 0.31918079
-0.30424049 2.4550989 0.2999855
-0.031820763 2.3517978 0.26594064
-0.12314671 2.4468517 0.2532208
-0.21017683 2.4212215 0.22802179
-0.30027145 2.432811 0.20704544
-0.032120071 2.4018075 0.18322311
-0.12928703 2.5850329 0.17241141
-0.20973139 2.4229615 0.13916482
-0.30129021 2.4477413 0.1172528
-0.03154958 2.4159117 0.095394105
-0.12459142 2.5157895 0.075374417
-0.20777333 2.4145648 0.049833879
-0.29705557 2.4217038 0.026615744
-0.032089055 2.4837828 0.0070666894
-0.12126699 2.4669638 -0.016855735
-0.20810083 2.4297891 -0.039246541
-0.29002085 2.3715467 -0.06127023
-0.03012686 2.4304194 -0.082330301
-0.11962004 2.4517844 -0.10627314
-0.20601672 2.4228621 -0.1285415
-0.29719657 2.4351618 -0.15305462
-0.02853068 2.4317806 -0.17167926
-0.14733385 3.0526564 -0.24482311
-0.20729129 2.4423962 -0.2196673
-0.29319093 2.4082825 -0.24095599
-0.027191304 2.3741367 -0.25549912
-0.15173836 3.1726635 -0.37200433
-0.18944423 2.2390704 -0.28442886
-0.19239272 1.5835472 -0.21786176
-0.025327079 2.3819926 -0.3451373
-0.056366704 1.1925162 -0.18436934
-0.090514272 1.0747142 -0.1773295
-0.12767912 1.0522826 -0.18486622
-0 0 -0
-0 0 -0
-0.074391782 0.88978416 -0.18075159
-0.10998563 0.90884733 -0.19492492
-0 0 -0
-0.04148905 0.89531863 -0.2075651
-0.074897461 0.89696378 -0.21753739
-0.1053727 0.86818814 -0.22079413
-0 0 -0
-0 0 -0
-0 0 -0
-0 0 -0
-0.016207777 2.389509 0.73823142
-0.10747093 2.3835618 0.7086634
-0.19778013 2.3768787 0.68314868
-0.29253086 2.4192479 0.6726445
-0 0 0
-0.10789095 2.4068809 0.61680996
-0.19750254 2.3952949 0.59091568
-0.30810696 2.5736897 0.61054164
-0.017755119 2.3900728 0.54280686
-0.10883411 2.420367 0.52480453
-0.19384354 2.3619924 0.48971123
-0.29088175 2.4446244 0.48402593
-0.018386245 2.4016726 0.45251173
-0.10776368 2.410625 0.42973965
-0.19879954 2.4375153 0.4115805
-0.27811733 2.3450236 0.37469426
-0.01807349 2.3880424 0.35937741
-0.10804228 2.4445903 0.34372592
-0.19500534 2.4065461 0.31580871
-0.2883583 2.4500182 0.29914287
-0.017683676 2.3916943 0.2704348
-0.10769177 2.437624 0.25219268
-0.19795704 2.455215 0.23110442
-0.28232259 2.4088759 0.20485716
-0.017317314 2.3929856 0.18253858
-0.10651456 2.4282784 0.16190988
-0.1971802 2.4530623 0.14082155
-0.28835249 2.4674022 0.11810762
-0.016718311 2.4150605 0.095354646
-0.1059472 2.4426091 0.073161043
-0.19430718 2.4327369 0.050183378
-0.28311592 2.431427 0.026703009
-0.016888939 2.4899325 0.0070837582
-0.10522541 2.4466815 -0.016712429
-0.19247513 2.4220498 -0.039101716
-0.2788063 2.4020789 -0.062013675
-0.015157219 2.4215639 -0.082025625
-0.1039355 2.4374998 -0.10562436
-0.19051844 2.4161162 -0.12811919
-0.2775411 2.3962908 -0.15050162
-0.013357826 2.3870223 -0.16851045
-0.10674749 2.5346265 -0.20322074
-0.18612811 2.3651798 -0.21261582
-0.27783746 2.4050934 -0.24046183
-0.012760803 2.4001093 -0.25828093
-0.10542593 2.5294995 -0.29651001
-0 0 -0
-0.18142456 1.5738708 -0.21637325
-0.010613074 2.3603308 -0.34198275
-0.045110006 1.097057 -0.16956486
-0.082152352 1.0526228 -0.17359796
-0.12493775 1.0853423 -0.19053592
-0 0 -0
-0 0 -0
-0.069687419 0.8999958 -0.1827357
-0.10429543 0.90853345 -0.19471668
-0 0 -0
-0 0 -0
-0.067818686 0.87705487 -0.21260403
-0.10314918 0.89578831 -0.22764805
-0 0 -0
-0 0 -0
-0 0 -0
-0.089592524 0.77781808 -0.22984409
-0.0015444835 2.3876526 0.73764104
-0 0 0
-0.18769626 2.4365163 0.69994515
-0.27801067 2.4238701 0.67344272
-0.0030603465 2.3999293 0.64077061
-0.092072167 2.3803926 0.60986555
-0.18420491 2.4148586 0.59545201
-0.26135501 2.3027942 0.54588795
-0.0031047009 2.4018385 0.54546434
-0.093109019 2.3985276 0.51993543
-0.1823855 2.4031742 0.49800801
-0.27664605 2.4531884 0.48537633
-0.0036584721 2.4076364 0.45362264
-0.092097908 2.3886139 0.42570701
-0.1828758 2.4259057 0.40942302
-0.2762973 2.4585733 0.39255926
-0.0034373922 2.3999748 0.36116311
-0.090593085 2.3808856 0.33468416
-0.18141969 2.4235179 0.31788385
-0.27013019 2.4231293 0.29565185
-0.0030206796 2.4016945 0.27155831
-0.0910694 2.3945038 0.24766906
-0.1811142 2.4325542 0.22886248
-0.26984495 2.431361 0.20662463
-0.0026119547 2.3731048 0.18101743
-0.091161616 2.4169214 0.16111228
-0.18271583 2.4621911 0.14127856
-0.27024129 2.4423189 0.11682539
-0.0018916051 2.4051254 0.094960131
-0.090585776 2.4332247 0.07286194
-0.17886211 2.4269035 0.050039463
-0.26545274 2.4082704 0.026430307
-0.0015925694 2.4619896 0.0070041018
-0.090616062 2.4582732 -0.016787494
-0.17746392 2.4211907 -0.039069537
-0.26417133 2.4047379 -0.062039312
-0.00029886677 2.4246097 -0.082127184
-0.088940896 2.4370935 -0.1055811
-0.1774272 2.4411433 -0.12938613
-0.26391995 2.4078698 -0.15112431
0.0012905356 2.3900518 -0.16872171
-0.088505886 2.4605215 -0.19723192
-0.230113 3.1729176 -0.28509441
-0.26448053 2.4196126 -0.24174666
0.0019613435 2.394177 -0.25763899
-0.086834744 2.4437442 -0.28638983
-0.22973746 3.1792765 -0.40347457
-0.13137425 1.2046086 -0.16549374
0.0039753108 2.4246795 -0.35130301
-0.084942274 2.4287064 -0.37530151
-0.073499084 1.0225965 -0.16856848
-0.11507633 1.0567081 -0.18538164
0 0 -0
-0 0 -0
-0.064163834 0.90040648 -0.1827357
-0.097346254 0.89651561 -0.19200939
0 0 -0
-0 0 -0
-0 0 -0
-0.096390769 0.88483787 -0.22471064
0 0 -0
-0 0 -0
-0.059887912 0.8447696 -0.2391189
-0 0 -0
0.012974796 2.3637314 0.73026174
-0.077647246 2.3674557 0.70353854
-0.17831489 2.5162549 0.72252399
-0.27207375 2.5079467 0.69632536
0.011609046 2.388309 0.63767505
-0.078441195 2.410928 0.61755395
-0.16809373 2.3975382 0.59091568
-0.25708434 2.3962965 0.56766844
0.011467457 2.367682 0.53771317
-0.077719904 2.3785408 0.51548976
-0.16750023 2.4022939 0.4976033
-0.25566205 2.3992252 0.47438014
0.011073749 2.3987694 0.4519563
-0.077790752 2.3999579 0.42763564
-0.16880442 2.4387875 0.41141453
-0.26026812 2.4513831 0.39114887
0.011204918 2.3821514 0.35848454
-0.076866783 2.4091101 0.33857906
-0.1672933 2.4354668 0.31931049
-0.2510998 2.3852503 0.29083666
0.011609258 2.3798075 0.26908657
-0.07513883 2.3562438 0.24365947
-0.16950862 2.4822922 0.23343974
-0.25886714 2.4706297 0.20982288
0.012114874 2.4059801 0.18352734
-0.076203994 2.4134459 0.16084643
-0.16828242 2.4732263 0.14184985
-0.25410905 2.4330029 0.116303
0.012823242 2.3970983 0.094644524
-0.074877664 2.4087577 0.07211417
-0.16363072 2.4229679 0.049936671
-0.25211924 2.4237778 0.02658302
0.013360253 2.4339535 0.0069244448
-0.074763097 2.4337955 -0.01661689
-0.16293927 2.4272223 -0.039149992
-0.25044179 2.4162571 -0.062295672
0.014542208 2.4185693 -0.081924066
-0.073773324 2.4306028 -0.10527832
-0.16218017 2.4382002 -0.12917496
-0.24965383 2.4144077 -0.15143566
0.016022187 2.3999739 -0.16942587
-0.07251516 2.4311275 -0.19483639
-0.21242063 3.201103 -0.2875044
-0.24952702 2.4202001 -0.24164782
0.016872983 2.4259353 -0.26106277
-0.070058659 2.383671 -0.27929404
-0.21101063 3.1925054 -0.40498149
-0.11769525 1.1442846 -0.15710403
0.018745059 2.4107547 -0.34929559
-0.06963966 2.4153519 -0.37316477
-0.07285206 1.1086909 -0.18268345
-0.10677882 1.0397549 -0.18228909
0.018614691 2.1787891 -0.39844295
-0 0 -0
-0.059656519 0.91643196 -0.18591025
-0.092540793 0.90390688 -0.19346716
0 0 -0
-0 0 -0
-0 0 -0
-0.091554202 0.89119965 -0.22617935
0 0 -0
-0 0 -0
-0 0 -0
-0.082689166 0.80463004 -0.23744923
0.027478134 2.3636074 0.73026174
-0.062582925 2.3477638 0.69755942
-0.15995479 2.472213 0.70958251
-0.24530266 2.3983309 0.66546041
0.026390709 2.3997862 0.64077061
-0.062700793 2.3755326 0.60837746
-0.15238799 2.3830187 0.58709562
-0.24805373 2.4539976 0.580966
0.025984356 2.3665917 0.53749168
-0.063772082 2.4033973 0.52078223
-0.15648417 2.4619167 0.50974488
-0.24348339 2.4261329 0.47939596
0.025697015 2.3898125 0.45028993
-0.06215845 2.3659439 0.42149901
-0.15321656 2.4299357 0.40975493
-0.24148847 2.4155898 0.38519388
0.025757 2.3761048 0.35759166
-0.061037544 2.3689487 0.33287582
-0.15197513 2.4305096 0.31853229
-0.24252753 2.4479957 0.29830021
0.026222207 2.3806851 0.26919889
-0.061191838 2.3765478 0.24571566
-0.151805 2.443537 0.2297032
-0.24204093 2.4553137 0.20839208
0.026922015 2.4098487 0.18383156
-0.061241716 2.4078834 0.16044763
-0.15273386 2.4682338 0.14150709
-0.24073824 2.4504218 0.11706284
0.027485413 2.3929777 0.094486721
-0.059896991 2.4011781 0.071874894
-0.15378256 2.5057549 0.051622473
-0.23714513 2.424284 0.026572112
0.028224712 2.4278264 0.006907376
-0.059631635 2.4262109 -0.016562296
-0.14901662 2.4441445 -0.039407451
-0.23502944 2.4117785 -0.062141854
0.029284867 2.4104397 -0.081653245
-0.058737133 2.4260161 -0.10506206
-0.15425557 2.5557742 -0.1353513
-0.23580021 2.425828 -0.15205833
0.03073507 2.398833 -0.16935547
-0.058092393 2.4524539 -0.19651328
-0.19223638 3.1933982 -0.28670108
-0.23524815 2.4276285 -0.24224083
0.031588722 2.4128618 -0.25967184
-0.055015851 2.3661833 -0.27720022
-0.19159588 3.1967108 -0.40535823
-0.20408992 2.1114671 -0.28971553
0.033247709 2.3898134 -0.34628442
-0.056656506 2.496752 -0.38567993
-0.10106617 1.6971657 -0.27954137
-0.098125987 1.0168567 -0.17816567
0.030048268 2.046834 -0.37433851
-0 0 -0
-0.05530091 0.93830603 -0.19027527
-0.085869089 0.89277476 -0.19096813
0 0 -0
-0 0 -0
-0 0 -0
-0.08543203 0.88498902 -0.22446586
0 0 -0
-0 0 -0
-0.0507547 0.86657697 -0.24509688
-0.076367028 0.79079622 -0.23322415
0.041929532 2.3605285 0.7293762
-0.048136815 2.3461869 0.69699001
-0.13865866 2.3685405 0.67956913
-0.22919922 2.3853977 0.66146916
0.040982604 2.3918507 0.63870686
-0.048280563 2.3836212 0.61036158
-0.14017223 2.4255958 0.59736204
-0.22995739 2.4234962 0.57340014
0.040454935 2.3634627 0.53682727
-0.048485845 2.3773611 0.51506633
-0.13783941 2.4012353 0.49699619
-0.22923626 2.4344194 0.48074636
0.040492907 2.3974702 0.45177111
-0.047759026 2.3721869 0.42255101
-0.13813582 2.4278762 0.40925705
-0.22620107 2.4121094 0.38441032
0.04033602 2.3759022 0.35759166
-0.046500802 2.3692787 0.33287582
-0.1376728 2.442286 0.31995893
-0.22630882 2.4365873 0.29673526
0.040863402 2.3824661 0.2694236
-0.046881482 2.3908017 0.247155
-0.13647506 2.438458 0.22914273
-0.22770421 2.4646904 0.20906541
0.041397456 2.3916931 0.18246253
-0.046389077 2.4042234 0.16018178
-0.13653082 2.4501848 0.14042164
-0.22194418 2.4110713 0.11511575
0.042079896 2.3877687 0.094289452
-0.045312867 2.4094954 0.07211417
-0.13487701 2.4427621 0.050306723
-0.22317795 2.4356511 0.026681192
0.042819124 2.41061 0.0068590124
-0.044780433 2.4285307 -0.016575946
-0.13636991 2.4879429 -0.040099375
-0.22004493 2.4111843 -0.062090583
0.043709036 2.3902295 -0.080976188
-0.043796115 2.4233339 -0.1049323
-0.13927332 2.5696354 -0.13603756
-0.22127302 2.4312048 -0.15230741
0.045169957 2.3836391 -0.16829918
-0.042361207 2.4138947 -0.19339909
-0.17183222 3.1795995 -0.28536218
-0.21872984 2.4111874 -0.24046183
0.046450518 2.4156048 -0.25999284
-0.040088337 2.3426428 -0.27440846
-0.17123175 3.1839573 -0.40360016
-0.12864029 1.421939 -0.19499303
0.047930539 2.3905537 -0.3464278
-0.04138473 2.5000172 -0.38613778
-0.10280406 1.9253693 -0.31701908
-0.091175973 1.0095905 -0.17679121
0.04911764 2.3593562 -0.43154162
-0.015932122 0.99065495 -0.19086649
-0.048819281 0.92492509 -0.18749753
-0.080389515 0.89328486 -0.19096813
0.02548714 1.1702833 -0.25959283
-0 0 -0
-0 0 -0
-0 0 -0
0 0 -0
-0 0 -0
-0 0 -0
-0.073067993 0.80845094 -0.23829423
0.056481164 2.3630922 0.73026174
-0.033781324 2.3493135 0.69784415
-0.12558146 2.3971877 0.68755436
-0.2148173 2.3896394 0.66226745
0.054601442 2.3461573 0.6265828
-0.033640355 2.3829036 0.61011356
-0.1247356 2.4157426 0.59473574
-0.21276081 2.3986835 0.56720996
0.055046797 2.3670697 0.53771317
-0.033744462 2.3668642 0.51273763
-0.12380484 2.4157283 0.49982923
-0.21455261 2.4387126 0.48132512
0.054546647 2.3686855 0.44640172
-0.033161331 2.3694818 0.422025
-0.12273631 2.4188297 0.40759745
-0.21527444 2.4577265 0.3914623
0.054776408 2.3696783 0.35669881
-0.031855453 2.361598 0.331763
-0.12278409 2.4450655 0.32021835
-0.20698109 2.38749 0.29059589
0.055481169 2.3821707 0.2694236
-0.031621367 2.3472815 0.24263138
-0.12146086 2.4382551 0.22904932
-0.21172109 2.4561136 0.20822376
0.056258809 2.3993685 0.18307099
-0.031806815 2.417433 0.16104582
-0.12154362 2.4519737 0.14047877
-0.20919691 2.4362731 0.11625551
0.056587759 2.3814719 0.094052747
-0.030426335 2.4017322 0.071874894
-0.12027791 2.4515326 0.050471194
-0.21078278 2.4668639 0.027008435
0.056892708 2.3803105 0.006773666
-0.029915309 2.4317596 -0.016596418
-0.11940075 2.4537785 -0.039536178
-0.20660192 2.4284263 -0.06250076
0.058057133 2.3769276 -0.080536097
-0.028890222 2.4205601 -0.10480254
-0.1166983 2.4288032 -0.1285415
-0.20626691 2.4315224 -0.15224513
0.059394542 2.3673618 -0.16717249
-0.027640026 2.4220829 -0.19403788
-0.14626849 3.0542457 -0.27402624
-0.20569116 2.4333072 -0.24253733
0.060666367 2.3914199 -0.25742501
-0.0260731 2.3756187 -0.27824715
-0.15164493 3.1839569 -0.40347457
-0.11949695 1.4177651 -0.19431645
0.062856898 2.4001079 -0.34786171
-0.025889721 2.4854004 -0.38384843
-0.079952337 1.6923643 -0.27856794
-0.08687897 1.0327091 -0.18074282
0.063381381 2.3511436 -0.43010253
-0.0098044518 0.98582458 -0.18992066
-0.04382794 0.93989307 -0.19047368
-0.074416786 0.88791335 -0.1897186
0.054463804 1.9508255 -0.43279904
-0 0 -0
-0 0 -0
-0 0 -0
0 0 -0
-0 0 -0
-0 0 -0
-0.068347566 0.8117525 -0.23913924
0.070520714 2.3474209 0.72553891
-0.019239154 2.3341393 0.69328868
-0.10993779 2.3777463 0.68177187
-0.20087443 2.3995581 0.66466212
0.068740517 2.3370864 0.6242612
-0.019103542 2.3937213 0.61284173
-0.11026351 2.4242229 0.59664577
-0.20068035 2.4319561 0.57477582
0.069197334 2.3540158 0.53483415
-0.019038493 2.3445487 0.50786853
-0.10867102 2.4095943 0.49841273
-0.19646515 2.4018431 0.47380137
0.068764433 2.357501 0.44436505
-0.019008664 2.4188647 0.43079162
-0.10806806 2.4234776 0.4082613
-0.20002978 2.4570322 0.39114887
0.06853468 2.3426096 0.35268092
-0.017335238 2.3577876 0.33120656
-0.10760452 2.4418106 0.31969956
-0.19408062 2.4104848 0.29324427
0.070009157 2.3788059 0.26908657
-0.0176048 2.4001491 0.2480803
-0.10584622 2.4240344 0.22764811
-0.1959313 2.448427 0.20746627
0.070891529 2.3959882 0.18284281
-0.016826022 2.3966296 0.15965006
-0.10563014 2.4327247 0.1393362
-0.19273667 2.4185922 0.1153532
0.071019933 2.375087 0.093816034
-0.015747771 2.4108696 0.072144084
-0.1041617 2.4272525 0.049957231
-0.19208674 2.4232543 0.026517574
0.070385911 2.3429337 0.0066684056
-0.014913603 2.4188979 -0.016507704
-0.10349305 2.4344857 -0.039214354
-0.19114709 2.4226723 -0.062321313
0.072610058 2.3755276 -0.080502242
-0.014037401 2.4206917 -0.10480254
-0.10170963 2.4274778 -0.12843592
-0.19126521 2.4317472 -0.15218286
0.073607914 2.3569825 -0.16646832
-0.012872536 2.4401493 -0.19547521
-0.10442946 2.5017867 -0.22439805
-0.19207825 2.4513886 -0.2442175
0.075088196 2.3830523 -0.25656906
-0.011582597 2.3936114 -0.28034097
-0.10299556 2.4830356 -0.31456703
-0.17660917 2.2610595 -0.30974257
0.077134788 2.385829 -0.34585425
-0.010702557 2.5003369 -0.38613778
-0.078804418 1.9176124 -0.31555888
-0.077248685 0.99099034 -0.17335503
0.078359745 2.367424 -0.43316057
-0.0063511981 1.6673315 -0.32120049
-0.038654726 0.95483404 -0.19344983
-0.070102826 0.90298033 -0.19284239
0 0 -0
-0 0 -0
-0 0 -0
-0 0 -0
0.038750798 1.1070462 -0.2897796
-0 0 -0
-0 0 -0
-0.063962549 0.81980944 -0.24139263
0.085061088 2.3507633 0.72671962
-0.0050419723 2.3936472 0.7109412
-0.093613289 2.3351505 0.66938108
-0.18562561 2.3940179 0.6627996
0.08277034 2.3279307 0.62193954
-0.0044423887 2.4083247 0.61656189
-0.093287334 2.3714857 0.58351427
-0.18568026 2.4321709 0.57454646
0.083605364 2.3525722 0.53461266
-0.0047395197 2.3886013 0.51739502
-0.092969164 2.3867302 0.49355608
-0.18194599 2.4059386 0.47438014
0.083124459 2.3540885 0.4438096
-0.0041545616 2.4120443 0.4295643
-0.091415279 2.3777812 0.4004612
-0.18509814 2.4601831 0.3914623
0.082697473 2.3362155 0.35178804
-0.0029003185 2.3845873 0.3349624
-0.091116868 2.4027913 0.31451175
-0.18090568 2.4334102 0.29589263
0.084250666 2.3684011 0.26796302
-0.0028321168 2.3624132 0.24417351
-0.08828295 2.3530033 0.22092235
-0.18303263 2.4784017 0.20990705
0.085057653 2.3805611 0.18170196
-0.0021308558 2.4086611 0.16044763
-0.090217784 2.4203572 0.13859354
-0.17921109 2.4376605 0.11620802
0.085051969 2.3596282 0.093224265
-0.00094990659 2.398926 0.071785159
-0.088935778 2.418854 0.049772203
-0.17816196 2.4373517 0.026659375
0.084977522 2.3484538 0.0066854749
-7.1361581e-05 2.4229436 -0.016534999
-0.088226356 2.4260821 -0.039069537
-0.17794605 2.4467313 -0.062910944
0.086708032 2.3620536 -0.080062151
0.00081998936 2.4327211 -0.10532159
-0.086741641 2.4260604 -0.12833035
-0.17554702 2.4219251 -0.15149792
0.087994196 2.3544929 -0.16632749
0.0020469904 2.3783803 -0.19052444
-0.086490259 2.4297178 -0.21788211
-0.17975567 2.4902368 -0.24797316
0.089222595 2.3696306 -0.25517815
0.0031174261 2.4035695 -0.28150421
-0.086742043 2.4548681 -0.3109253
-0.17161889 2.3856316 -0.3266573
0.091277875 2.3724546 -0.34399021
0.0046064146 2.4825661 -0.38339055
-0.072034284 2.0610516 -0.33908385
-0.073564716 1.0248542 -0.17919654
0.092498772 2.3570693 -0.43136171
0.0046105892 1.9815608 -0.38173297
-0.033232518 0.96778727 -0.19602916
-0.064072877 0.89656436 -0.19138461
0.070320159 1.7490587 -0.38819847
0 0 -0
-0 0 -0
-0 0 -0
0.039854899 0.96856004 -0.2535888
0 0 -0
-0 0 -0
-0.059893787 0.83358508 -0.24533603
0.099119827 2.3416057 0.72406304
0.0095293829 2.3648748 0.70239961
-0.078989789 2.3270338 0.6669029
-0.17086408 2.3941503 0.66253346
0.096730672 2.3196566 0.61987591
0.010305798 2.4015255 0.61482579
-0.077896826 2.3467796 0.57730675
-0.16945863 2.4148161 0.57019043
0.097917065 2.3490918 0.53394824
0.0099167516 2.3885853 0.51739502
-0.077552013 2.363765 0.48869947
-0.16813183 2.4207137 0.47708094
0.096061267 2.3172052 0.43695897
0.010519533 2.3834739 0.42447963
-0.077460513 2.3980098 0.4037804
-0.16972704 2.4573314 0.39083546
0.096291862 2.3178799 0.34910947
0.011716673 2.3815894 0.33454508
-0.075521573 2.3765466 0.31100994
-0.16543096 2.4265509 0.29492956
0.097870126 2.3459978 0.26549125
0.011879513 2.4061525 0.24869716
-0.07471779 2.3813646 0.22353794
-0.16674535 2.4635713 0.20856042
0.098494805 2.3520999 0.17957233
0.012679889 2.4146154 0.16084643
-0.075365052 2.4208653 0.13859354
-0.16391492 2.4337311 0.11597057
0.098939098 2.3450854 0.092671938
0.01380407 2.4048841 0.071964622
-0.073725052 2.4073625 0.049525503
-0.16453886 2.4583535 0.026877539
0.099681802 2.3548818 0.0067053894
0.014862712 2.433898 -0.016610065
-0.072945863 2.4135854 -0.038860351
-0.16279703 2.4457822 -0.062859669
0.10154202 2.3694654 -0.08033298
0.015591664 2.4086933 -0.1042835
-0.071469732 2.4135709 -0.12764409
-0.16339085 2.4637876 -0.15405092
0.10222258 2.3489258 -0.16597539
0.016682265 2.3843038 -0.19100356
-0.071228273 2.4182558 -0.216811
-0.16591465 2.5131376 -0.25014749
0.10345615 2.3620853 -0.25442919
0.017939216 2.4134369 -0.28266746
-0.069043271 2.365113 -0.29949796
-0.16380565 2.4904497 -0.34086567
0.10587738 2.3728385 -0.34413359
0.019365204 2.4231961 -0.37423313
-0.061744966 2.143321 -0.35254985
-0.065984912 1.0056258 -0.17576034
0.10687053 2.3544919 -0.43100196
0.019677551 2.3251638 -0.44794035
-0.026879285 0.95327705 -0.19305301
-0.059398986 0.90962857 -0.19409192
0 0 -0
0.010258687 1.1505044 -0.26645043
-0 0 -0
-0 0 -0
0 0 -0
0 0 -0
-0 0 -0
-0.056790385 0.86457521 -0.25434953
0.11265304 2.3237758 0.71874988
0.023961848 2.3571033 0.70012188
-0.0650305 2.3390062 0.67020708
-0.15673511 2.4038107 0.6649282
0.11105435 2.3209496 0.62039185
0.024849162 2.3830116 0.61011356
-0.063942201 2.3637156 0.58136553
-0.15482493 2.4187243 0.57087821
0.11139718 2.3289657 0.52951902
0.024421837 2.3738205 0.51421952
-0.062733486 2.3524487 0.48627111
-0.15265565 2.4119072 0.47515178
0.10999719 2.3106825 0.43584806
0.025081743 2.3774579 0.42342767
-0.06184252 2.3639369 0.39797178
-0.15464595 2.4583266 0.39083546
0.11093625 2.3261349 0.35044876
0.026263924 2.3755314 0.33371043
-0.061547827 2.4007547 0.31412265
-0.1502316 2.4225664 0.29432768
0.11102783 2.3195472 0.26257005
0.026533023 2.3960881 0.24766906
-0.060807873 2.4096467 0.22615349
-0.15236029 2.4764826 0.20957038
0.11211207 2.3345201 0.17827936
0.027336389 2.4005241 0.15991591
-0.060359832 2.4152937 0.13825077
-0.14989384 2.449646 0.11668292
0.11250624 2.327467 0.092001259
0.028429329 2.3937597 0.071635611
-0.059074722 2.4127667 0.049628291
-0.14975485 2.4643071 0.026932079
0.11456501 2.3632152 0.0067309933
0.029453781 2.4057639 -0.016418988
-0.058014642 2.4089897 -0.038779892
-0.14742531 2.440748 -0.062705852
0.11602996 2.3677995 -0.080299132
0.030244866 2.3985624 -0.10385097
-0.057010476 2.4289389 -0.12843592
-0.14779079 2.4567735 -0.15355276
0.11668288 2.3492506 -0.1660458
0.03161284 2.4070811 -0.19284013
-0.056203071 2.4106812 -0.21609691
-0.15061013 2.5160949 -0.25034517
0.11769969 2.356441 -0.25389424
0.032828309 2.4192402 -0.2833654
-0.054324135 2.3565657 -0.29836777
-0.15058509 2.5260246 -0.3456018
0.12048503 2.3731325 -0.34427696
0.034009911 2.4072206 -0.37179115
-0.051276077 2.2620394 -0.37201881
-0.068115793 1.1456537 -0.2001572
0.12106224 2.3488798 -0.43010253
0.033313401 2.2817984 -0.43961716
-0.021742813 0.98576009 -0.19960055
-0.05398972 0.91290504 -0.19471668
0.12003379 2.2862298 -0.50771075
0.033433285 2.2209628 -0.51440048
-0 0 -0
-0 0 -0
0 0 -0
0 0 -0
-0 0 -0
-0.049146771 0.82563692 -0.24280098
0.12722205 2.3287649 0.72052097
0.038502444 2.3617046 0.70154554
-0.05086479 2.3480113 0.67268527
-0.1410736 2.3893306 0.66067094
0.12440768 2.3038235 0.61600649
0.039486624 2.3837831 0.61036158
-0.04978266 2.3805683 0.58542436
-0.14076805 2.4332333 0.57408798
0.12505455 2.3165536 0.52686149
0.038874511 2.3667855 0.51273763
-0.048217557 2.3488729 0.48546168
-0.13970059 2.4451258 0.481518
0.12464795 2.3187957 0.43751442
0.039751206 2.3821809 0.42430434
-0.047593128 2.377089 0.40012926
-0.13911135 2.4513404 0.38958174
0.12462223 2.3145487 0.34881184
0.040737275 2.3693848 0.33287582
-0.046467982 2.3832426 0.31178811
-0.13602854 2.4353366 0.29577222
0.12520462 2.3178301 0.2624577
0.041029237 2.3839455 0.24643533
-0.046249524 2.4219201 0.22727446
-0.13528912 2.4435434 0.20670879
0.1269737 2.3437445 0.17903993
0.041820444 2.3863444 0.15898541
-0.045218833 2.3986495 0.13727959
-0.13617758 2.4744565 0.11782268
0.12798129 2.3486831 0.092869192
0.043026611 2.3885434 0.071486056
-0.044030752 2.4000888 0.049361032
-0.13479492 2.4681749 0.026964804
0.12775408 2.3385036 0.0066627157
0.043810423 2.3835421 -0.016268857
-0.043214329 2.4083006 -0.038763802
-0.13358349 2.4625688 -0.063244201
0.12962061 2.3500783 -0.079723626
0.045036506 2.4023273 -0.10402399
-0.04212302 2.4302411 -0.1284887
-0.12986121 2.4048138 -0.15025257
0.1312066 2.3504825 -0.16618665
0.045997702 2.3869095 -0.19124311
-0.04142746 2.4119768 -0.21618618
-0.1326074 2.4692755 -0.24560116
0.13193356 2.3517036 -0.25346628
0.047534879 2.4120421 -0.28255114
-0.041155364 2.4332342 -0.30803707
-0.133073 2.4893041 -0.3404597
0.1332442 2.3407307 -0.33968854
0.048499357 2.3931336 -0.36965445
-0.04044519 2.4468086 -0.40235785
-0.061556809 1.1549037 -0.20170347
0.13524579 2.3441646 -0.42938298
0.046886094 2.2609346 -0.43564472
-0.015600292 0.97999495 -0.19841008
-0 0 -0
0.096957378 1.6529313 -0.36719722
0.046007562 2.1710417 -0.50289416
-0 0 -0
-0 0 -0
0 0 -0
0 0 -0
-0 0 -0
-0.043312784 0.81155074 -0.23857592
0.14029127 2.3079131 0.71432227
0.052885327 2.356632 0.70012188
-0.036605932 2.3578913 0.67543882
-0.12539208 2.3708992 0.65534937
0.13830927 2.2991593 0.61497462
0.053540811 2.3583148 0.60391325
-0.034887925 2.3614094 0.58064926
-0.1263379 2.4437718 0.57638067
0.13856383 2.3040617 0.5242039
0.052911084 2.3450065 0.50808024
-0.034184691 2.3755631 0.4909254
-0.12319621 2.4165387 0.47573054
0.13875593 2.3160253 0.4371441
0.054030262 2.3671286 0.42167437
-0.03297931 2.3753645 0.39979735
-0.1240676 2.452148 0.38958174
0.13888091 2.3147275 0.34896064
0.055089992 2.3611701 0.331763
-0.031896792 2.3874488 0.31230694
-0.12266003 2.4678535 0.29962435
0.14067759 2.3378475 0.26481712
0.055748954 2.3876264 0.24684657
-0.030652678 2.3654122 0.22194992
-0.12019531 2.4423373 0.20654047
0.14189269 2.3518791 0.17972445
0.056249551 2.3770652 0.15838721
-0.030525532 2.4008784 0.13739385
-0.12060189 2.4672639 0.11744276
0.14257158 2.3508458 0.092987552
0.057898842 2.3972278 0.071755253
-0.029352076 2.4043128 0.049443271
-0.11897033 2.454973 0.026812091
0.14197911 2.3356795 0.0066570262
0.058410227 2.3822286 -0.016262032
-0.028412852 2.4065206 -0.03873162
-0.11808676 2.455354 -0.063039117
0.14397682 2.3482411 -0.079689771
0.059776064 2.4020059 -0.10402399
-0.027031679 2.4144773 -0.12764409
-0.11682035 2.4414544 -0.15249421
0.14605837 2.3566022 -0.16667958
0.06041475 2.3776138 -0.19052444
-0.026638061 2.4131815 -0.21627544
-0.11750097 2.4710364 -0.24569999
0.14568125 2.3399341 -0.25228932
0.061692435 2.386883 -0.27964303
-0.025754152 2.389792 -0.30251175
-0.1128336 2.3851662 -0.32611603
0.14754182 2.338881 -0.33954513
0.063078091 2.3888392 -0.36904395
-0.025461858 2.449971 -0.40284458
-0.051128756 1.084409 -0.18933323
0.1495014 2.3413274 -0.42902324
0.061364833 2.283181 -0.4399955
-0.0096923178 0.99085301 -0.20059259
-0 0 -0
0.14069209 2.1705992 -0.48237935
0.05839638 2.1366336 -0.49499762
-0 0 -0
-0 0 -0
0.15801559 2.4027796 -0.62992263
0 0 -0
-0 0 -0
-0.038015589 0.8050921 -0.2366042
0.15483266 2.3127286 0.7160933
0.067070484 2.3466809 0.69727468
-0.022182619 2.3628783 0.67681557
-0.11196723 2.3956966 0.66200137
0.15171079 2.287663 0.61213714
0.067926362 2.3550367 0.6031692
-0.020473419 2.3703184 0.58279806
-0.11085364 2.433805 0.57385868
0.15321475 2.3109522 0.52597558
0.067186616 2.34073 0.50723344
-0.019648278 2.3806248 0.49193722
-0.10841023 2.4182293 0.47592345
0.15296417 2.3151302 0.4371441
0.068325631 2.3588796 0.42027169
-0.018495401 2.3873551 0.40178886
-0.1086245 2.4439831 0.38817137
0.15314648 2.3148186 0.34910947
0.069022544 2.3419805 0.32912001
-0.017225595 2.384625 0.31191784
-0.10600339 2.4338472 0.29541111
0.15357275 2.3151276 0.26234534
0.070310146 2.3842566 0.24653813
-0.01613141 2.3645601 0.22185649
-0.10477842 2.4330733 0.2056988
0.15526241 2.3350456 0.17850752
0.07068526 2.3716886 0.15805487
-0.015786875 2.400022 0.1373367
-0.10435201 2.4420106 0.11620802
0.1568602 2.3479328 0.092908643
0.071608104 2.3638573 0.070768207
-0.014641428 2.4114459 0.049587179
-0.10339738 2.4436681 0.026681192
0.15557311 2.3237886 0.0066257319
0.072535895 2.3658333 -0.016152846
-0.013623506 2.4026504 -0.038667254
-0.1027674 2.4500396 -0.062885299
0.15764256 2.336345 -0.079317391
0.073862724 2.3806233 -0.10311566
-0.012206109 2.4126005 -0.1275385
-0.10129709 2.4291618 -0.15168472
0.15902355 2.3337669 -0.16513038
0.075096682 2.3801873 -0.190764
-0.011835438 2.4142954 -0.21636468
-0.10138997 2.4488432 -0.24342683
0.15942526 2.3300688 -0.25132641
0.075987622 2.3755398 -0.27836347
-0.011352587 2.4464531 -0.30966955
-0.097625948 2.3719542 -0.32422158
0.16243708 2.3458302 -0.34069225
0.077252313 2.3735907 -0.36675459
-0.010760442 2.5280335 -0.41566163
-0.049236175 1.2008501 -0.20960668
0.16413952 2.3442912 -0.42974278
0.071581677 2.1679363 -0.41786328
-0.0035802182 0.98207289 -0.19880691
-0 0 -0
0.16257934 2.2904499 -0.50922626
0.07323277 2.18784 -0.50695521
-0 0 -0
-0 0 -0
0 0 -0
0 0 -0
-0 0 -0
-0 0 -0
0.167836 2.2955358 0.71107537
0.080902666 2.3299387 0.69243449
-0.0077119875 2.3716216 0.67929369
-0.09597531 2.3645544 0.65322083
0.16749091 2.3107796 0.61858606
0.08078336 2.309072 0.59151256
-0.005977612 2.3898208 0.58757311
-0.095649764 2.4276311 0.57225382
0.1671097 2.3060782 0.52508974
0.08175201 2.3461342 0.50850362
-0.0050095678 2.3660107 0.48890179
-0.093456432 2.4159079 0.47534475
0.16709587 2.313168 0.43695897
0.082141846 2.3397217 0.41694036
-0.0038512843 2.3903821 0.40228674
-0.092605889 2.4179566 0.38394019
0.16691905 2.3079176 0.34821662
0.08356759 2.3464611 0.32981551
-0.0025924074 2.3836942 0.31178811
-0.090139844 2.409651 0.29240161
0.16813448 2.319097 0.26290712
0.084690399 2.3768218 0.24581847
-0.0016367852 2.3855228 0.22381818
-0.08822985 2.3898563 0.20199555
0.1685032 2.3191316 0.17736666
0.084161028 2.3412957 0.1560609
-0.0010598791 2.3990755 0.13727959
-0.088635735 2.4226408 0.11525822
0.17068212 2.3389535 0.092593037
0.085892737 2.3573799 0.070588738
0.00015520115 2.4114904 0.049587179
-0.088220671 2.4392602 0.026626654
0.16924533 2.3148119 0.0066029732
0.086168364 2.3413606 -0.015989065
0.0011209988 2.4066882 -0.03873162
-0.087124296 2.4336405 -0.062449489
0.17256232 2.3433073 -0.079588212
0.088468567 2.3801253 -0.10311566
0.002590033 2.4056399 -0.12716898
-0.086035483 2.4197633 -0.15106204
0.17267503 2.3237946 -0.16449662
0.088761143 2.354779 -0.18876772
0.0029945972 2.4272707 -0.21752506
-0.086011596 2.4394743 -0.2424385
0.17201833 2.306242 -0.24886557
0.090448692 2.3720512 -0.27801448
0.0036023995 2.4087775 -0.3048977
-0.085809022 2.4507339 -0.3349117
0.17466952 2.3161705 -0.33653396
0.091471061 2.3641839 -0.36538097
0.0046513346 2.4747677 -0.40690061
-0.044440761 1.2749696 -0.22249234
0.17598003 2.309891 -0.42362669
0.091952883 2.3479958 -0.45266947
0.0041885045 1.6818793 -0.34047171
-0 0 -0
0.16529045 2.1424277 -0.47653365
0.088005491 2.22142 -0.51485169
0 0 -0
-0 0 -0
0.18214127 2.3321798 -0.61195379
0.083842248 2.0769243 -0.56486434
0 0 -0
-0 0 -0
0.18274865 2.3049397 0.71432227
0.09519738 2.3293984 0.69243449
0.0068567912 2.3773925 0.68094581
-0.080768012 2.3448675 0.64763314
0.18106039 2.3020029 0.61652243
0.095149085 2.3133724 0.59275258
0.0086438116 2.3781598 0.58470809
-0.079619959 2.3941236 0.56422943
0.18102702 2.3020928 0.52442533
0.095625721 2.3328936 0.50575155
0.0095159663 2.3679557 0.48930654
-0.077960789 2.3958409 0.47129348
0.18120925 2.3111196 0.43677384
0.096415415 2.3372064 0.41658971
0.010802511 2.3874023 0.40178886
-0.075895064 2.3602383 0.37469426
0.18084487 2.3038926 0.34777018
0.097178593 2.3271053 0.32717252
0.012033714 2.3836651 0.31178811
-0.075352803 2.4101586 0.29240161
0.18158171 2.3081157 0.26178357
0.098940559 2.3683069 0.244996
0.013054798 2.3954442 0.22475231
-0.073564306 2.3903527 0.20199555
0.18288668 2.3200424 0.17751877
0.098399483 2.3377447 0.15586151
0.013671961 2.4010336 0.13739385
-0.073009148 2.3981791 0.11407097
0.1840844 2.3259089 0.092119612
0.10022816 2.3538127 0.07049901
0.014933228 2.4084446 0.049525503
-0.07301192 2.4317596 0.026539387
0.18336654 2.3127329 0.0066001285
0.10139121 2.3607688 -0.016125549
0.015907941 2.4096355 -0.038779892
-0.072160482 2.43313 -0.062423855
0.1862217 2.3332381 -0.079283535
0.10294137 2.3765433 -0.1029859
0.017307498 2.3995872 -0.12685224
-0.070775673 2.4062791 -0.15019029
0.18613009 2.3127482 -0.16379245
0.10320812 2.3541901 -0.18876772
0.017748533 2.4082832 -0.21582915
-0.070433468 2.4190679 -0.240363
0.14502694 1.795752 -0.1938712
0.10394721 2.3476381 -0.27522272
0.018374741 2.4077179 -0.30477211
-0.068682633 2.3789158 -0.32503352
0.1636084 2.0053287 -0.29150981
0.1059757 2.3635783 -0.36538097
0.019543499 2.438184 -0.40089771
-0.062064871 2.1614704 -0.37712023
0.17198277 2.0881848 -0.38315281
0.10640262 2.3483684 -0.45285863
0.019124502 2.2169471 -0.4488036
-0.031264421 1.1008686 -0.23449302
0.18840452 2.2610409 -0.50316411
0.09379565 2.0495555 -0.47514361
0 0 -0
-0 0 -0
0.19173568 2.2751045 -0.59727496
0 0 -0
0 0 -0
-0.022941573 0.79702342 -0.23406915
0.19688804 2.3037751 0.71432227
0.10930843 2.3249402 0.69129568
0.021357356 2.3676927 0.67819232
-0.066787735 2.3597727 0.65162432
0.1947735 2.2960353 0.61523265
0.10947914 2.3156481 0.59349662
0.023245249 2.3790329 0.58494681
-0.06561435 2.4198651 0.57019043
0.19531383 2.3028822 0.52486831
0.10980023 2.3293343 0.5051164
0.024055233 2.3688319 0.4895089
-0.06281852 2.3795993 0.46801391
0.19522095 2.3080058 0.43640351
0.10991538 2.3188694 0.4134337
0.025335494 2.3764443 0.39996332
-0.062233388 2.3922536 0.37970901
0.19689681 2.3254023 0.3511928
0.11098174 2.3165736 0.32578149
0.026681561 2.3855295 0.31204751
-0.060463198 2.406606 0.2919201
0.19691674 2.3208196 0.26335651
0.11237518 2.3448033 0.24263138
0.02755663 2.3783944 0.22316429
-0.058233414 2.3638632 0.19972311
0.19694982 2.3168893 0.17736666
0.11206868 2.3231442 0.15493099
0.028345115 2.3959129 0.13710819
-0.058292825 2.3985817 0.11407097
0.19784276 2.3187618 0.091882899
0.11442574 2.3481615 0.070349455
0.029599886 2.3993104 0.049340475
-0.058185048 2.4361603 0.02658302
0.19840528 2.321528 0.0066285776
0.11528626 2.3481169 -0.016043657
0.03045091 2.3904965 -0.038474157
-0.0570652 2.4265313 -0.062244404
0.20087719 2.3360345 -0.07941895
0.11604089 2.3459318 -0.10168831
0.032124069 2.4064255 -0.12722178
-0.056729548 2.4375994 -0.15212059
0.20023121 2.3105688 -0.16372201
0.11765122 2.3535125 -0.18876772
0.032417532 2.4001615 -0.21511506
-0.055771872 2.4274132 -0.24115366
0.14286694 1.6432782 -0.17750128
0.11850016 2.349932 -0.2755717
0.03320251 2.4115279 -0.30527443
-0.054152139 2.3822641 -0.32543945
0.13489591 1.5369816 -0.22354344
0.12042603 2.3618965 -0.36522835
0.034070678 2.4074318 -0.39586821
-0.04411003 1.9540008 -0.34086856
0.12761953 1.4413662 -0.26460931
0.11985113 2.3290389 -0.4492645
0.029037682 1.9668849 -0.39820907
-0 0 -0
0 0 -0
0 0 -0
0.020013722 1.3460912 -0.32536641
-0 0 -0
0.1965403 2.1727166 -0.5707013
0.099172302 1.8830057 -0.51241642
0 0 -0
-0.01822447 0.80482334 -0.23632254
0.20936327 2.2844458 0.70871395
0.12352104 2.3232684 0.69101089
0.035826564 2.363672 0.67709094
-0.052456692 2.366884 0.65348685
0.20990887 2.3063431 0.61832809
0.12389237 2.3188021 0.59448868
0.037734162 2.3720486 0.58327556
-0.049764905 2.3725379 0.55895627
0.20944037 2.3016405 0.52486831
0.12393466 2.3256888 0.50448132
0.038254648 2.3480766 0.48525929
-0.048017643 2.3701298 0.46608475
0.21017842 2.3155727 0.43806988
0.12382574 2.3122528 0.41238171
0.040065672 2.3851182 0.40145695
-0.047985397 2.4143145 0.38315666
0.20990884 2.3103631 0.34910947
0.12546116 2.3207934 0.32647702
0.041112315 2.3734241 0.31049117
-0.046298388 2.438693 0.29577222
0.21304505 2.3403487 0.26571593
0.12638453 2.337117 0.24191171
0.042396668 2.392117 0.22447206
-0.043967482 2.3771276 0.20081726
0.21116228 2.3156371 0.17736666
0.1270798 2.3363612 0.15586151
0.042722784 2.3777263 0.13607989
-0.043646872 2.402889 0.11426093
0.21206668 2.3175044 0.091882899
0.12850299 2.3414268 0.070169993
0.044265818 2.3960845 0.049278799
-0.043147251 2.4314728 0.02652848
0.21228111 2.3162837 0.0066171982
0.12886441 2.3323886 -0.015941296
0.044835102 2.3752694 -0.038232792
-0.042157836 2.4258361 -0.062218763
0.21392277 2.3208251 -0.078945003
0.12976733 2.3332055 -0.10116928
0.046752822 2.399194 -0.12685224
-0.041292895 2.40996 -0.15037709
0.21458927 2.3112831 -0.16386285
0.13114001 2.3358274 -0.18741025
0.046987545 2.3919508 -0.21440099
-0.04064196 2.4137802 -0.23977
0.15239407 1.636431 -0.17685932
0.13297294 2.350152 -0.27568802
0.047919761 2.4073112 -0.30477211
-0.039089985 2.3558035 -0.32178584
0.14450926 1.5380957 -0.22383022
0.13474694 2.3581531 -0.36477047
0.048801731 2.4052045 -0.39554375
-0.035632771 2.1679792 -0.37815109
0.1352552 1.427825 -0.26227081
0.13408311 2.3272793 -0.44907534
0.048704226 2.3302143 -0.47181916
-0.016097266 0.99848479 -0.21262644
0.12378574 1.2935205 -0.28817186
0 0 -0
0.025537385 1.2157217 -0.2938869
-0 0 -0
0.21024041 2.1753216 -0.57171363
0 0 -0
0 0 -0
-0 0 -0
0.22421373 2.2916763 0.71137053
0.13731988 2.3148115 0.68873316
0.050247241 2.3595634 0.67598951
-0.038071781 2.3758359 0.65588158
0.22377595 2.3021266 0.61755425
0.13690789 2.2976904 0.58928043
0.051967025 2.3572099 0.57969427
-0.035437398 2.3883708 0.56262457
0.22393633 2.3041942 0.52575415
0.13750654 2.3131771 0.50194091
0.052859101 2.3566093 0.48708054
-0.033598594 2.37921 0.467821
0.22457221 2.3161955 0.43844017
0.13930205 2.33307 0.41623902
0.054450992 2.3739829 0.39963141
-0.032546472 2.3691361 0.37594798
0.22322136 2.3001735 0.34777018
0.13975844 2.3209684 0.32661611
0.055418786 2.3622229 0.30906454
-0.030760096 2.3942623 0.29035518
0.22461273 2.3103163 0.2624577
0.140543 2.3333187 0.24160327
0.056646112 2.3738959 0.22279064
-0.029454757 2.3833311 0.20132224
0.22556008 2.3162827 0.17751877
0.14159396 2.3385253 0.1560609
0.056998651 2.3644443 0.13533722
-0.028938236 2.4061081 0.1144034
0.225894 2.3121815 0.091725096
0.1428673 2.3405943 0.070169993
0.058425874 2.3737791 0.048826508
-0.028227203 2.4316916 0.02652848
0.22658694 2.3159328 0.006620043
0.14256035 2.321573 -0.015873054
0.059183601 2.3659534 -0.038087968
-0.027306106 2.4290481 -0.062295672
0.22806123 2.3184743 -0.078911155
0.14420435 2.3343594 -0.10125577
0.061166134 2.3868825 -0.12621878
-0.026570728 2.4161558 -0.1507507
0.2297501 2.3198495 -0.16456704
0.14670953 2.3548763 -0.18900727
0.06174041 2.3946047 -0.21466878
-0.025894403 2.4199545 -0.240363
0.14641495 1.4741942 -0.15941948
0.14701755 2.3433444 -0.27499005
0.062069919 2.3831699 -0.30175829
-0.025266226 2.4164348 -0.33004025
0.1585792 1.5834628 -0.2305695
0.14821485 2.341501 -0.3623285
0.063272096 2.3940091 -0.39375907
-0.021812221 2.117918 -0.36938882
0.14658178 1.4524149 -0.26694778
0.14886045 2.3342526 -0.45058867
0.060007486 2.2191586 -0.44939885
-0 0 -0
0.13894463 1.3636379 -0.30397692
0.079115525 1.2317946 -0.28585327
0.034156978 1.2582951 -0.30422345
-0.010028916 0.97049576 -0.24502762
0.22110961 2.1499314 -0.56538659
0 0 -0
0 0 -0
-0.0079188971 0.76372963 -0.22421066
0.23836984 2.2912078 0.71166569
0.15152071 2.3139253 0.68873316
0.06440793 2.3476787 0.67268527
-0.023559926 2.382772 0.65774411
0.23779796 2.2997494 0.61729628
0.15138501 2.3026073 0.59076852
0.066265456 2.3510225 0.57826173
-0.020671872 2.37589 0.5596441
0.2380704 2.3027768 0.52575415
0.15137745 2.3074138 0.50088245
0.066814579 2.3386204 0.4834381
-0.019101255 2.3921268 0.47032893
0.23918326 2.3186843 0.43918082
0.15290309 2.3213654 0.4143104
0.068729833 2.3637466 0.39797178
-0.018286869 2.405833 0.38174623
0.23722921 2.2977769 0.34762138
0.15360348 2.3141384 0.32578149
0.069824055 2.358865 0.30867544
-0.016001981 2.384479 0.28915137
0.23868211 2.3079062 0.26234534
0.15465964 2.3294349 0.24129485
0.071270704 2.3754938 0.22297746
-0.014793158 2.3774881 0.20081726
0.23966557 2.3138635 0.17744273
0.15594022 2.3376124 0.1560609
0.071354613 2.3590603 0.13505158
-0.01414467 2.4012461 0.11416595
0.23987053 2.3087645 0.091646194
0.15715919 2.3386762 0.070140079
0.072836347 2.3683796 0.04872372
-0.013317034 2.4338188 0.026550295
0.24079296 2.3144987 0.006620043
0.15815082 2.3406086 -0.016009538
0.073606297 2.3625476 -0.038039695
-0.012396131 2.4281702 -0.062270038
0.24217889 2.3160372 -0.078877307
0.1581187 2.32745 -0.10099626
0.075810619 2.3864625 -0.12621878
-0.01176438 2.4202659 -0.15099978
0.24314488 2.3104599 -0.16400369
0.16061135 2.3459759 -0.18836847
0.076368704 2.3921897 -0.21449025
-0.010990853 2.4081266 -0.23917699
0.15806602 1.4979873 -0.1620943
0.16050576 2.3295169 -0.27347785
0.075957559 2.3599381 -0.29887006
-0.010425947 2.4135718 -0.32963431
0.16347784 1.5371906 -0.2239736
0.16292165 2.3454771 -0.36309162
0.07770329 2.3856862 -0.39246118
-0.0097268652 2.336709 -0.40753037
0.15088062 1.408452 -0.25903291
0.16167323 2.3117452 -0.44642705
0.046839092 1.4115748 -0.28590894
-0 0 -0
0.15286995 1.4142029 -0.31545183
0.098233044 1.3955222 -0.32398206
0.032757908 0.98410547 -0.23797555
-0 0 -0
0.23429719 2.1485343 -0.56538659
0.1644958 2.3120925 -0.6298998
0 0 -0
-0.0032285301 0.76280433 -0.22392897
0.25210989 2.2868531 0.7107802
0.16551033 2.3100834 0.68787903
0.07852146 2.3385921 0.67020708
-0.0089571495 2.3876915 0.65907454
0.25358877 2.3136134 0.62142366
0.1658581 2.3064661 0.59200853
0.080090128 2.3331025 0.57396412
-0.0061656865 2.4041994 0.56629282
0.25198305 2.2993343 0.52531123
0.1653927 2.3044918 0.50045902
0.081094876 2.3362088 0.48303336
-0.0044121956 2.3863118 0.46917143
0.25276494 2.3113117 0.43806988
0.16693164 2.3174376 0.41378438
0.083023973 2.3573675 0.39697605
-0.0035260583 2.4068873 0.38190293
0.25379816 2.318887 0.35104403
0.16779988 2.3131523 0.32578149
0.084331878 2.3593831 0.30880514
-0.0013742152 2.3904889 0.28987366
0.25283867 2.3063982 0.26234534
0.1688059 2.3264577 0.24108921
0.084730253 2.3441677 0.22008166
-0.00020711814 2.4034421 0.20300554
0.25483793 2.3212695 0.17812723
0.169918 2.331636 0.15572859
0.085356213 2.345608 0.1343089
0.00058764854 2.3942955 0.11383352
0.25337619 2.3012898 0.09140949
0.17150608 2.3376679 0.070140079
0.087256491 2.3648906 0.048662044
0.001610206 2.4238553 0.026441215
0.25433245 2.3070138 0.0066029732
0.17140655 2.324635 -0.015907174
0.087914892 2.3570559 -0.03795924
0.0024907091 2.4162045 -0.061962403
0.25715551 2.3214612 -0.079114273
0.17232285 2.3254397 -0.10095301
0.090111785 2.3769715 -0.12574369
0.0030786768 2.414304 -0.15062617
0.25676462 2.3039675 -0.1636516
0.17411272 2.3330178 -0.18741025
0.089643605 2.3548505 -0.21118766
0.0037947264 2.4141195 -0.23977
0.16692333 1.4940249 -0.16177332
0.17264023 2.2997658 -0.27010444
0.090398446 2.3584363 -0.2987445
0.0043818485 2.4125996 -0.32949898
0.16526876 1.4683001 -0.21407975
0.17492516 2.3128982 -0.35820767
0.091958396 2.3753042 -0.39083877
0.0047860523 2.4253862 -0.42299315
0.16084921 1.4192289 -0.26119149
0.17488611 2.297981 -0.44396791
0.080842048 2.0556812 -0.41646278
0 0 -0
0.15400498 1.3472807 -0.3007293
0.12479126 1.6299657 -0.37858072
0.042242449 1.0712993 -0.2591185
0 0 -0
0.24747594 2.1470563 -0.56538659
0 0 -0
0 0 -0
0.0014593157 0.76664782 -0.22505566
0.2652528 2.2776709 0.70841879
0.17930974 2.3042457 0.68645537
0.093136407 2.3447905 0.67213464
0.0057074102 2.3934851 0.66067094
0.26644614 2.3004971 0.61832809
0.18015802 2.3073368 0.59250462
0.094954051 2.3461514 0.57730675
0.0085619856 2.3973784 0.56468797
0.2661989 2.2987134 0.52553266
0.17968157 2.3053825 0.50088245
0.095508017 2.3376243 0.4834381
0.010267879 2.3951247 0.47090769
0.26592669 2.3009312 0.43640351
0.18091775 2.3134251 0.4132584
0.096957125 2.3440051 0.39481857
0.011200873 2.3979752 0.38049257
0.2674537 2.3123744 0.35029995
0.18198995 2.3120792 0.32578149
0.098184727 2.343961 0.3068597
0.013326696 2.3964083 0.29059589
0.26687136 2.3038163 0.26223299
0.18206266 2.3124869 0.23975268
0.099953562 2.3634982 0.22194992
0.014413535 2.3824728 0.20123807
0.26838687 2.3137195 0.1776709
0.18367107 2.3235867 0.15526333
0.099492416 2.3390553 0.13396613
0.015355248 2.4062331 0.1144034
0.26968539 2.3185499 0.09215907
0.18521251 2.3286004 0.069900803
0.10193752 2.3683062 0.048744276
0.01655747 2.434799 0.026561204
0.27079675 2.3252754 0.006659871
0.18534841 2.3195524 -0.015879879
0.10220226 2.3524761 -0.037894875
0.017330544 2.418143 -0.062013675
0.27104649 2.3168616 -0.079012714
0.1874676 2.3352931 -0.10142879
0.10381586 2.356421 -0.1246879
0.01784813 2.4082515 -0.15025257
0.27252856 2.3162181 -0.16463745
0.18850486 2.3328989 -0.18749011
0.10501488 2.3751516 -0.21306209
0.018661102 2.4210162 -0.24046183
0.17468983 1.4811236 -0.16048941
0.15932298 1.9610904 -0.23043795
0.10469151 2.3538725 -0.29824218
