# .PCD v0.7 - Point Cloud Data file format
VERSION 0.7
FIELDS x y z
SIZE 4 4 4
TYPE F F F
COUNT 1 1 1
WIDTH 1525
HEIGHT 1
VIEWPOINT 0 0 0 1 0 0 0
POINTS 1525
DATA ascii
0.18722777 2.3323054 -0.10129903
0.1037719 2.3554232 -0.1246351
0.017796353 2.4012654 -0.14981669
0.2720623 2.3122556 -0.16435578
0.18826401 2.3299181 -0.18725054
0.104091 2.3542562 -0.21118766
0.018523043 2.403105 -0.23868284
0.18051282 1.5304943 -0.16583905
0.17854467 2.1976883 -0.25823939
0.10477967 2.355855 -0.29849333
0.019185198 2.4125273 -0.32949898
0.1659873 1.3974825 -0.20389915
0.16566572 2.0251479 -0.31379417
0.10631014 2.3697665 -0.39002755
0.019564001 2.4125049 -0.42075965
0.17118923 1.4318895 -0.26370987
0.17569698 2.1353893 -0.41275588
0.10213595 2.2460723 -0.45515275
0.010726676 1.2734085 -0.27114555
0.16250248 1.348249 -0.30116233
0 0 -0
0.053063653 1.1642365 -0.28167096
0 0 -0
0 0 -0
0 0 -0
0 0 -0
0.0059936461 0.74551582 -0.21885888
0.27840894 2.269362 0.70635253
0.19216122 2.2878182 0.68189996
0.10721367 2.3374524 0.67020708
0.020303106 2.382802 0.65774411
0.27973741 2.2921054 0.61652243
0.19463752 2.3100493 0.59349662
0.10808174 2.3183637 0.57062161
0.02314903 2.3846276 0.56170744
0.278763 2.2844529 0.52265364
0.1928407 2.2925496 0.49834201
0.10943577 2.3281901 0.48161685
0.024922986 2.3910918 0.47013599
0.28003994 2.2992563 0.43640351
0.19428147 2.3024611 0.41150507
0.11086984 2.3335159 0.39315897
0.02566888 2.3751469 0.37688825
0.28127819 2.307745 0.34985352
0.19583814 2.306972 0.32522509
0.11223213 2.3363817 0.30595183
0.0281002 2.4022374 0.29131818
0.2781128 2.2784634 0.2595365
0.19683748 2.3182645 0.24047238
0.11411664 2.3558793 0.22129603
0.029286828 2.4032636 0.20300554
0.28282043 2.3140087 0.17782301
0.19919579 2.3373287 0.15626031
0.11393981 2.3403952 0.1340804
0.03016934 2.4100888 0.11459336
0.28451431 2.3218102 0.092356324
0.19881411 2.3194528 0.069661513
0.11553393 2.3486631 0.048353665
0.031289846 2.4186537 0.026386674
0.2829892 2.3066967 0.0066115079
0.20112121 2.3363047 -0.016002713
0.11653581 2.3498075 -0.037862692
0.031954896 2.4019978 -0.061603498
0.28366855 2.3022597 -0.078572623
0.20127687 2.3281269 -0.10116928
0.11792211 2.348758 -0.12431837
0.032408223 2.3921292 -0.14925627
0.28575438 2.3065829 -0.16407411
0.20307484 2.3346777 -0.18772966
0.117783 2.3386517 -0.20984876
0.033185218 2.396976 -0.23808983
0.17630103 1.419836 -0.15396282
0.13424526 1.5356072 -0.18053493
0.1187815 2.3462503 -0.29736313
0.03395991 2.4103827 -0.32922834
0.1752955 1.4023299 -0.20475948
0.13244045 1.5052718 -0.23336153
0.12039634 2.3602004 -0.38856739
0.034366485 2.4123394 -0.42075965
0.16794105 1.3351644 -0.24608125
0.1296135 1.4652328 -0.28336766
0.11232804 2.1759074 -0.44106561
0.031896707 2.1906557 -0.46648699
0.17445521 1.3762825 -0.30765757
0.12304056 1.3837738 -0.32172593
0 0 -0
0.024262149 1.7072544 -0.43106258
0 0 -0
0.090498455 1.0092034 -0.2753517
0 0 -0
0 0 -0
0.29171744 2.2628729 0.70487666
0.20645365 2.2894602 0.68275404
0.12135423 2.3329105 0.66910571
0.034993961 2.3874519 0.65907454
0.29404211 2.2922626 0.61703837
0.20845902 2.3049524 0.59250462
0.12266313 2.3244448 0.57229286
0.037672453 2.3776281 0.56010258
0.29550415 2.3039789 0.52752584
0.2066402 2.2884033 0.49770692
0.12340733 2.3216074 0.48040268
0.0394965 2.3850076 0.46897852
0.29439223 2.2994442 0.43677384
0.20911582 2.3090696 0.41290772
0.12508024 2.330822 0.39282703
0.040275488 2.3769195 0.37720165
0.29367369 2.2922437 0.34777018
0.20981014 2.3037548 0.32494688
0.1272096 2.3475301 0.30750817
0.042609394 2.3891163 0.28975326
0.29183507 2.2747426 0.2593118
0.2106072 2.3120599 0.23995832
0.12791863 2.343205 0.22017506
0.043995913 2.401046 0.2028372
0.29510805 2.2973952 0.17668214
0.21444188 2.3459988 0.15692496
0.12857138 2.3446362 0.13436602
0.044695962 2.3958766 0.1139285
0.30028674 2.3319135 0.092829749
0.2129508 2.317194 0.069631606
0.12905893 2.3319378 0.048024729
0.046034485 2.4134173 0.026332133
0.29662609 2.3009498 0.0066001285
0.21526897 2.3330352 -0.015989065
0.1305622 2.3420601 -0.037750054
0.046537232 2.3937607 -0.061398413
0.29766133 2.2994847 -0.078538775
0.21472877 2.3178947 -0.10078
0.13199446 2.3420084 -0.12400164
0.047006868 2.3878939 -0.1490072
0.3006742 2.3107214 -0.16449662
0.2162867 2.3214777 -0.18677145
0.13263629 2.3468349 -0.2106521
0.047872279 2.3957324 -0.23799101
0.18539537 1.4216853 -0.15428381
0.14403532 1.5387102 -0.18100023
0.1328944 2.3405249 -0.29673529
0.048789177 2.4121103 -0.32949898
0.17977579 1.3698279 -0.20017102
0.139543 1.4818003 -0.22985119
0.1345944 2.3544915 -0.38775617
0.048766144 2.3923848 -0.41732347
0.18411282 1.3945729 -0.25723407
0.13665855 1.4438809 -0.27939525
0.12799497 2.2152953 -0.44920045
0.044285242 2.13957 -0.45565787
0.17620373 1.3248626 -0.29639915
0.11031458 1.1599294 -0.26983464
0.067739822 1.1702905 -0.28331545
0.023966899 1.1777934 -0.29741114
0.28811032 2.1507671 -0.56766427
0 0 -0
0 0 -0
0.015590034 0.76745033 -0.22533733
0.30470085 2.2544127 0.70281047
0.22086546 2.2919672 0.68389297
0.13533144 2.3263636 0.66745359
0.049442012 2.3775547 0.65641367
0.30719998 2.2837126 0.61523265
0.22334342 2.3113439 0.59448868
0.13663775 2.3188016 0.5710991
0.052025285 2.3666477 0.55758065
0.30963552 2.3021224 0.52752584
0.21973903 2.277364 0.49558991
0.13730222 2.3149407 0.4791885
0.053884953 2.3739297 0.46685642
0.31045741 2.3122041 0.43955109
0.22328007 2.3077431 0.41290772
0.13920289 2.3270576 0.39232916
0.054699693 2.3697159 0.37610468
0.30970827 2.3050995 0.35000232
0.22528388 2.3162227 0.32689434
0.14035712 2.3259206 0.30478457
0.057030011 2.3788855 0.28854945
0.30658206 2.2788179 0.25998592
0.22536764 2.3166645 0.24057518
0.14120719 2.3244877 0.21849363
0.058215894 2.3798118 0.20106974
0.31319216 2.3251865 0.17896387
0.22728187 2.3287497 0.15586151
0.14222603 2.3318453 0.13368049
0.059247393 2.3895657 0.11364356
0.31499055 2.3329978 0.092948101
0.22736 2.3178334 0.069691427
0.14299677 2.3251147 0.047901377
0.060489215 2.3990948 0.02617942
0.31167644 2.3060234 0.006620043
0.22899224 2.3256993 -0.015948121
0.14449792 2.3342292 -0.037637416
0.060917433 2.381438 -0.061090779
0.31109318 2.2926631 -0.078369506
0.22924185 2.3195162 -0.10090975
0.14598842 2.3351743 -0.12368491
0.061528988 2.3825717 -0.14869586
0.31363383 2.2999375 -0.16386285
0.23101974 2.3250663 -0.1871707
0.14672218 2.3410065 -0.21020579
0.062103588 2.3774877 -0.23621199
0.19546133 1.430372 -0.15535374
0.15238898 1.5269262 -0.17972067
0.1477516 2.3475864 -0.29773986
0.063432001 2.4058228 -0.32868707
0.17968526 1.306931 -0.19113752
0.14438871 1.4386325 -0.22328837
0.14841516 2.3437736 -0.38613376
0.063287899 2.3861318 -0.41629261
0.18471712 1.3359262 -0.24662089
0.14196871 1.4078436 -0.27258533
0.13770802 2.1538246 -0.43689901
0.058960706 2.1969435 -0.4679448
0.18540677 1.3314922 -0.29813123
0.10221096 1.0089959 -0.23486441
0.077155709 1.2047738 -0.29177263
0 0 -0
0.30130175 2.1489587 -0.56766427
0 0 -0
0 0 -0
0.020298729 0.76734024 -0.22533733
0.3225413 2.2808814 0.71166569
0.23423992 2.2838936 0.68189996
0.14836884 2.3063021 0.66194654
0.063925669 2.3733521 0.65534937
0.32268825 2.2923086 0.61807019
0.23722409 2.3070388 0.59374464
0.15124148 2.3237336 0.57253158
0.066463694 2.3633652 0.55689287
0.32361931 2.2992134 0.52730435
0.23300971 2.2691674 0.49410802
0.15143986 2.3130774 0.47898617
0.068195529 2.364727 0.46512017
0.32545948 2.3160944 0.440662
0.23703262 2.3024123 0.41220638
0.15347883 2.3261597 0.39232916
0.069094725 2.3643997 0.37532115
0.32591161 2.3178442 0.35223448
0.23928788 2.3128266 0.32661611
0.15462607 2.3250155 0.30478457
0.071296811 2.3675759 0.28722531
0.323468 2.2975571 0.26234534
0.23804241 2.3003964 0.23903301
0.15659726 2.3404653 0.22008166
0.072756082 2.3774176 0.20090142
0.32272172 2.2896512 0.17637791
0.24063942 2.3183794 0.15526333
0.15659817 2.3319247 0.13373762
0.073846601 2.3871603 0.11354858
0.33069733 2.340915 0.093342617
0.24178502 2.3183827 0.06975124
0.15692323 2.3192058 0.047798585
0.074769929 2.3846862 0.026026707
0.32624012 2.3070381 0.0066285776
0.24409086 2.3322067 -0.016002713
0.15895355 2.3352935 -0.037669595
0.075338341 2.3750243 -0.060936958
0.32487395 2.2887323 -0.07830181
0.24284366 2.3121042 -0.10065024
0.15956137 2.3232756 -0.12310421
0.075796261 2.3711762 -0.14801091
0.32816261 2.3009324 -0.16407411
0.24454923 2.3166659 -0.18661174
0.16046798 2.3311193 -0.20940247
0.076401614 2.3681104 -0.23532248
0.20367163 1.4252088 -0.15492578
0.15620628 1.4736154 -0.17355549
0.1610591 2.3308001 -0.29573065
0.077516645 2.3845925 -0.32584542
0.19431919 1.3518451 -0.19787681
0.15216602 1.4278922 -0.22176214
0.16238308 2.3369124 -0.38516033
0.077766933 2.3807755 -0.41543359
0.190378 1.3172433 -0.24338299
0.15290371 1.428426 -0.27674693
0.14934467 2.1304514 -0.43233559
0.043038324 1.3050206 -0.27801791
0.19427605 1.33516 -0.29921377
0.10704642 0.99575746 -0.23193143
0.081687547 1.1635534 -0.28190589
0 0 -0
0.31448182 2.1470695 -0.56766427
0.10594328 0.97858483 -0.26748452
0 0 -0
0 0 -0
0.33527425 2.2703528 0.70900917
0.24679805 2.2690713 0.67791384
0.16244966 2.3043895 0.66167122
0.078168415 2.363281 0.65268862
0.33815297 2.2998443 0.62064976
0.24990532 2.2920573 0.59027249
0.16466863 2.3111384 0.56966656
0.080797113 2.3580487 0.5557465
0.33913934 2.3068323 0.52951902
0.24819824 2.2793541 0.49664843
0.16569977 2.3130815 0.4791885
0.082086489 2.3466132 0.46164769
0.34194809 2.3296106 0.44362444
0.25072819 2.2969999 0.41150507
0.16753611 2.3222234 0.39183128
0.083321847 2.356035 0.37406743
0.33883426 2.3069954 0.3508952
0.2540144 2.316237 0.32731166
0.16896105 2.325012 0.30491427
0.08596652 2.371062 0.28770679
0.34045073 2.315191 0.26459241
0.25269517 2.3038366 0.23954707
0.17081001 2.3374743 0.21989481
0.086281143 2.3480487 0.19846062
0.34010473 2.3103168 0.17812723
0.25486019 2.3168592 0.15526333
0.16951655 2.3120017 0.13265218
0.087863371 2.3696933 0.11274125
0.34578386 2.3437843 0.093539871
0.25523734 2.309901 0.069541872
0.17159234 2.3241818 0.047921937
0.089363217 2.3831835 0.026015801
0.34126624 2.3109283 0.0066456469
0.25696394 2.3177447 -0.015913999
0.17261346 2.3253002 -0.037524775
0.089682847 2.3685236 -0.06078314
0.33949733 2.2906504 -0.078437217
0.25735724 2.3135495 -0.10078
0.17366466 2.3202612 -0.12299865
0.090306088 2.3696694 -0.14794865
0.34668165 2.3284748 -0.16618665
0.25853798 2.3131404 -0.18645203
0.17491741 2.3320773 -0.20958097
0.090739682 2.3626254 -0.23482832
0.21123916 1.4160652 -0.15406983
0.16391622 1.4607849 -0.1721596
0.17491083 2.3238323 -0.29497722
0.091955431 2.3791215 -0.32516882
0.19703116 1.313436 -0.19242802
0.15893097 1.4092547 -0.21901491
0.1760491 2.3270166 -0.38370013
0.092106208 2.3733625 -0.41423088
0.19288306 1.2790881 -0.2365474
0.16310202 1.4401451 -0.27920607
0.16077426 2.1079948 -0.42797056
0.056589179 1.4464444 -0.3082146
0.19748373 1.301125 -0.29185247
0 0 -0
0.16743594 2.192312 -0.53139263
0 0 -0
0.21721609 1.4220968 -0.37633386
0 0 -0
0 0 -0
0 0 -0
0.35181537 2.2852504 0.71432227
0.26224917 2.2808471 0.68189996
0.17621863 2.2985566 0.66029441
0.092327766 2.3540878 0.65029389
0.35401508 2.309186 0.62374532
0.26485166 2.2981796 0.59225655
0.17907128 2.3129892 0.57038283
0.095185712 2.3555636 0.55528796
0.35166207 2.2941051 0.52708292
0.2627382 2.2826428 0.49770692
0.17958558 2.308116 0.47837907
0.096281894 2.3411632 0.46068311
0.35192418 2.299298 0.43825504
0.26718706 2.3159566 0.41518703
0.1812429 2.3142698 0.39066955
0.097530864 2.3495586 0.37312716
0.35343242 2.3078055 0.35134161
0.26810777 2.3136508 0.32717252
0.18267833 2.3170121 0.3040064
0.099756464 2.3526371 0.28553998
0.35224059 2.2973435 0.26279476
0.26613939 2.2963142 0.23893021
0.18404813 2.3224871 0.21858704
0.10081498 2.3504617 0.19871312
0.35503054 2.3131144 0.17850752
0.26941693 2.3182251 0.15546273
0.18393688 2.3139038 0.13282356
0.10188428 2.3571343 0.11217137
0.36243707 2.3564327 0.094131649
0.27068046 2.3192127 0.069870889
0.1857703 2.3220887 0.047901377
0.10359208 2.3735993 0.025917627
0.35696098 2.3186746 0.0066740955
0.27176195 2.3210905 -0.015948121
0.18703826 2.3261907 -0.037556957
0.10381857 2.3589404 -0.060552422
0.35720819 2.3122292 -0.079249687
0.26991647 2.2980356 -0.10017446
0.18854338 2.3271148 -0.12342095
0.10431489 2.3571055 -0.14720143
0.3601976 2.3213749 -0.16583455
0.27307665 2.3144805 -0.1866916
0.18962644 2.3359239 -0.21002729
0.10514618 2.3600359 -0.23463064
0.21503681 1.3833038 -0.15064606
0.17462847 1.4745466 -0.17390446
0.13609666 1.6710893 -0.21222286
0.10655171 2.3785124 -0.32516882
0.20065472 1.2838464 -0.18826975
0.16185293 1.3601662 -0.21153635
0.1342328 1.6404182 -0.27061811
0.10613626 2.3609433 -0.41216922
0.20378065 1.2973161 -0.24014507
0.16739251 1.4010917 -0.27182868
0.12047458 1.4613005 -0.29682148
0.072673149 1.6053332 -0.3421599
0.20150062 1.2748168 -0.28622329
0 0 -0
0.095160313 1.1527761 -0.27955669
0.052733649 1.1739447 -0.29667678
0.22183539 1.3949403 -0.36950061
0 0 -0
0 0 -0
0.034419514 0.76683664 -0.22533733
0.3697612 2.3075774 0.72199678
0.27485517 2.2677753 0.67848331
0.19031899 2.2974319 0.66029441
0.106552 2.3486624 0.64896357
0.36680692 2.2983835 0.62142366
0.27883124 2.2955496 0.59200853
0.19326015 2.3118467 0.57038283
0.10900365 2.3413229 0.55207825
0.36696115 2.299608 0.52885461
0.27815181 2.2926304 0.5002473
0.19333476 2.3020914 0.47736731
0.11032085 2.3336675 0.45933267
0.36757216 2.3068001 0.44010654
0.28091717 2.3103645 0.41448572
0.19436026 2.3003399 0.38851207
0.11156952 2.3410237 0.3718735
0.36743051 2.3046169 0.3511928
0.28229901 2.3119621 0.32717252
0.19663982 2.3128836 0.3036173
0.11322726 2.332149 0.28313237
0.36993241 2.3177078 0.26537889
0.28046545 2.2966127 0.23913585
0.19727828 2.3094099 0.21746607
0.11484478 2.3418369 0.19803981
0.37236315 2.3305848 0.18002868
0.28400001 2.3194995 0.15566212
0.19727908 2.3027842 0.13225228
0.11634546 2.3564649 0.11217137
0.37309808 2.3304849 0.093184814
0.28393006 2.3095713 0.069631606
0.20052993 2.3268816 0.048024729
0.11760724 2.3619332 0.025797637
0.37197247 2.3213775 0.0066883196
0.28514215 2.3124321 -0.015900351
0.20191173 2.3319721 -0.037669595
0.11773991 2.3472762 -0.060270421
0.37567246 2.3366361 -0.08016371
0.28315341 2.2893953 -0.099871673
0.20212476 2.3179555 -0.12299865
0.11847439 2.3504403 -0.14682782
0.37522951 2.3240449 -0.16618665
0.28616706 2.3038583 -0.18597293
0.2016155 2.3079262 -0.20761728
0.119222 2.3513956 -0.23383999
0.22717181 1.4045329 -0.1531069
0.17752992 1.424168 -0.16808826
0.13205932 1.5071537 -0.19150288
0.12074068 2.3698978 -0.32408628
0.21583413 1.3275256 -0.19486564
0.17105529 1.3660119 -0.2126047
0.12621549 1.4341267 -0.23670974
0.12036934 2.3553283 -0.41131014
0.19492494 1.1931347 -0.22107738
0.17525148 1.3941927 -0.27069369
0.12865998 1.4517472 -0.29503581
0.11707765 2.2768848 -0.48543802
0 0 -0
0.16718321 1.3251467 -0.30931714
0.086424552 0.97401977 -0.23633112
0.059836943 1.1716623 -0.29618722
0 0 -0
0 0 -0
0 0 -0
0.039221898 0.76852757 -0.22590068
0.38548282 2.3146899 0.72494853
0.28973418 2.2736533 0.68076104
0.20466791 2.2990937 0.66112047
0.11991964 2.3277483 0.64337593
0.38517177 2.3218241 0.62838852
0.29217497 2.2880299 0.59052044
0.20761538 2.3125517 0.57086033
0.12326521 2.338666 0.55161965
0.38218144 2.3040473 0.53040487
0.29184291 2.287972 0.49961221
0.20684087 2.294034 0.47595075
0.12474259 2.3349063 0.45971853
0.38284361 2.3112876 0.44140261
0.29621145 2.3173864 0.41606373
0.20936173 2.3089252 0.39017168
0.12603781 2.3422673 0.3721869
0.38366631 2.3150012 0.35312736
0.2968578 2.3131332 0.32758984
0.21046747 2.3076837 0.30309853
0.12742649 2.3294282 0.28289163
0.38447189 2.3173547 0.26560357
0.29518509 2.2997816 0.23964988
0.21244395 2.3190622 0.21849363
0.12954134 2.3470581 0.19854482
0.38502282 2.3184197 0.17926811
0.29593474 2.2998998 0.15446575
0.21332271 2.3224084 0.13345198
0.13063613 2.3527145 0.1120289
0.38853869 2.3350513 0.093460977
0.30065694 2.3276119 0.070229813
0.21544731 2.3325763 0.048168641
0.13198587 2.3591704 0.025775822
0.38916612 2.3368068 0.0067395279
0.29829785 2.3027053 -0.015845757
0.21603194 2.3286984 -0.037637416
0.13157825 2.3365288 -0.060014062
0.3900027 2.3342869 -0.08016371
0.2962946 2.2806797 -0.099568903
0.21662222 2.3196545 -0.12315702
0.13357049 2.3616269 -0.14757504
0.38882238 2.3177638 -0.16590498
0.30107152 2.3079898 -0.18645203
0.21586563 2.3076372 -0.20770654
0.13330872 2.3446589 -0.23324698
0.20645654 1.2285813 -0.13406214
0.18265581 1.3954772 -0.16483118
0.14065595 1.4994009 -0.19062385
0.13448904 2.3552635 -0.3221918
0.21738322 1.2871423 -0.18913007
0.17569824 1.3365209 -0.20817864
0.14056501 1.4922694 -0.2464442
0.13459383 2.3506114 -0.41062292
0.21392584 1.2607738 -0.23384914
0.1808486 1.3707004 -0.26634294
0.13367979 1.4099491 -0.28670257
0.12441232 2.1609015 -0.46086416
0.21647245 1.2683986 -0.28535727
0.16840598 1.2719433 -0.29713395
0.092123851 0.97056812 -0.23562634
0.093059503 1.6262306 -0.41123518
0.24482834 1.426439 -0.37861159
0 0 -0
0 0 -0
0.046182901 0.80754822 -0.23744923
0.3959353 2.290627 0.7181595
0.30418769 2.2756336 0.68189996
0.21849768 2.2949235 0.66029441
0.13370067 2.3183074 0.64098126
0.3979353 2.3108478 0.62606686
0.30607995 2.285234 0.59027249
0.22096616 2.3025348 0.56871158
0.13704072 2.3281486 0.54932702
0.3996211 2.3208795 0.53483415
0.3066538 2.2919505 0.50088245
0.22063115 2.2897975 0.4753437
0.1390086 2.3331177 0.45952564
0.39851701 2.3176117 0.44306898
0.31291059 2.334065 0.41939503
0.22314478 2.3036709 0.38950783
0.13993436 2.3335631 0.37093323
0.39819896 2.3145525 0.35342497
0.31012079 2.3043983 0.32661611
0.22664163 2.3270733 0.30582213
0.14225994 2.3375206 0.28397506
0.40037015 2.3247445 0.26672712
0.3152616 2.3422887 0.24427633
0.22938287 2.3454602 0.2211092
0.14333001 2.3362732 0.19770317
0.40127376 2.327805 0.1801808
0.31097496 2.3049626 0.15493099
0.22610745 2.3061516 0.13259505
0.14427021 2.338908 0.11141153
0.40200868 2.3276999 0.093263708
0.31399435 2.3187897 0.070020437
0.22965759 2.3302152 0.048148077
0.14602514 2.35133 0.025699466
0.40503007 2.3432434 0.0067651314
0.31228682 2.2998407 -0.015838932
0.23011954 2.3253388 -0.037605233
0.14690971 2.3516412 -0.060424238
0.40790391 2.3525295 -0.080874629
0.31284398 2.2976274 -0.10039072
0.23095022 2.3192754 -0.1232098
0.14718404 2.3468175 -0.14670329
0.40389192 2.3202481 -0.16625707
0.31671244 2.316963 -0.18733041
0.22972441 2.3032961 -0.20743877
0.14731728 2.3378379 -0.23265398
0.24131639 1.3840086 -0.15118103
0.19458845 1.4189302 -0.16773929
0.15330857 1.5330601 -0.19501899
0.14943856 2.3623047 -0.32327437
0.22151944 1.2643384 -0.18597552
0.18713136 1.3589146 -0.21184158
0.14764892 1.4707606 -0.24303713
0.14901438 2.3497412 -0.41062292
0.23137662 1.3146589 -0.24410254
0.19113745 1.3831826 -0.2689912
0.14134359 1.3993508 -0.28471848
0.13306555 2.0878665 -0.44545346
0.2193169 1.2391676 -0.27907851
0.1836998 1.3249253 -0.30976835
0.1165586 1.1527634 -0.28002653
0.12646456 1.995266 -0.50474221
0.25781375 1.448722 -0.38493866
0 0 -0
0 0 -0
0.048953265 0.77277631 -0.22730905
0.41149947 2.2966187 0.72081614
0.3200047 2.2870154 0.68588603
0.23257495 2.2935398 0.66029441
0.1477388 2.3145573 0.64018297
0.4121069 2.3083625 0.62606686
0.32090309 2.2890692 0.59176058
0.23518877 2.3021016 0.56895036
0.15220758 2.3408623 0.55253673
0.41402557 2.3193436 0.53505558
0.32071117 2.2900257 0.50088245
0.23477682 2.2893746 0.47554606
0.15332173 2.3322208 0.45952564
0.4127301 2.3151228 0.44306898
0.32585824 2.3223515 0.41764173
0.23747785 2.3042202 0.38983977
0.1540547 2.329704 0.3704631
0.41447696 2.3237476 0.35521069
0.32411638 2.3014715 0.32647702
0.2395878 2.3128173 0.30413607
0.15626809 2.331651 0.28337315
0.41357905 2.3163748 0.26605299
0.32546571 2.3107607 0.24119204
0.24181327 2.3251932 0.21933433
0.15732682 2.3303785 0.19728233
0.41853133 2.3419855 0.18147378
0.32441473 2.2980711 0.15459868
0.24149564 2.3166368 0.13328059
0.15780741 2.3260198 0.11084165
0.41804454 2.3350253 0.093658231
0.32961828 2.3267162 0.070319548
0.24270126 2.3168302 0.047901377
0.15997316 2.3434064 0.025623109
0.42045853 2.3466198 0.0067822007
0.32920501 2.317682 -0.015975416
0.24469694 2.3268661 -0.037653506
0.16133635 2.3506954 -0.060424238
0.4193258 2.3332601 -0.080299132
0.32665434 2.2936864 -0.1003042
0.24549182 2.3207939 -0.12336817
0.16116957 2.339896 -0.14632969
0.41953787 2.3255796 -0.16682042
0.32951251 2.3051083 -0.1865319
0.24406272 2.3038242 -0.20761728
0.16172788 2.3378828 -0.2327528
0.25316295 1.4010918 -0.15321387
0.19680616 1.3724844 -0.16238837
0.16281712 1.533077 -0.19514456
0.16276406 2.3445401 -0.32097396
0.22414671 1.2347164 -0.18181723
0.1927903 1.3391551 -0.20894174
0.14683942 1.3775948 -0.22778647
0.1624036 2.3340414 -0.40804577
0.2269111 1.2445053 -0.23133075
0.19007504 1.3158975 -0.25612807
0.15076302 1.4062535 -0.28630576
0.15405761 2.2040939 -0.47044381
0.22409952 1.222434 -0.27561438
0.18456087 1.2736377 -0.29803643
0 0 -0
0.072446741 1.0417193 -0.26363111
0.21497165 1.1664433 -0.31027928
0 0 -0
0 0 -0
0 0 -0
0.43063754 2.3212936 0.7293762
0.33430883 2.2869058 0.68645537
0.24664347 2.2920694 0.66029441
0.16227441 2.3184152 0.64151335
0.42397976 2.2934396 0.62271339
0.3369078 2.3004763 0.59523273
0.24941438 2.3015804 0.56918907
0.16636063 2.3369715 0.55184895
0.42895803 2.3205953 0.53594142
0.33532241 2.291883 0.50172919
0.24966678 2.2956796 0.47716492
0.16685496 2.3204703 0.45740354
0.42871174 2.3222106 0.44492051
0.3385312 2.3095932 0.41571304
0.2516118 2.3027198 0.38983977
0.16848902 2.3306851 0.37077653
0.42944583 2.3250504 0.35580593
0.34024939 2.3131557 0.32842448
0.25431558 2.316232 0.30478457
0.17006467 2.3237178 0.28253049
0.42868757 2.3186791 0.26661476
0.33587405 2.2831335 0.23851898
0.25607583 2.3236656 0.21933433
0.17140312 2.3263881 0.19702983
0.43144214 2.3315294 0.1808653
0.33996466 2.3059084 0.15526333
0.25515768 2.3101497 0.13299495
0.17215034 2.3260036 0.11088914
0.43363899 2.3392937 0.093934387
0.34491244 2.3315713 0.070528917
0.25658169 2.3123164 0.047839701
0.1740521 2.338392 0.025579475
0.43576121 2.348912 0.0067964257
0.34283307 2.311662 -0.015948121
0.2583057 2.3193586 -0.037556957
0.17538406 2.3446767 -0.060296055
0.43253762 2.3247478 -0.080096014
0.34145662 2.2965801 -0.10052048
0.26006073 2.322221 -0.12352654
0.17477697 2.3289104 -0.145707
0.43508127 2.3298256 -0.16731334
0.34482706 2.31093 -0.1871707
0.25808311 2.3012931 -0.20752801
0.17412594 2.3110466 -0.23018314
0.25937885 1.386807 -0.15182297
0.20669395 1.3810737 -0.16355161
0.16945024 1.5074023 -0.19200517
0.17580253 2.3257134 -0.31853822
0.23555619 1.2537435 -0.1848284
0.20159087 1.3418562 -0.20955224
0.15628487 1.3854928 -0.22924665
0.17664754 2.3320186 -0.40787399
0.23144248 1.2266569 -0.22827274
0.20341393 1.3496617 -0.26293796
0.15994108 1.4101713 -0.28729782
0.16097651 2.1163092 -0.45190927
0.23541653 1.2411789 -0.28016105
0.19047914 1.2599587 -0.29510343
0 0 -0
0.10306671 1.3612696 -0.34465426
0.22357419 1.1727051 -0.31230396
0 0 -0
0 0 -0
0 0 -0
0.45081386 2.3495722 0.73911697
0.34920159 2.2904973 0.6881637
0.26092014 2.2924232 0.66084516
0.17627728 2.3144925 0.64071518
0.44330642 2.318315 0.63019425
0.35130945 2.3002813 0.59572875
0.26297924 2.2951829 0.56799531
0.1803966 2.3320251 0.55093187
0.4450202 2.3274977 0.53815609
0.35055816 2.2975113 0.5034228
0.26475477 2.3028605 0.47898617
0.18147185 2.3242941 0.45836812
0.44645482 2.3378763 0.44843841
0.35329121 2.3113654 0.41641435
0.26675442 2.3099489 0.3913334
0.18209137 2.3207457 0.36936614
0.44537416 2.3311133 0.35714522
0.35428613 2.3100455 0.32828537
0.26772308 2.3077333 0.3038767
0.1847122 2.3275785 0.28313237
0.44701281 2.3374767 0.26908657
0.35379779 2.3065927 0.24119204
0.26906231 2.3111722 0.21830679
0.18583299 2.3272793 0.19719817
0.44892657 2.3454871 0.18215831
0.35486495 2.3087101 0.15559566
0.27025321 2.3164737 0.13345198
0.18681839 2.3298821 0.11112659
0.44836077 2.3385515 0.094013296
0.35936457 2.3303993 0.070558831
0.27088133 2.3116913 0.047860261
0.1875132 2.3263161 0.025459487
0.45148471 2.3530686 0.0068163397
0.35701069 2.3095148 -0.015948121
0.27136448 2.3077996 -0.037396047
0.18887991 2.3325961 -0.060014062
0.44792691 2.3279388 -0.080299132
0.35737762 2.306289 -0.10103951
0.27395305 2.3176064 -0.12336817
0.18914439 2.3287888 -0.14576927
0.45163813 2.338865 -0.16815835
0.35961279 2.3127105 -0.18749011
0.2713792 2.2927427 -0.2069032
0.12798782 1.5700417 -0.15645337
0.33301345 1.721969 -0.18873553
0.21684752 1.3905743 -0.16483118
0.16408737 1.3831872 -0.17630821
0.13774793 1.6846867 -0.23085226
0.22758183 1.1716394 -0.17292713
0.20676418 1.321066 -0.20649977
0.16408344 1.3786287 -0.2282732
0.12958114 1.5817461 -0.27678391
0.23802319 1.2203861 -0.22737332
0.19524349 1.2436212 -0.24250826
0.16649497 1.3916461 -0.28372642
0.11944645 1.4524285 -0.31029716
0.23795693 1.2138438 -0.27431536
0.19593351 1.2443309 -0.29171923
0.14908315 1.2450043 -0.30304885
0 0 -0
0.23431867 1.1893458 -0.31711251
0.1646913 1.0408341 -0.28636575
0 0 -0
0 0 -0
0.46317834 2.3364525 0.73587
0.36610475 2.3062999 0.69357336
0.27555418 2.2955518 0.66222191
0.19055451 2.314328 0.64098126
0.46426502 2.349673 0.63948077
0.3649607 2.295212 0.59498471
0.27647495 2.2887058 0.56680155
0.1948643 2.3328142 0.55139041
0.46250623 2.3409867 0.54192096
0.36464882 2.2953172 0.5034228
0.27899769 2.3021648 0.4791885
0.19540054 2.319226 0.45759648
0.46269387 2.3447342 0.45028993
0.36638379 2.3023481 0.41518703
0.28092298 2.3082688 0.3913334
0.1955781 2.3107276 0.36795574
0.4606269 2.3331876 0.35788929
0.36829755 2.3068504 0.32814628
0.28320137 2.3168736 0.30530334
0.19873668 2.3234341 0.28277126
0.46346581 2.345413 0.27032244
0.37233561 2.3318818 0.24407071
0.28323835 2.3094778 0.21830679
0.19925533 2.3161674 0.19635652
0.4658246 2.3554044 0.18314706
0.36729029 2.2956514 0.15486453
0.2850706 2.3197265 0.13373762
0.20033725 2.3197353 0.11069918
0.46464309 2.3455582 0.094407812
0.37413207 2.3311112 0.070648566
0.28542784 2.3129625 0.047921937
0.20117851 2.3181486 0.02538313
0.46766445 2.3590822 0.0068419441
0.37228668 2.3141918 -0.015995888
0.28601119 2.3100603 -0.037460409
0.2031021 2.3303974 -0.059988428
0.4701916 2.3653364 -0.081687093
0.37486187 2.3247654 -0.10194783
0.28742859 2.309936 -0.12305143
0.20386451 2.3325558 -0.14608061
0.46773684 2.3448541 -0.16879211
0.37411496 2.3124287 -0.18764982
0.28618094 2.2969646 -0.20743877
0.13031642 1.4859576 -0.14815137
0.44991702 2.2522411 -0.24715368
0.22473966 1.3852961 -0.16436589
0.18031496 1.4441742 -0.18421949
0.13384703 1.5219429 -0.20866013
0.2458625 1.2255298 -0.18110029
0.20311445 1.2475898 -0.19520561
0.17155841 1.3697631 -0.22697526
0.13323206 1.5122283 -0.26475731
0.24764341 1.2295103 -0.22935204
0.20856737 1.2772878 -0.24931817
0.16964525 1.3478106 -0.27499637
0.12396273 1.4019802 -0.29967624
0.24152674 1.1932234 -0.2699852
0.20828797 1.2719475 -0.29848766
0.17409234 1.3819742 -0.33664265
0.087356143 0.99191737 -0.25139198
0.24431154 1.2011582 -0.32065567
0.18329427 1.1140757 -0.30682048
0 0 -0
0 0 -0
0.48382661 2.3644562 0.74561071
0.38368317 2.3248184 0.69983721
0.28915247 2.2900026 0.66112047
0.20466639 2.312155 0.64071518
0.4811838 2.3590868 0.64283425
0.37998497 2.2986643 0.5964728
0.29051298 2.2869663 0.56680155
0.20813081 2.319941 0.54863918
0.47861546 2.3467042 0.54391414
0.37968132 2.2988222 0.50469303
0.29348961 2.303324 0.4797956
0.20953897 2.3170059 0.45740354
0.48119164 2.3620725 0.45417809
0.38227141 2.3107412 0.41711572
0.2945804 2.3025889 0.39066955
0.21091411 2.3222709 0.36999297
0.47592175 2.3351619 0.35863334
0.38260728 2.3055241 0.32828537
0.29627502 2.306241 0.30413607
0.21317059 2.3241479 0.283012
0.47685519 2.3376567 0.26976067
0.38777679 2.336422 0.24479038
0.29880354 2.3185585 0.21933433
0.21428677 2.3238311 0.19711399
0.48066717 2.3544555 0.18329917
0.38709792 2.3278039 0.15719081
0.29968235 2.320904 0.133909
0.21465915 2.3194571 0.11074667
0.48082805 2.3514738 0.094762877
0.38777062 2.3248277 0.070528917
0.30000016 2.3141422 0.047983613
0.21641682 2.3278224 0.025503119
0.48553869 2.372823 0.0068903067
0.39060131 2.3365211 -0.016166493
0.30082479 2.3132195 -0.037540868
0.21767604 2.3320932 -0.060065337
0.4889144 2.3829665 -0.082398005
0.38862404 2.3194656 -0.10181807
0.3013379 2.3061485 -0.12294585
0.21798697 2.3292735 -0.14595607
0.47829425 2.3233764 -0.16745417
0.38780102 2.3071406 -0.18741025
0.30039865 2.2961528 -0.20752801
0.14054783 1.4970189 -0.14933737
0.35994127 1.7459924 -0.19183834
0.22745819 1.349612 -0.16029455
0.18182257 1.3869715 -0.17706168
0.14114016 1.4993913 -0.20568314
0.25016776 1.2084923 -0.17880608
0.2109305 1.2472945 -0.19535825
0.17905946 1.3618364 -0.22583959
0.14084379 1.4937282 -0.26166475
0.24937871 1.2000374 -0.2241354
0.20901223 1.2324185 -0.24080577
0.18445861 1.3962998 -0.2851153
0.13118096 1.3865873 -0.29655245
0.25183699 1.206054 -0.27323282
0.21200527 1.2466348 -0.29284731
0.17670815 1.3365531 -0.32583624
0.092076026 0.97688323 -0.24772024
0.24452606 1.1655506 -0.31154469
0 0 -0
0 0 -0
0 0 -0
0.49694458 2.3548989 0.74354452
0.39648369 2.3139167 0.69727468
0.30332452 2.2891383 0.66139585
0.21912229 2.3137345 0.64151335
0.50380462 2.3948541 0.65341061
0.39850637 2.3220689 0.6031692
0.30479664 2.287066 0.56727904
0.22273347 2.3224959 0.54955626
0.49561512 2.3561292 0.54679316
0.39493573 2.3031921 0.50617492
0.30657911 2.2937145 0.47817674
0.22356318 2.3137236 0.45701772
0.49729255 2.3667693 0.45565933
0.39694259 2.3112631 0.41764173
0.30870327 2.3007381 0.39066955
0.22506396 2.3199501 0.36983627
0.4912582 2.3370364 0.35937741
0.39624217 2.3002052 0.32786807
0.31121454 2.3102758 0.30491427
0.22675014 2.3158803 0.28216934
0.49528137 2.3541346 0.27200773
0.40142998 2.3300776 0.24437913
0.31102461 2.3018816 0.21793315
0.22785842 2.315531 0.19652484
0.49448848 2.3485348 0.18307099
0.40035552 2.3194857 0.15679204
0.31257829 2.309128 0.13333772
0.22819997 2.3111379 0.11041424
0.49648446 2.3543456 0.094999589
0.40083474 2.3155103 0.070319548
0.31459767 2.3152299 0.048045289
0.23128803 2.3324211 0.025568567
0.5002954 2.3707776 0.0068931514
0.40544337 2.3370364 -0.016186967
0.31622797 2.3202465 -0.037685689
0.23178338 2.3287241 -0.060014062
0.50207871 2.3730774 -0.082161032
0.40490231 2.3288491 -0.10233711
0.31399247 2.2933731 -0.12236517
0.23197773 2.3249128 -0.14576927
0.4989621 2.3506472 -0.16963714
0.40434769 2.3184652 -0.18852817
0.31569928 2.3031476 -0.20833135
0.14328963 1.4317682 -0.14291319
0.41571254 1.9557632 -0.2151628
0.21725938 1.2425272 -0.14773156
0.19235423 1.4005727 -0.1789453
0.1505354 1.5004687 -0.20595378
0.26026347 1.2195169 -0.18067014
0.21875054 1.2469501 -0.19551086
0.18525799 1.3450717 -0.22324373
0.14350587 1.428143 -0.25032535
0.25529498 1.1917516 -0.22287622
0.21844167 1.241751 -0.24288657
0.19100782 1.3805788 -0.28213915
0.14616068 1.4499838 -0.31029716
0.2512213 1.1672634 -0.26478902
0.21761981 1.2337976 -0.29013991
0.17810677 1.2863394 -0.31385523
0.097486898 0.9705115 -0.24625154
0.24819757 1.1479532 -0.3072423
0.20048693 1.1316968 -0.3123275
0 0 -0
0.081581943 0.81245804 -0.23970258
0.51503885 2.3686109 0.74885768
0.41218337 2.3199348 0.69983721
0.31842169 2.2948518 0.66359866
0.23302467 2.3094695 0.64071518
0.51398641 2.3709447 0.64773548
0.41223764 2.3167188 0.60242516
0.31842151 2.2822673 0.56656277
0.23668323 2.3181806 0.54886842
0.51419443 2.3721044 0.55122244
0.41042909 2.3084235 0.50786853
0.32119009 2.2956696 0.47898617
0.23715353 2.3064518 0.45586023
0.51284522 2.3684754 0.45658508
0.41318783 2.320415 0.41974568
0.32295167 2.299777 0.39083549
0.23828071 2.308701 0.36826918
0.50956643 2.3523405 0.36220479
0.41348225 2.3152778 0.33037192
0.32593787 2.3122501 0.30543303
0.24136701 2.3183949 0.28265086
0.51624352 2.3811557 0.2754907
0.41554463 2.3265915 0.24427633
0.32639712 2.3088021 0.21877384
0.24185464 2.3121073 0.19635652
0.51332939 2.3659196 0.18466821
0.41581029 2.3238606 0.1572573
0.32954079 2.3269367 0.13448028
0.24227232 2.3087008 0.11036675
0.5145281 2.3678544 0.095670268
0.41627064 2.3198941 0.070528917
0.33020464 2.3231544 0.048250873
0.24538559 2.3289692 0.02554675
0.51865739 2.3852522 0.0069443597
0.41995248 2.3354888 -0.01619379
0.32947108 2.3113334 -0.037573047
0.24596269 2.3262641 -0.059988428
0.51918459 2.38167 -0.082567275
0.42042443 2.3332033 -0.10263988
0.33018133 2.3062313 -0.12315702
0.24644914 2.3254306 -0.14589381
0.51827747 2.3699546 -0.17125675
0.4198069 2.3228071 -0.18908712
0.32812941 2.2893357 -0.20726024
0.15827698 1.4892443 -0.14874437
0.47981229 2.1911306 -0.24137606
0.22753535 1.2558303 -0.14947641
0.19332962 1.3463373 -0.17216422
0.15963431 1.4985316 -0.20581846
0.23926729 1.0883746 -0.161456
0.22286285 1.2261374 -0.19245839
0.18366358 1.2755423 -0.21188685
0.15310214 1.4350722 -0.25169981
0.26281455 1.1911232 -0.22305609
0.22341594 1.2258967 -0.24004912
0.19709058 1.3628902 -0.27876619
0.14787446 1.3819556 -0.2959277
0.25668862 1.1580747 -0.26305696
0.22203423 1.2151887 -0.28607884
0.17806078 1.2303888 -0.30046472
0.10436542 0.97857213 -0.2484546
0.26511806 1.1907917 -0.31913719
0 0 -0
0 0 -0
0 0 -0
0.53582472 2.3933768 0.7577129
0.42797175 2.3258469 0.70239961
0.33291054 2.2957089 0.66442472
0.24688296 2.3051207 0.63991696
0.53020841 2.3752897 0.64979911
0.4274984 2.3198621 0.60391325
0.33339983 2.2869971 0.56823409
0.24943562 2.3031368 0.54565871
0.53383803 2.3917465 0.55653751
0.42617846 2.3145125 0.50977385
0.33654478 2.3023767 0.48080742
0.24970596 2.2903216 0.45296645
0.53036225 2.3787124 0.4591772
0.42670372 2.3139634 0.41904435
0.33834487 2.3065336 0.39232916
0.25405347 2.3219223 0.3706198
0.5276503 2.3655772 0.36473459
0.43002173 2.3253562 0.33218026
0.33983061 2.3082447 0.30517367
0.25591445 2.3198304 0.283012
0.53604013 2.4012182 0.27818719
0.42963159 2.3230197 0.24417351
0.34230247 2.3185754 0.21989481
0.25592715 2.3095891 0.19627234
0.5367499 2.4026229 0.18778656
0.4344238 2.3448117 0.15885246
0.34264398 2.3169699 0.13402326
0.25764742 2.3180912 0.11088914
0.53166521 2.3763537 0.096143678
0.43177539 2.3241754 0.070738293
0.34474659 2.3230627 0.048291992
0.2586734 2.318476 0.025448579
0.53808957 2.4034932 0.0070069465
0.43537292 2.3387666 -0.016234737
0.34305829 2.3053124 -0.037508685
0.25989813 2.3217306 -0.059911516
0.53925991 2.4028187 -0.083413601
0.43711436 2.3433473 -0.10320218
0.34506384 2.3090999 -0.12342095
0.26115817 2.327842 -0.14614287
0.53828651 2.3910587 -0.17301719
0.4342348 2.3211675 -0.18916698
0.3430545 2.2931898 -0.2077958
0.19166149 1.7038182 -0.17029005
0.5131439 2.2764084 -0.25111243
0.24603745 1.312006 -0.15633953
0.19364698 1.2921449 -0.16538313
0.16538523 1.4670024 -0.20162362
0.26450664 1.1689334 -0.17364407
0.23275718 1.2373731 -0.1944425
0.19588532 1.3036652 -0.21675408
0.15626843 1.3841813 -0.24293756
0.27316794 1.2029179 -0.22557448
0.23548321 1.2486262 -0.24477822
0.19214271 1.2734627 -0.26071084
0.16064233 1.4189249 -0.30404955
0.26400673 1.1574298 -0.26327348
0.23220108 1.2281625 -0.2894631
0.18792886 1.244651 -0.30422345
0.13287637 1.1773497 -0.29912463
0.26032171 1.1363337 -0.30496454
0.18934187 0.99736959 -0.27587619
0 0 -0
0.085199021 0.75514156 -0.22308397
0.5601505 2.431942 0.7709958
0.44492373 2.3373027 0.7066704
0.34742188 2.2964747 0.66525078
0.26199904 2.3121827 0.64231157
0.54563797 2.3757582 0.65083092
0.44462729 2.3324213 0.60788143
0.34669641 2.280108 0.56704026
0.26444861 2.3092992 0.5474928
0.55614281 2.4216912 0.56428874
0.44256654 2.3233745 0.5123142
0.35066557 2.3002684 0.48080742
0.26678735 2.3150649 0.45817518
0.54802412 2.388823 0.46176937
0.44532126 2.3345113 0.42325231
0.35189471 2.3005149 0.39166531
0.26840919 2.321301 0.37077653
0.54480964 2.3738606 0.36652029
0.44558412 2.3294826 0.33315402
0.35564217 2.3168969 0.3066003
0.26853517 2.3044119 0.28132671
0.55143094 2.4007893 0.27852422
0.44443798 2.3232708 0.24448194
0.35758272 2.3233197 0.2205487
0.26986209 2.3059962 0.19610402
0.5523755 2.4031713 0.1880908
0.44936648 2.345042 0.15905187
0.3586795 2.3266642 0.13470881
0.27105111 2.3095222 0.11055671
0.5453397 2.3691518 0.095985875
0.44734833 2.3283536 0.070947669
0.35914695 2.3218915 0.048312549
0.27266046 2.3148587 0.025426762
0.55888718 2.4264572 0.0070837582
0.45103836 2.3429246 -0.016282504
0.35949555 2.3179851 -0.037750054
0.27320063 2.31215 -0.059706423
0.55893952 2.4208884 -0.084158354
0.4529984 2.348469 -0.1035482
0.36091584 2.3177931 -0.12400164
0.27426305 2.3162844 -0.1455202
0.54934692 2.3721623 -0.17189051
0.44998348 2.3262885 -0.18980578
0.35420418 2.2723432 -0.20609987
0.20293345 1.7095274 -0.1709819
0.54147542 2.3352048 -0.25795996
0.23933722 1.2344174 -0.14726625
0.20646952 1.322299 -0.16940156
0.16876574 1.4187343 -0.19512834
0.26516828 1.139335 -0.16948579
0.2414771 1.2417424 -0.19535825
0.1964031 1.2546695 -0.20880426
0.16021441 1.345046 -0.23623705
0.26891035 1.1514078 -0.21622051
0.23806697 1.2211353 -0.2396708
0.20117028 1.2800056 -0.26229814
0.1641261 1.3742098 -0.29467818
0.26998886 1.1510357 -0.26219094
0.23132417 1.1836886 -0.27931044
0.1960154 1.2463551 -0.30492824
0.11510503 0.96662712 -0.24576198
0.27305645 1.1591985 -0.31154469
0.20363311 1.0378548 -0.28741473
0 0 -0
0.088923492 0.74698228 -0.22083059
0.57660323 2.4349673 0.77306199
0.45962688 2.33641 0.70723987
0.36300254 2.3037961 0.66800427
0.27641022 2.3124459 0.64284378
0.56153733 2.3780074 0.65237874
0.46248794 2.3477082 0.61259365
0.36447701 2.3019161 0.57300913
0.27942994 2.3143976 0.54909772
0.57211208 2.4229786 0.56539613
0.45851308 2.3292458 0.51421952
0.36554074 2.3029094 0.48181918
0.27992252 2.3046179 0.45643899
0.56898838 2.4121964 0.46695361
0.45982763 2.332701 0.42342767
0.36708939 2.3051295 0.39282703
0.28181115 2.3127477 0.36967957
0.57094759 2.4195573 0.37410966
0.46178928 2.3364196 0.33454508
0.37094682 2.3215251 0.30750817
0.28327447 2.3076472 0.28192857
0.56957728 2.4118667 0.28020954
0.46196404 2.3370893 0.24622972
0.37120166 2.3171494 0.22017506
0.2830312 2.296385 0.1954307
0.5749076 2.4327297 0.19067678
0.46607244 2.353986 0.15984945
0.37152544 2.3155479 0.13419466
0.2861971 2.3157463 0.11093663
0.57022142 2.4095175 0.097761206
0.46610257 2.3481147 0.071635611
0.37418148 2.3245795 0.04841534
0.2866129 2.3111575 0.025404945
0.57768244 2.4395249 0.0071321218
0.46794152 2.3528631 -0.01637122
0.37371165 2.3157356 -0.037750054
0.28701243 2.3074543 -0.059629522
0.58578515 2.4679785 -0.08591871
0.47247601 2.37112 -0.10467278
0.37624863 2.3224354 -0.12437116
0.2890875 2.3195097 -0.14583153
0.57082212 2.3978589 -0.17400306
0.46503007 2.3273935 -0.19012518
0.37148854 2.2907736 -0.20797431
0.27115327 2.170366 -0.21723597
0.55694646 2.3366745 -0.25849494
0.24944234 1.245586 -0.14877847
0.20901181 1.2867335 -0.1650064
0.17340644 1.3852289 -0.19066286
0.26110217 1.0914861 -0.16260312
0.24208604 1.2053556 -0.1898638
0.2102827 1.2914239 -0.21513167
0.17054726 1.3606547 -0.23915778
0.29961821 1.2482576 -0.23474856
0.24497381 1.2167636 -0.2391033
0.20459341 1.2516632 -0.25674266
0.17255501 1.3731769 -0.29467818
0.27384356 1.13607 -0.2591598
0.24128082 1.1956166 -0.28246903
0.20491442 1.2528031 -0.30680761
0.14900199 1.1890993 -0.3025516
0.285171 1.1781877 -0.31711251
0.241612 1.192641 -0.33068427
0 0 -0
0.09338595 0.74547052 -0.22054893
0.59537268 2.4471657 0.77807999
0.47929662 2.3598497 0.71521193
0.37790883 2.3062689 0.66938108
0.28987226 2.3049679 0.64124727
0.6027711 2.4843702 0.68255997
0.47997364 2.3600154 0.61656189
0.3792254 2.3034689 0.57396412
0.29239959 2.3029835 0.54680508
0.59846407 2.4668064 0.57646924
0.4739643 2.3321352 0.51548976
0.38093993 2.3083532 0.4834381
0.29567382 2.31551 0.45894688
0.58863962 2.4287159 0.47084183
0.48080727 2.3626366 0.42938897
0.38219285 2.308671 0.39382279
0.29687491 2.3178325 0.37077653
0.60232651 2.484241 0.38467517
0.47730437 2.3393636 0.33537966
0.38420972 2.3133364 0.30673
0.29831761 2.312758 0.28277126
0.59139472 2.4372959 0.28358015
0.47927848 2.3488297 0.24777186
0.38672057 2.322685 0.22092235
0.29775602 2.2995462 0.19585153
0.598764 2.4659762 0.19356696
0.48010784 2.3491268 0.15971652
0.38556215 2.3122399 0.13413751
0.30117244 2.3198898 0.11122157
0.59278566 2.4380143 0.099063106
0.48150465 2.3501065 0.071785159
0.38942742 2.3281562 0.048538692
0.30156341 2.3153048 0.025470395
0.59784085 2.4573107 0.007194709
0.48598886 2.3675795 -0.016494054
0.38923651 2.3212876 -0.037878782
0.30116531 2.3056498 -0.059629522
0.60304832 2.4730766 -0.086223386
0.4868148 2.3671978 -0.10462953
0.38982874 2.3161438 -0.12416
0.30422091 2.3246198 -0.14626741
0.58481348 2.3914044 -0.17379181
0.48091239 2.3323066 -0.190764
0.38686118 2.2963083 -0.20868839
0.27411166 2.0897293 -0.20932928
0.57221931 2.3370759 -0.2589229
0.25426641 1.2304149 -0.14714994
0.21739835 1.2883615 -0.16538313
0.17260753 1.3134092 -0.18091996
0.27700436 1.1273457 -0.16819529
0.24807361 1.1970736 -0.18879543
0.21343061 1.2618942 -0.21042667
0.17657961 1.3420019 -0.23606522
0.2750141 1.1155481 -0.21010447
0.24943945 1.2008163 -0.23626584
0.21981552 1.2948338 -0.2658695
0.18021001 1.3662741 -0.29342866
0.28245136 1.1410022 -0.26067537
0.24344957 1.1693157 -0.27660307
0.21080697 1.240981 -0.30422345
0.12797 0.9728322 -0.24772024
0.28726104 1.1557604 -0.31154469
0.23629156 1.1306819 -0.31390095
0 0 -0
0.10183661 0.77437437 -0.22928074
0.61616582 2.4666402 0.78545928
0.49691239 2.3718765 0.71976745
0.39382669 2.3143315 0.67240995
0.30451438 2.3069685 0.64231157
0.62080634 2.4918752 0.68565547
0.49623543 2.3655591 0.61879402
0.39678824 2.3212001 0.578978
0.30703899 2.3050053 0.5477221
0.61500317 2.4687655 0.57779807
0.49187443 2.3464007 0.51930034
0.39757726 2.3204508 0.48647347
0.310918 2.3214324 0.4604902
0.61254936 2.4612958 0.47787759
0.49549732 2.3606052 0.4295643
0.39818865 2.3169732 0.39564836
0.3118802 2.3218403 0.3717168
0.60991341 2.4497921 0.37991327
0.49266908 2.3412364 0.33607522
0.39907071 2.3148439 0.3072488
0.31276885 2.3128512 0.283012
0.61714882 2.4770098 0.28863603
0.49409133 2.3477917 0.2479775
0.39994779 2.3143821 0.22036189
0.31400445 2.3134744 0.19719817
0.6206376 2.4893456 0.19569658
0.49677646 2.3568764 0.16044763
0.4038285 2.3334405 0.13550861
0.31594005 2.3219573 0.11141153
0.608702 2.4382088 0.099220909
0.49632886 2.3490639 0.07184498
0.40370539 2.3257229 0.048538692
0.31671077 2.3203461 0.02554675
0.61436152 2.4594173 0.0072117783
0.50112814 2.3674877 -0.016514527
0.40535769 2.3296914 -0.038055785
0.31544238 2.3047488 -0.059655156
0.62112409 2.4809637 -0.086629622
0.50506091 2.3817582 -0.10540809
0.40746868 2.3333828 -0.1252158
0.31861436 2.3236983 -0.14632969
0.46223766 1.8411378 -0.13400559
0.50454211 2.3731875 -0.19435728
0.40385911 2.3105705 -0.21020579
0.29695377 2.1609602 -0.21664296
0.33738664 1.3422567 -0.14893417
0.25849986 1.213289 -0.14528875
0.22119381 1.26355 -0.16236933
0.18796 1.3653288 -0.18822713
0.28028575 1.1112306 -0.16604446
0.24219941 1.1336745 -0.17902753
0.22781986 1.2984653 -0.21675408
0.18158251 1.3174714 -0.2319418
0.28137118 1.1119323 -0.20974468
0.25248507 1.1790993 -0.2322934
0.22010781 1.2500236 -0.25694105
0.18885761 1.3670805 -0.29384515
0.28656223 1.1278929 -0.25807726
0.25123304 1.1706575 -0.27727991
0.21318899 1.2099887 -0.29694089
0.13605434 0.98739666 -0.25163674
0.28645656 1.1230409 -0.30319297
0.25419739 1.1801527 -0.32806188
0 0 -0
0.10959781 0.79559726 -0.23575918
0.63010311 2.4581857 0.78398347
0.51610988 2.3903341 0.72631598
0.41002479 2.3232319 0.67571419
0.32038003 2.3174698 0.64577061
0.637281 2.4926991 0.68694526
0.51155967 2.3662572 0.61978608
0.41102338 2.3187218 0.578978
0.32265529 2.3136823 0.55024403
0.64052528 2.5055711 0.58732098
0.50626242 2.3433385 0.51930034
0.4116365 2.3170035 0.48627111
0.3239302 2.3107355 0.45875394
0.64368975 2.5203328 0.49009761
0.51163763 2.3652186 0.43096697
0.41257083 2.3154573 0.39581433
0.32529593 2.3140147 0.37077653
0.63888627 2.5006146 0.38839543
0.51374096 2.3691385 0.34052655
0.41553462 2.3250408 0.30893484
0.32806695 2.3187523 0.28397506
0.64316607 2.5155354 0.29357961
0.51249331 2.3631859 0.24993089
0.41589662 2.3216848 0.22129603
0.32777351 2.3085444 0.19694567
0.64529169 2.5221982 0.19858676
0.51313466 2.3625593 0.16104582
0.42025399 2.3427107 0.13619414
0.33201101 2.3328309 0.1120289
0.64497674 2.5176728 0.10261375
0.51626146 2.3713677 0.072622657
0.41938445 2.3310742 0.04870316
0.33179006 2.3242986 0.0256122
0.64756656 2.5263147 0.0074194544
0.51884151 2.3790236 -0.01661689
0.42106432 2.3350325 -0.038184516
0.33071116 2.3106866 -0.059860244
0.64454126 2.5090499 -0.087746762
0.52179801 2.3883748 -0.10584062
0.42373434 2.3416476 -0.12579647
0.33272466 2.3207116 -0.14626741
0.35383812 1.3736287 -0.1001345
0.51930749 2.3710208 -0.19443715
0.41785139 2.3070691 -0.21011654
0.32435936 2.2575963 -0.22652631
0.30415219 1.1793804 -0.13106634
0.26487499 1.2068294 -0.14470713
0.22044359 1.2153136 -0.15634169
0.19689855 1.3680726 -0.18876842
0.28685093 1.1085317 -0.16590106
0.2610456 1.1862177 -0.18757445
0.22713508 1.2494717 -0.20880426
0.17982858 1.2480782 -0.21991521
0.28546983 1.0997115 -0.20776597
0.25865766 1.1727334 -0.23134758
0.2233765 1.2245444 -0.25198081
0.18899477 1.308782 -0.28155825
0.29372367 1.127058 -0.25829378
0.25483686 1.1529225 -0.27344444
0.21921307 1.2010081 -0.2950615
0.17722321 1.2303001 -0.3138116
0.27840555 1.0641694 -0.28775495
0.2614339 1.1785706 -0.32806188
0.15332201 0.83876592 -0.24074925
0.10873305 0.75502181 -0.22392897
0.64250237 2.4441087 0.78073657
0.53513628 2.4067733 0.73229504
0.42530945 2.3263464 0.67736626
0.33404228 2.3116443 0.64470631
0 0 0
0.52901632 2.3763123 0.62325823
0.4273473 2.3276172 0.58184302
0.33726677 2.3145485 0.55093187
0.65069342 2.4817846 0.58267021
0.52530068 2.3611763 0.52395773
0.42690891 2.3202131 0.48748529
0.33923995 2.3164713 0.46029729
0.64220917 2.4516926 0.47750729
0.52721095 2.3668394 0.43184361
0.42838088 2.32161 0.39730793
0.33891439 2.3080666 0.3701497
0.65471905 2.4985607 0.38869306
0.52913117 2.3698075 0.34108296
0.43159732 2.3321974 0.3102318
0.34243345 2.3176777 0.28409544
0.65732878 2.5067356 0.29301783
0.53543812 2.3978574 0.25394046
0.43067908 2.322026 0.22157627
0.34500092 2.327189 0.19871312
0.65544111 2.4979377 0.19698957
0.53001666 2.3700774 0.16177694
0.43498531 2.3420513 0.1363084
0.3480804 2.3426061 0.11259878
0.65685809 2.500138 0.10206144
0.5305835 2.3671799 0.072592743
0.4355104 2.3382859 0.048908748
0.34604543 2.3222189 0.0256122
0.66508949 2.5300312 0.0074422141
0.54219186 2.4148226 -0.016889857
0.43721864 2.3422339 -0.03834543
0.34532616 2.3115799 -0.059937153
0.66043359 2.5069807 -0.087814473
0.53885448 2.3958502 -0.10631641
0.44066823 2.3527451 -0.12653551
0.34754884 2.3225746 -0.14651649
0.36175036 1.3695029 -0.099993661
0.53099591 2.3551486 -0.19339909
0.43053132 2.2966301 -0.20940247
0.34056655 2.2713091 -0.22810765
0.30884111 1.1678798 -0.12999642
0.26548997 1.1751488 -0.14110108
0.23119137 1.2314889 -0.15860204
0.19601804 1.3051105 -0.18024337
0.29034793 1.0943153 -0.164037
0.25805798 1.1392918 -0.18040113
0.22403359 1.1908399 -0.19923204
0.20110509 1.33755 -0.23589341
0.29094717 1.0931863 -0.20686655
0.26410955 1.1634636 -0.22983426
0.23143134 1.2260399 -0.25257602
0.20081061 1.3327436 -0.28697279
0.28778175 1.0771315 -0.2472519
0.26233849 1.1532371 -0.27389571
0.22513501 1.1919994 -0.29318213
0.18347171 1.2205602 -0.31160855
0.29144549 1.0867362 -0.2943351
0.26157358 1.1458979 -0.31940797
0.15649828 0.82740766 -0.23776028
0.11179518 0.74390304 -0.22083059
0.68309045 2.5351419 0.81113952
0.55181807 2.4118547 0.7348575
0.44386423 2.3463631 0.68397474
0.34778884 2.3066914 0.64390808
0 0 0
0.5489949 2.3966291 0.62945861
0.44252735 2.3297215 0.58303678
0.3508772 2.3085864 0.55001479
0.66261876 2.4655025 0.57979119
0.55002904 2.4026849 0.53390759
0.44443357 2.3348665 0.49112776
0.35389158 2.3172562 0.46087605
0 0 0
0.54722232 2.3875508 0.43622693
0.44539127 2.3334675 0.39979735
0.3547143 2.3166823 0.3718735
0.67260283 2.5040467 0.39018118
0.54720968 2.3819582 0.34330863
0.44552645 2.3275576 0.30997241
0.35876369 2.3292692 0.28578073
0.67372924 2.5064938 0.29346725
0.55259109 2.4051909 0.25507137
0.45110852 2.3516071 0.22465891
0.35912162 2.3240438 0.19862896
0.66454035 2.4707599 0.19516417
0.5496949 2.3891454 0.16330564
