# .PCD v0.7 - Point Cloud Data file format
VERSION 0.7
FIELDS x y z
SIZE 4 4 4
TYPE F F F
COUNT 1 1 1
WIDTH 1652
HEIGHT 1
VIEWPOINT 0 0 0 1 0 0 0
POINTS 1652
DATA ascii
1.8758947 1.1510956 -0.3398928
1.1443251 0.7615065 -0.22600181
0.90588242 0.65205353 -0.19465931
1.5641323 0.88110274 -0.3282882
2.0904403 1.2813905 -0.47234255
2.0088966 1.3350774 -0.48828724
1.7666422 1.2707855 -0.4633632
1.5182998 0.8533656 -0.38624987
2.0255449 1.2403469 -0.55004758
1.9721833 1.3103806 -0.57226896
1.8035769 1.298309 -0.56104225
1.5340437 0.86031294 -0.4601042
1.5462373 0.94524705 -0.49248621
1.9722054 1.3096511 -0.668446
1.7536572 1.262467 -0.63432461
5.3877721 3.0131915 1.9071224
5.4447112 3.3247378 1.8947991
5.1912069 3.4470382 1.7848326
4.6321254 3.3313096 1.574914
6.2361031 3.4927788 1.9083819
5.8736782 3.5845697 1.7616408
5.2164488 3.4581614 1.5387683
0 0 0
0 0 0
0 0 0
6.8687716 4.5497465 1.7024548
6.7444682 4.8310137 1.6311039
0 0 0
0 0 0
0 0 0
0 0 0
0 0 0
0 0 0
0 0 0
0 0 0
1.1703917 0.65549779 0.15167718
1.2418371 0.75676423 0.15030807
5.142045 3.395417 0.57813466
4.635426 3.3079739 0.48100191
0 0 0
1.1232122 0.68399155 0.087601483
5.1420264 3.3936007 0.35253945
0 0 0
1.2278209 0.68690211 0.05554793
5.8941016 3.5853257 0.20644216
5.1577468 3.4002292 0.12703116
1.9528677 1.391412 0.026157603
1.2288686 0.68726295 0.0040055956
1.2963111 0.78788292 -0.010352288
6.8387408 4.5044823 -0.13178727
0 0 -0
1.2512145 0.69890046 -0.048545085
1.2680906 0.77009451 -0.064231023
1.4933795 0.98233867 -0.094492517
1.2246721 0.8714475 -0.093775526
1.2449306 0.69430757 -0.10062742
1.2869345 0.7806161 -0.12057499
0 0 -0
0 0 -0
1.2714549 0.70863491 -0.15663767
1.2112801 0.7340036 -0.1658781
1.1275351 0.74101138 -0.17078288
0.99091655 0.70430535 -0.16603501
2.1388054 1.1897472 -0.35460097
2.1162796 1.2807938 -0.38201693
1.15475 0.7582621 -0.22713752
0.86087972 0.61167663 -0.18417898
1.5729493 0.87339896 -0.32900774
1.5957557 0.9647404 -0.35922244
2.0424585 1.3393875 -0.49443793
1.7983309 1.2769092 -0.46961081
1.492764 0.82700133 -0.37845558
1.6169871 0.97657448 -0.43746603
2.013515 1.3201057 -0.58190078
1.8107189 1.2866564 -0.56079751
1.4986522 0.82841849 -0.44795623
1.5354798 0.92577636 -0.48724139
1.9954984 1.3075469 -0.67360878
1.75746 1.2489041 -0.63291627
5.4061594 2.9800761 1.9071224
5.4740424 3.2967074 1.8979311
5.2790012 3.4588504 1.8076869
4.7515178 3.3731329 1.6084397
6.2624922 3.4572506 1.9099296
5.903862 3.5534577 1.7641211
5.3391519 3.4925373 1.5686125
0 0 0
0 0 0
0 0 0
6.8678679 4.4887629 1.6953722
6.7980189 4.8065333 1.6368912
0 0 0
0 0 0
0 0 0
0 0 0
0 0 0
0 0 0
0 0 0
0 0 0
1.1569934 0.63869959 0.14943011
1.1901876 0.71531177 0.14352262
5.1686215 3.3676066 0.57878858
0 0 0
1.1139516 0.61471075 0.097049676
1.1376525 0.68325138 0.088399068
5.1585693 3.359262 0.35225382
0 0 0
1.2215123 0.67356545 0.055074509
5.9571323 3.5737748 0.20787786
5.1491799 3.3494372 0.12631162
0 0 0
1.2304351 0.67826158 0.0039970605
1.3036942 0.78145641 -0.010372761
1.8586664 1.2079633 -0.035674281
6.7256665 4.7263842 -0.21080548
1.2440977 0.68494385 -0.048105001
1.2487932 0.74792582 -0.063019931
1.4834636 0.96282738 -0.09348952
1.1687413 0.82089293 -0.089105435
1.2491673 0.6866557 -0.10062742
1.3524356 0.80903739 -0.1262444
0 0 -0
0 0 -0
1.2461503 0.68454421 -0.15299989
1.2149085 0.72604793 -0.16576178
1.1611947 0.75297076 -0.17517804
1.0171191 0.71357602 -0.1696886
2.1330485 1.1694647 -0.35245016
2.1224015 1.2667716 -0.38171169
1.1436464 0.74096805 -0.22405493
0.87590837 0.6143021 -0.18658431
1.4954385 0.81839579 -0.31173888
1.5982716 0.95291942 -0.35846579
2.046524 1.324168 -0.4934459
1.8253546 1.2793233 -0.47460887
1.4909554 0.81408352 -0.37672356
1.6313188 0.97161967 -0.43972218
2.0256577 1.3103658 -0.5830754
1.8360431 1.2877704 -0.56618273
1.4595304 0.79514021 -0.43479592
1.5469376 0.91978973 -0.48907709
1.9889367 1.2858731 -0.66871774
1.8247904 1.279973 -0.65432334
5.4125891 2.9404631 1.90299
5.4702654 3.2488613 1.8896742
5.4042702 3.4937212 1.8432072
4.7997561 3.363276 1.6177526
6.2751007 3.4141424 1.9073502
6.2921009 3.7347324 1.873247
5.3980126 3.4839342 1.5795951
4.8370833 3.3808794 1.390054
0 0 0
0 0 0
5.4089031 3.4880219 1.32991
6.8378429 4.7720308 1.6393991
0 0 0
0 0 0
0 0 0
0 0 0
0 0 0
0 0 0
0 0 0
0 0 0
1.1905675 0.64773428 0.15325013
1.158615 0.68669474 0.13920461
5.3876762 3.4634264 0.60092747
0 0 0
1.2464659 0.67789239 0.10823017
1.183032 0.70066434 0.091589406
0 0 0
0 0 0
1.212453 0.65890092 0.054482736
5.9221697 3.5035648 0.20590377
0 0 0
0 0 0
1.2222718 0.66401583 0.003957232
1.2516497 0.73985875 -0.0099223647
1.8828773 1.2073302 -0.035996106
6.7356482 4.6719236 -0.21021585
1.2394924 0.67253089 -0.047766469
1.2464771 0.73618484 -0.062673911
1.480093 0.94778329 -0.092908844
0 0 -0
1.262128 0.68372947 -0.1013316
1.3092953 0.77236164 -0.12177275
1.1869855 0.75982791 -0.126302
1.0314655 0.71461016 -0.124629
1.3194011 0.71427941 -0.16145234
1.2227632 0.72059679 -0.16622707
1.1866852 0.75919777 -0.17831743
1.0524323 0.72875559 -0.17483068
2.1227701 1.1469457 -0.34958237
2.1122482 1.2431977 -0.37850657
1.0957928 0.70045525 -0.21383375
0.95256114 0.65937865 -0.20204708
1.4891765 0.80313438 -0.30940038
1.5837729 0.93115044 -0.35392585
2.1091356 1.3463926 -0.50654095
1.850062 1.2797841 -0.47898221
1.4873252 0.80029386 -0.37455848
1.602808 0.94136333 -0.43047199
2.0746279 1.3240584 -0.59482145
1.8502877 1.2808954 -0.56814098
1.4737579 0.79120344 -0.43757984
1.5467248 0.90686399 -0.48724139
1.7744728 1.1318413 -0.59426481
1.8460211 1.2780371 -0.65911174
5.4254756 2.9044909 1.9012189
5.4826522 3.2108755 1.8871118
5.487205 3.4997842 1.8641341
4.9130616 3.3979149 1.6488837
6.2925253 3.3737485 1.9063182
6.2045364 3.6314604 1.8405093
5.4880939 3.4945595 1.5996505
0 0 0
0 0 0
0 0 0
5.6028919 3.5646348 1.3722032
6.8484097 4.7171831 1.6349621
0 0 0
0 0 0
0 0 0
4.9522724 3.4083214 0.95389551
0 0 0
1.1148757 0.65158677 0.18139158
1.1636252 0.73863173 0.18027684
5.0233588 3.4506602 0.73900926
1.2225434 0.65544128 0.15684544
1.1688181 0.68308598 0.13992427
5.4903831 3.4820268 0.60998857
4.9296899 3.3827722 0.50498891
1.2286308 0.6584565 0.10632873
1.2088495 0.7059719 0.09325105
0 0 0
4.8777061 3.3447218 0.28118828
1.2296861 0.65852487 0.055074509
1.2191024 0.7111609 0.042233601
0 0 0
4.9676437 3.4033351 0.065688528
1.2404289 0.66405511 0.0040027504
1.2691249 0.73971808 -0.010024727
1.896165 1.1994963 -0.036108747
4.9543548 3.3915634 -0.1539703
1.2391889 0.66255671 -0.047597203
1.2440641 0.72450054 -0.062327888
1.4901018 0.94135046 -0.093172796
0 0 -0
1.2654196 0.6755026 -0.10126119
1.2571412 0.73123491 -0.11650258
1.4063705 0.88814539 -0.14906314
0 0 -0
1.3342859 0.71178591 -0.16273625
1.2323142 0.71607453 -0.16692501
1.1879654 0.74978405 -0.17781512
1.0397055 0.71054435 -0.17198899
2.0406632 1.0864594 -0.33495671
2.1266749 1.2341822 -0.3797276
2.1216829 1.3379607 -0.41241682
0.95333546 0.65129858 -0.20135985
1.5618311 0.829988 -0.32343134
1.5631213 0.90614843 -0.34806177
2.1322856 1.3428272 -0.51011235
1.8918061 1.2915704 -0.4877288
1.4835821 0.78657955 -0.37239337
1.536051 0.88952464 -0.41106915
2.1016319 1.3232154 -0.60022461
1.8965394 1.2957727 -0.57989055
1.4649022 0.77490783 -0.43353051
1.5430703 0.89204377 -0.48435676
1.5875254 0.99894679 -0.529594
1.8855175 1.2883388 -0.67037857
5.4550261 2.8773868 1.9053514
5.5254946 3.1905959 1.8950839
5.5614653 3.4993277 1.8820319
4.9871612 3.4041154 1.6667109
6.3173795 3.3373313 1.907608
0 0 0
5.593308 3.5135067 1.6240034
4.9594712 3.3765936 1.4132102
0 0 0
0 0 0
5.7789412 3.6270206 1.4098423
4.9921756 3.3936343 1.1868185
0 0 0
0 0 0
0 0 0
5.0384526 3.4222651 0.96643227
1.2327415 0.65147763 0.20982283
1.1240009 0.64770037 0.18222621
1.1387219 0.71305943 0.17573749
5.0551195 3.4270141 0.74057418
1.2001837 0.63400364 0.15347484
1.2048763 0.69427639 0.14372826
1.1681648 0.73084378 0.12928395
4.9511786 3.3530192 0.50507307
1.2335296 0.65137094 0.10640478
1.1768416 0.67762983 0.090459503
0 0 0
4.9535627 3.3522382 0.28437009
1.2195637 0.64350635 0.054443285
1.2217102 0.70267057 0.042173781
0 0 0
4.9859471 3.3711097 0.065655805
1.2197144 0.64336812 0.0039230934
1.2242202 0.7035172 -0.0096357483
1.8780414 1.1719587 -0.035626009
5.0347128 3.4013929 -0.15581608
1.2529576 0.6600647 -0.047969587
1.2476197 0.71635592 -0.06228463
1.5000874 0.93483043 -0.09343674
0 0 -0
1.2615948 0.66354632 -0.10062742
1.2616043 0.72350752 -0.11650258
1.5664991 0.97587562 -0.1653976
0 0 -0
1.3386282 0.70358551 -0.16273625
1.2409939 0.71096838 -0.16750664
1.1925436 0.7424807 -0.17781512
1.1155107 0.75235069 -0.18376164
1.433805 0.75211012 -0.23458439
2.1333499 1.2206192 -0.37957498
2.1197982 1.3186626 -0.41046995
1.0487977 0.70711672 -0.22060244
1.4849766 0.77749896 -0.30652225
1.5354034 0.87753755 -0.34068438
2.1171737 1.3152369 -0.50455689
1.9751319 1.3307642 -0.50709635
1.4814579 0.77384561 -0.37066135
1.5397879 0.87911671 -0.41061792
2.0915458 1.2990128 -0.59505641
1.9398263 1.3079615 -0.59066099
1.4559025 0.75875092 -0.42948118
1.5384539 0.8768248 -0.48120987
1.5535594 0.96431786 -0.51627946
1.9140712 1.2906928 -0.67770207
5.4581661 2.8363714 1.9003333
5.5433021 3.1556838 1.8945144
5.6057024 3.4793324 1.8897418
5.0583215 3.4073789 1.6834737
6.3497362 3.3047504 1.9112195
6.4178786 3.6513371 1.8903599
5.6840992 3.5220852 1.6440587
0 0 0
0 0 0
0 0 0
0 0 0
6.8707428 4.6092815 1.6266667
0 0 0
0 0 0
0 0 0
0 0 0
1.1683016 0.60828131 0.1982156
1.1382864 0.64666128 0.18389545
1.0873983 0.67166787 0.16717757
0 0 0
1.1723194 0.6101132 0.14943011
1.2402494 0.70455796 0.14742939
1.1988928 0.7398715 0.13217977
0 0 0
1.2251192 0.6373474 0.10533998
1.2382473 0.70290613 0.094846219
0 0 0
0 0 0
1.2234893 0.63601112 0.054443285
1.2259986 0.69516104 0.042173781
0 0 0
4.9932299 3.3315735 0.065481275
1.2404985 0.64463311 0.0039771465
1.2232934 0.69303477 -0.0095948037
1.3640858 0.83964866 -0.025778171
2.0885706 1.3924263 -0.064372197
1.256097 0.65190387 -0.047935732
1.2511222 0.70819503 -0.062241375
1.4947356 0.91881019 -0.092750482
1.2234186 0.81520754 -0.091720685
1.2612141 0.65349823 -0.10027533
1.2408557 0.70152605 -0.11418691
1.2381089 0.7607944 -0.13022941
1.1156753 0.74293643 -0.13312869
1.3031888 0.67478585 -0.15792157
1.2704126 0.71750492 -0.17088003
1.2097579 0.74293709 -0.17969877
1.1102083 0.73890436 -0.18213783
1.4093788 0.72830516 -0.22985254
2.1390777 1.2065352 -0.37926972
2.1211209 1.3015025 -0.409172
1.0301516 0.68538874 -0.21579179
1.4530009 0.74943393 -0.29896712
1.5518805 0.8743661 -0.34314352
2.1260395 1.3027334 -0.50475526
1.9914049 1.3240352 -0.50917888
1.4861783 0.764741 -0.37066135
1.5137407 0.85197252 -0.4022702
1.612942 0.98809999 -0.4571574
1.9696101 1.310536 -0.59727013
1.4510635 0.7449432 -0.42669728
1.5404398 0.86547786 -0.48016092
1.5471357 0.94722962 -0.51220357
1.946718 1.2954022 -0.68643385
5.4644108 2.7971678 1.8964961
5.5592165 3.1197345 1.8933755
5.6236658 3.442863 1.8886403
5.2059712 3.4605911 1.7255139
6.3492603 3.2551482 1.9050285
6.511982 3.6521685 1.9114411
5.827405 3.5615845 1.6791556
0 0 0
0 0 0
0 0 0
0 0 0
6.8628955 4.5432053 1.6181784
0 0 0
0 0 0
0 0 0
0 0 0
1.1764113 0.60335767 0.19895965
1.2277707 0.687567 0.19766675
0 0 0
0 0 0
1.1707355 0.60018861 0.148756
1.2271914 0.68721455 0.1453732
1.1957557 0.72784221 0.13133904
5.1175623 3.3748431 0.51778197
1.2192458 0.624816 0.10450334
1.1937759 0.66800958 0.091124155
1.1787537 0.71709865 0.078951471
5.1427884 3.3890324 0.29282331
1.2122489 0.62074965 0.053772606
1.2215159 0.68274862 0.041874677
5.9415731 3.610456 0.14296404
5.1046124 3.3608088 0.066670261
1.2230669 0.62607366 0.0039088693
1.2231575 0.68307793 -0.0095606828
1.2820338 0.77833611 -0.024136864
1.9300439 1.2697015 -0.059244979
1.2600733 0.64418435 -0.047935732
1.2502095 0.69758421 -0.061981861
1.3936046 0.84490728 -0.086151838
1.1558446 0.75998098 -0.086303376
1.2678657 0.64710772 -0.10048658
1.244266 0.69341385 -0.11410705
1.2308286 0.74595594 -0.12897977
1.0844525 0.71257913 -0.12887883
1.2984476 0.66225952 -0.15685165
1.2799978 0.71259493 -0.17157798
1.2185365 0.73807007 -0.18032664
1.1370819 0.74676335 -0.18579142
1.4349887 0.73041815 -0.23329389
2.1257102 1.1818618 -0.37560678
2.1282227 1.2879522 -0.40900975
2.0365582 1.3370246 -0.42488304
1.450556 0.73693997 -0.29752806
1.5314629 0.8505249 -0.33746856
1.6474694 0.9956367 -0.38967741
2.0428343 1.3402268 -0.52021629
1.4873593 0.75384212 -0.36979529
1.5078651 0.83652437 -0.39933723
1.6123189 0.97416323 -0.45527804
1.9792354 1.2994905 -0.59775972
1.4573338 0.73689866 -0.42720345
1.5279932 0.84619188 -0.4746539
1.5471519 0.93423653 -0.51030147
1.9634526 1.2892262 -0.68953228
5.4627018 2.7541232 1.8900023
5.590837 3.0925252 1.8976464
5.6710196 3.4241931 1.8974516
5.2843351 3.46612 1.7444055
6.3673892 3.2152576 1.9045125
6.5351167 3.6126118 1.911689
5.8865743 3.5483203 1.6898994
0 0 0
0 0 0
0 0 0
0 0 0
6.8684626 4.4865212 1.6129695
0 0 0
0 0 0
0 0 0
0 0 0
1.1721476 0.59211522 0.19762036
1.2128929 0.66949248 0.19460645
1.1151072 0.67001903 0.17016058
0 0 0
1.2444696 0.62837636 0.15763192
1.2000344 0.66236746 0.14167204
1.1703223 0.70255613 0.12806958
5.1465254 3.3488133 0.51862359
1.2052537 0.60833734 0.10298219
1.1882414 0.65537131 0.090393029
1.2139512 0.72834355 0.081008092
5.151763 3.3497901 0.29215845
1.231202 0.62094915 0.054443285
1.2178028 0.67089981 0.04160548
5.9481778 3.5646803 0.14259396
1.8883852 1.2267447 0.024565022
1.2340288 0.62215877 0.0039316285
1.2246977 0.67411333 -0.0095402105
1.253329 0.75042319 -0.023509305
1.8900033 1.2268111 -0.057783723
1.2550757 0.63194591 -0.047597203
1.2465875 0.68556696 -0.061592579
1.3713359 0.81994152 -0.084462583
1.1127604 0.72191221 -0.082754105
1.2842898 0.64558828 -0.10147244
1.2388868 0.68048733 -0.11322869
1.216574 0.72714776 -0.12701608
1.0946493 0.70970106 -0.12957068
1.3051521 0.65561879 -0.15717262
1.2869585 0.70616096 -0.17192695
1.2085633 0.72193038 -0.17819186
1.1649244 0.75485867 -0.18958031
1.4040546 0.70385885 -0.22755834
2.1173215 1.1602476 -0.37285951
2.1208336 1.2657667 -0.4060894
2.0678747 1.3394998 -0.4296937
1.4480127 0.72450435 -0.29608896
1.5142577 0.82885367 -0.33255032
1.5861932 0.94536632 -0.3738046
2.0625141 1.3351078 -0.52313185
1.4744866 0.73598146 -0.36546513
1.4847616 0.81183314 -0.39189196
1.5957204 0.95081806 -0.44893515
2.0522714 1.3294942 -0.61734229
1.6246381 0.80901694 -0.47478297
1.5026629 0.82015681 -0.46521324
1.5495477 0.92275614 -0.50921458
1.9640787 1.2724589 -0.68699723
5.5111613 2.7362738 1.9009237
5.5979238 3.0517385 1.8936603
5.6820111 3.3834298 1.8941474
5.3840017 3.4844334 1.770215
6.4008389 3.1830106 1.9086398
6.5307889 3.5580776 1.9040008
6.6703458 3.9651685 1.9078816
0 0 0
0 0 0
0 0 0
0 0 0
6.8034887 4.3847594 1.5913631
0 0 0
0 0 0
0 0 0
0 0 0
1.1952366 0.59460169 0.20089419
1.1839222 0.64405525 0.1893205
1.2394769 0.73443419 0.18844765
0 0 0
1.2064841 0.5999344 0.15235129
1.2416488 0.67543054 0.14609288
1.1746111 0.69536191 0.12806958
5.4462047 3.4964349 0.54665047
1.222357 0.60758787 0.10412306
1.2045134 0.65473938 0.091323555
1.2209752 0.72240633 0.081179485
0 0 0
1.2323041 0.61204952 0.054324929
1.2236532 0.66436875 0.041665301
1.2239406 0.72332478 0.029234231
1.9017698 1.2189116 0.02464138
1.2306577 0.61101758 0.0039088693
1.2314478 0.66801643 -0.0095606828
1.2613539 0.74475223 -0.023573669
1.9118065 1.2243562 -0.058219537
1.2580342 0.62378907 -0.047563352
1.2498922 0.67742914 -0.061549328
1.2619328 0.74405485 -0.07744164
1.4349192 0.91845441 -0.10629139
1.2766051 0.63194287 -0.10055701
1.2658309 0.68521047 -0.11530482
1.2253031 0.72219801 -0.12746237
1.113234 0.71208662 -0.13125084
1.3055855 0.6458348 -0.15674464
1.3349501 0.72187257 -0.17774315
1.223228 0.72054356 -0.17969877
1.1887342 0.7599715 -0.19269262
1.3941481 0.68822122 -0.22526412
2.1096179 1.1392509 -0.37026492
2.1285603 1.2527297 -0.4060894
2.0984671 1.3411099 -0.43433252
1.4197822 0.69951999 -0.28943327
1.4864742 0.80183184 -0.32536209
1.6198487 0.95200396 -0.38035214
2.0962212 1.3387471 -0.52958775
1.4851079 0.72993481 -0.36698067
1.4734198 0.79392713 -0.38760528
1.5529172 0.91244876 -0.43530968
2.0881674 1.3346301 -0.62566495
1.6495503 0.80882937 -0.48060387
1.4668733 0.78897971 -0.45262575
1.5518609 0.9112817 -0.50812769
1.6031886 1.0247399 -0.55855489
5.5407224 2.7087009 1.9053514
5.6199212 3.0191474 1.8947991
5.6860847 3.3387663 1.8886403
5.4637775 3.4886832 1.7893727
6.4011593 3.1343286 1.9029647
6.5533514 3.5183966 1.9042487
6.7087917 3.9325137 1.9119405
5.5672774 3.5454748 1.5546687
0 0 0
0 0 0
0 0 0
6.8178444 4.3350339 1.5884693
0 0 0
1.2586831 0.67557013 0.25440726
0 0 0
0 0 0
1.2228398 0.59900182 0.20491208
1.1738873 0.62929267 0.18709484
1.2525213 0.73181725 0.18974461
1.1561596 0.73306149 0.16600321
1.2404854 0.60737699 0.15617132
1.1730049 0.6287933 0.13755965
1.1573594 0.67559338 0.12573425
5.4936523 3.4794803 0.5492596
1.1982988 0.58648789 0.10176526
1.189158 0.63697141 0.089861311
1.1952028 0.69729251 0.07917998
0 0 0
1.229753 0.60140383 0.054048769
1.2321135 0.65920579 0.041814856
1.2205815 0.71127087 0.029049205
1.9100583 1.207754 0.024652287
1.2388756 0.6056509 0.0039230934
1.2399329 0.6628049 -0.0095948037
1.2296078 0.71586972 -0.022897838
1.9082963 1.2056612 -0.057886269
1.2681248 0.61912751 -0.047800321
1.2522629 0.6688059 -0.061462823
1.2500716 0.72676152 -0.076438643
1.461625 0.92295474 -0.10784809
1.2876321 0.62759423 -0.10112035
1.2691319 0.67696142 -0.11522496
1.2185165 0.70816004 -0.126302
1.2438153 0.7849009 -0.14607586
1.3041606 0.63519955 -0.1561027
2.1212285 1.1302855 -0.28150421
1.2344891 0.7170105 -0.18070336
1.2101359 0.76323438 -0.19539899
1.3671912 0.66451204 -0.22024548
2.0755634 1.1044651 -0.36309162
2.143888 1.244103 -0.40754959
2.1291564 1.3423945 -0.43897134
1.4231626 0.69036585 -0.28925338
1.4800942 0.78670466 -0.32290298
1.5841064 0.91796738 -0.37063003
2.1134987 1.3315949 -0.53187847
1.4649525 0.70890146 -0.36091846
1.4739612 0.78258723 -0.3864772
1.550076 0.8980304 -0.43296048
2.1201015 1.336789 -0.63276362
1.6814905 0.81173086 -0.48844945
1.4563389 0.77183026 -0.44790542
1.5540918 0.89981359 -0.50704074
1.5704883 0.99031758 -0.54503471
5.5314107 2.6622219 1.8964961
5.6459656 2.9886439 1.8973618
5.7189436 3.3110397 1.8927706
5.5462527 3.4936249 1.8093284
6.3985128 3.0845041 1.8965157
6.6065001 3.4948804 1.9134252
6.6907568 3.8669791 1.9000027
5.6021147 3.5195329 1.5583371
0 0 0
0 0 0
0 0 0
0 0 0
0 0 0
1.1905698 0.62963283 0.23985468
0 0 0
0 0 0
1.2238201 0.5901987 0.20446564
1.2048711 0.6364159 0.19140707
1.1203777 0.64542037 0.16912301
1.0890955 0.68120664 0.15577096
1.2450838 0.60018551 0.15628366
1.2524824 0.6615364 0.1464013
1.2054915 0.69380796 0.13049832
1.1763314 0.73497134 0.11715742
1.2027731 0.57955706 0.10184132
1.1930439 0.62966287 0.089861311
1.1760927 0.67650527 0.077637516
0 0 0
1.2352206 0.59471381 0.054127671
1.2308297 0.64883655 0.041635394
1.2153869 0.69828939 0.028823061
1.911494 1.192307 0.02457593
1.2371621 0.5954358 0.0039060242
1.2377832 0.6519224 -0.0095470343
1.2227041 0.70184064 -0.022688651
1.8443936 1.1495138 -0.055732835
1.2655944 0.60830408 -0.047563352
1.2439653 0.65459615 -0.060857274
1.2562401 0.72007072 -0.076544218
1.5019938 0.93560451 -0.11040107
1.2779685 0.61320865 -0.10006408
1.2635556 0.66406035 -0.1143466
1.2297523 0.70463145 -0.12701608
1.7892771 1.113819 -0.20932928
1.3062404 0.62632567 -0.15588871
1.7385541 0.91272748 -0.22997266
1.24317 0.71188736 -0.18133125
1.2206851 0.7594586 -0.19634621
1.3542809 0.64799464 -0.2175211
1.4267132 0.74799728 -0.24877653
2.148912 1.2294548 -0.40706286
2.124805 1.3215009 -0.43639424
1.4007417 0.66890371 -0.28385687
1.4570571 0.76303083 -0.31684971
1.5463071 0.88343376 -0.36051112
2.1174757 1.3160201 -0.53083718
1.4454771 0.68856329 -0.35507277
1.4778723 0.77307689 -0.3862516
1.5378324 0.87837845 -0.42802715
1.796469 1.1173825 -0.53411615
1.7441106 0.82880348 -0.50515288
1.4790111 0.77225947 -0.45341247
1.5420321 0.88024193 -0.50133449
1.5504633 0.96444499 -0.53602123
5.5372801 2.623323 1.892954
5.6633472 2.9535012 1.8970768
5.7491708 3.2816052 1.8960748
5.6682925 3.5221047 1.842056
6.4321575 3.052227 1.9009011
6.6252427 3.452935 1.9126812
6.7371392 3.8388331 1.9064492
5.7344713 3.5537999 1.589059
7.1281905 3.3826654 1.7918605
0 0 0
0 0 0
0 0 0
0 0 0
1.2502896 0.65142995 0.25107595
1.1486974 0.65317595 0.22238624
0 0 0
1.1863258 0.56317091 0.19762036
1.2096318 0.62946808 0.19154617
1.208813 0.68652171 0.18183318
1.2487099 0.77042323 0.17792077
1.2137316 0.57592148 0.15190189
1.2203401 0.6350134 0.14218609
1.2149217 0.68934619 0.13105881
1.1901501 0.73349053 0.11808324
1.1972976 0.56789303 0.10108075
1.1880323 0.61772752 0.089196652
1.190643 0.67518592 0.078323059
0 0 0
1.2361376 0.58583969 0.054009315
1.2294654 0.63850796 0.041455928
1.216169 0.68884784 0.028740827
1.2757759 0.78494126 0.016340321
1.2407923 0.58783352 0.0039060242
1.2453104 0.6461575 -0.0095743313
1.2304682 0.69629478 -0.022753015
1.3012686 0.79996866 -0.03917193
1.2674962 0.59967226 -0.047495648
1.2444105 0.64511174 -0.060684264
1.2493325 0.70596242 -0.07585796
1.4796441 0.90912873 -0.10834623
1.2952367 0.61174572 -0.10112035
1.2711473 0.65812808 -0.11466601
1.2375215 0.69903195 -0.12737311
1.2041693 0.73937833 -0.14034352
1.3100588 0.61829889 -0.15588871
1.3550688 0.70082831 -0.17867374
1.2475147 0.70424598 -0.18133125
1.2244775 0.75143605 -0.19621089
1.3555454 0.63840771 -0.21709093
1.4233732 0.73514736 -0.24740289
2.1366472 1.2050968 -0.40333131
2.1337132 1.3089535 -0.43656605
1.3932464 0.65485662 -0.28151837
1.4442583 0.74507225 -0.31306642
1.5448668 0.87008142 -0.35892385
2.1305141 1.3060699 -0.53208673
1.4426033 0.67636549 -0.35334072
1.4808558 0.76310176 -0.38580036
1.5279475 0.86034161 -0.42379856
1.595855 0.97907412 -0.47267568
2.0278375 0.94842261 -0.58563316
1.5558053 0.80024695 -0.47544062
1.5230819 0.85707682 -0.49345446
1.5530804 0.95290613 -0.53489453
5.5550046 2.5901051 1.8935444
5.6651626 2.9103732 1.8916674
5.7842789 3.2547529 1.9010311
5.8056803 3.5582831 1.879573
6.4892821 3.0306914 1.9122514
6.6307921 3.404254 1.908217
6.7114611 3.7698395 1.8926015
5.8475237 3.5743887 1.6142786
7.1443944 3.3368006 1.7907531
0 0 0
0 0 0
0 0 0
1.2677721 0.59246534 0.26365659
1.2323661 0.6325075 0.24669264
0 0 0
0 0 0
1.2229073 0.57136881 0.20312634
1.2064215 0.61842024 0.19043334
1.1818557 0.66165417 0.17716414
1.0829562 0.65901732 0.15372452
1.2451527 0.58149755 0.15538484
1.1994283 0.61480904 0.13930741
1.2478037 0.69791704 0.13414145
1.1810046 0.71789271 0.1167366
1.2079875 0.56391001 0.1016892
1.1989049 0.61406517 0.089728378
1.1886632 0.66445756 0.077923156
5.933362 3.6039956 0.33005548
1.2297478 0.57359761 0.053575348
1.2333601 0.63095206 0.041455928
1.2212456 0.68185997 0.028761385
5.8677039 3.5607505 0.074873142
1.2498138 0.5827446 0.0039230934
1.2528133 0.64032465 -0.0096016275
1.2277317 0.68483502 -0.022624286
1.2651216 0.76709056 -0.037941396
1.2783999 0.59525865 -0.047766469
1.2527943 0.63973582 -0.060900532
1.2588751 0.701199 -0.076174699
1.4715375 0.89175653 -0.10734995
1.2962523 0.60252541 -0.1009091
1.2716095 0.64850461 -0.1143466
1.2470087 0.69433272 -0.12790866
1.2010226 0.72733647 -0.13945402
1.3084177 0.60773587 -0.15524675
1.323059 0.67401588 -0.17390446
1.844776 1.0265361 -0.267225
1.2231319 0.7403174 -0.19526367
1.3540496 0.62758124 -0.21623059
1.4216913 0.72326308 -0.24633454
2.1164038 1.176621 -0.39813963
2.140862 1.2953267 -0.43639424
1.3900958 0.64299172 -0.28007931
1.4540553 0.73886544 -0.31420141
1.5073302 0.83679968 -0.34900334
2.133466 1.2899364 -0.53083718
1.4493858 0.66872817 -0.35399023
1.4820354 0.75223726 -0.38489792
1.4983523 0.83161032 -0.41416678
1.5636737 0.94617409 -0.46141565
2.1768684 1.0018922 -0.62688565
1.5512171 0.78588831 -0.47255597
1.4980152 0.83091033 -0.48367232
1.5564355 0.94186842 -0.53404951
5.5725293 2.5567682 1.8941346
5.6726494 2.870364 1.8882507
5.7906899 3.2117395 1.8966256
5.8818507 3.5555053 1.8971341
6.5068779 2.9904132 1.9119933
6.6576071 3.366564 1.909953
6.8024302 3.7662168 1.9117017
5.8935199 3.5530157 1.6209272
7.16119 3.2912717 1.7898674
0 0 0
0 0 0
0 0 0
0 0 0
0 0 0
0 0 0
0 0 0
1.2443594 0.57211608 0.20610256
1.2243373 0.61814719 0.19265901
1.1919702 0.65774339 0.17807201
1.1380513 0.68301123 0.16094728
1.234251 0.56720769 0.15358719
1.1907468 0.60116184 0.13786808
0 0 0
1.2101718 0.72549081 0.11917737
1.2023641 0.55232507 0.10092863
1.1964141 0.60355145 0.089263119
1.1769782 0.64847946 0.07689485
5.9099488 3.5403156 0.32753849
1.2377849 0.56812531 0.053772606
1.2309598 0.62022412 0.041246556
1.2201509 0.67146152 0.028638033
5.9177566 3.5416253 0.075233109
1.2479125 0.57256281 0.0039060242
1.2477869 0.62812918 -0.0095333857
1.2196442 0.67054492 -0.022399008
1.2577929 0.75213081 -0.037582491
1.2774854 0.58532184 -0.047597203
1.2495557 0.62844568 -0.060554504
1.2500234 0.68625295 -0.075382859
1.4024471 0.8381654 -0.10193263
1.2935749 0.59165609 -0.10041618
1.2791278 0.6424796 -0.11466601
1.2416407 0.68139714 -0.12692681
1.2131519 0.72454566 -0.14034352
1.3175477 0.60217589 -0.15588871
1.3067518 0.65564066 -0.17122902
2.106776 1.1554551 -0.30414423
1.221696 0.72924364 -0.19431645
1.3488704 0.61515462 -0.21479671
1.395177 0.69903147 -0.24099271
1.6363881 0.89665508 -0.30679786
2.1436937 1.2791375 -0.43536338
1.396701 0.63567263 -0.28061897
1.4427553 0.72201943 -0.31079647
1.498679 0.8200078 -0.34582877
1.6129361 0.9617486 -0.39984599
1.4232367 0.64610124 -0.34662896
1.4866232 0.74312949 -0.38489792
1.4744327 0.80654067 -0.40617943
1.5561284 0.92861211 -0.45749912
2.1671116 0.98133284 -0.62233013
1.5888227 0.79272699 -0.48252106
1.4743747 0.80600756 -0.47443363
1.5547699 0.9278751 -0.53151447
5.6055288 2.5303898 1.9000381
5.709888 2.8453367 1.8947991
5.8052268 3.1733816 1.8949735
5.9043846 3.5198417 1.8974003
6.5136595 2.9452567 1.9086398
6.665998 3.3196046 1.9064808
6.832231 3.7281284 1.9136118
6.7158971 3.9928215 1.8403372
7.182138 3.2476711 1.7900887
0 0 0
0 0 0
0 0 0
1.2534593 0.56714088 0.25921294
1.1862738 0.59057242 0.23599736
1.1527311 0.62767726 0.22089261
0 0 0
1.227124 0.55509621 0.20267993
1.1935251 0.59342873 0.18723395
1.1985968 0.65183836 0.17846109
1.2097117 0.71595949 0.17045724
1.2531003 0.56658322 0.15549719
1.1872876 0.59030157 0.13704561
1.2606485 0.6849286 0.13460851
1.1940142 0.70588136 0.11715742
1.2020961 0.54329455 0.1006244
1.1929462 0.59264761 0.088731393
1.1835672 0.64267468 0.077066235
1.2134887 0.71685147 0.067008384
1.2366941 0.55846351 0.053575348
1.2266837 0.60866094 0.040977363
1.2233692 0.66348559 0.028617475
1.2262826 0.72371656 0.015533122
1.2504908 0.56448358 0.0039031794
1.2399703 0.61468726 -0.0094446717
1.2316477 0.66733563 -0.022543829
1.2606621 0.74338341 -0.037531219
1.2819639 0.57788306 -0.047631059
1.2507024 0.6194365 -0.060424745
1.2603587 0.68189633 -0.075752385
1.3310375 0.78444391 -0.096390784
1.2935421 0.58207035 -0.1001345
1.2901938 0.63815439 -0.11530482
1.2633201 0.68324202 -0.128712
1.2252917 0.7216332 -0.14123301
1.3194041 0.59326476 -0.15567473
1.3178737 0.65112984 -0.1721596
2.1269174 1.1495821 -0.30602786
1.2346861 0.72675973 -0.19566962
1.3562313 0.60848701 -0.21537027
1.3914633 0.68652213 -0.23961909
1.5220407 0.82189614 -0.28440863
2.13537 1.2564677 -0.43209901
1.3808234 0.61824709 -0.27666152
1.4251382 0.70230186 -0.30606735
1.4855657 0.80102801 -0.34166217
1.6179639 0.95133799 -0.39963776
1.4182601 0.63337523 -0.34446388
1.4885327 0.73270303 -0.38422105
1.4904767 0.80347466 -0.40923342
1.5542762 0.91462088 -0.4552961
2.1669061 0.96526158 -0.62055856
1.6412934 0.80636704 -0.49694428
1.487765 0.80151021 -0.47715089
1.5571263 0.91637117 -0.53038776
5.6218228 2.496335 1.9003333
5.7272391 2.8102479 1.8947991
5.8254352 3.1381574 1.8952488
5.9258704 3.4835467 1.8974003
6.5210156 2.9005225 1.9055444
6.7114658 3.2910094 1.9136733
6.8515568 3.6842968 1.9126568
6.7327127 3.947108 1.8382738
7.195693 3.2007668 1.7885385
0 0 0
0 0 0
0 0 0
0 0 0
1.1907593 0.58371586 0.23617271
0 0 0
1.0836148 0.63367802 0.19917876
1.2097274 0.53830969 0.19925728
1.190918 0.5830462 0.18626022
1.1894644 0.63744617 0.17651565
1.1686397 0.6820038 0.16407715
1.2184207 0.54192334 0.15077834
1.1989276 0.5869416 0.13797088
1.2499057 0.66919154 0.13302048
1.2448096 0.72564036 0.12170233
1.2199849 0.54238951 0.10184132
1.2037306 0.58882421 0.089263119
1.1901292 0.6368134 0.077237621
1.1980126 0.69782871 0.065916114
1.2391844 0.55045915 0.053535897
1.2232106 0.5976125 0.04073808
1.2300626 0.65738034 0.028679151
1.229836 0.71567571 0.015522216
1.2566727 0.55801761 0.0039117141
1.2401241 0.60531288 -0.0094173755
1.2313091 0.65741122 -0.022463374
1.2479155 0.72558451 -0.0370185
1.2900538 0.5720318 -0.047800321
1.2562755 0.61262643 -0.06051125
1.2618754 0.6727407 -0.075594015
1.3013082 0.75620359 -0.093900062
1.3043866 0.57735229 -0.10069785
1.2967737 0.63153523 -0.11554436
1.2701255 0.67688292 -0.12897977
1.2193702 0.70810473 -0.14004701
1.3175639 0.5827449 -0.15503277
1.3120197 0.63825202 -0.17088003
2.1278014 1.1332455 -0.30514884
1.2391223 0.71917015 -0.19566962
1.3545069 0.59775645 -0.21450993
1.3920938 0.67624408 -0.23900861
1.4808862 0.78797525 -0.27580982
1.875479 1.0881094 -0.37815109
1.3701868 0.60341942 -0.27378339
1.4294207 0.69354415 -0.30606735
1.4921838 0.79281741 -0.34205899
1.6339246 0.94727916 -0.4021368
1.4069242 0.6179865 -0.34078327
1.4728366 0.71378374 -0.37903193
1.4859359 0.78929836 -0.40664926
1.5523112 0.9006874 -0.45309302
2.1736741 0.95233572 -0.62081164
1.6601096 0.80300432 -0.50114012
1.4909549 0.79146391 -0.47660744
1.5428019 0.8952418 -0.52362764
5.6230249 2.4556751 1.8956106
5.7668171 2.7858951 1.9022018
5.8454299 3.1028049 1.8955241
5.9688172 3.4596891 1.9043183
6.5528526 2.8666513 1.9096717
6.7376399 3.2527149 1.9154093
6.8731761 3.6417322 1.912418
6.7947268 3.9276428 1.8485909
7.1973295 3.1487377 1.7841094
0 0 0
0 0 0
0 0 0
0 0 0
1.197865 0.5781101 0.23687403
1.2649611 0.66879463 0.24080779
0 0 0
1.2746092 0.55783695 0.20937639
1.2194508 0.587767 0.19015513
1.195107 0.63106173 0.17677505
1.1710814 0.67383015 0.16383639
1.2253646 0.53602999 0.15122776
1.2275962 0.59166658 0.14084958
1.1562406 0.60994542 0.12265161
0 0 0
1.2178085 0.53249675 0.10138498
1.1965332 0.57623196 0.088465534
1.2010792 0.63322377 0.07769464
1.1988071 0.68847489 0.065726154
1.2361289 0.54004502 0.053259734
1.2295567 0.5913955 0.040827807
1.2261112 0.64562804 0.028494123
1.2316022 0.7066232 0.015489491
1.2609893 0.55069649 0.0039145588
1.2348018 0.59336114 -0.0093491338
1.2397442 0.65217119 -0.022543829
1.2514768 0.71741658 -0.036992863
1.2962878 0.56530398 -0.047901884
1.254607 0.60231227 -0.060251728
1.2624433 0.66312784 -0.075382859
1.2366439 0.70851219 -0.088918634
1.3015023 0.56655091 -0.10020491
1.3006243 0.62356645 -0.11554436
1.2760186 0.67000288 -0.12915829
1.2297372 0.70407045 -0.14073886
1.3265851 0.57702899 -0.15567473
1.3069534 0.62589967 -0.16971681
1.4328066 0.75184953 -0.20481388
2.0940187 1.1982247 -0.32949898
1.3563335 0.58864611 -0.21422316
1.3837348 0.66172045 -0.23687187
1.4376268 0.75367504 -0.26688659
1.5999304 0.91516733 -0.32145417
1.3576155 0.58796394 -0.27054545
1.3920044 0.66486931 -0.29717666
1.4822586 0.77591926 -0.33868602
1.564132 0.8940385 -0.38360226
1.3766322 0.59463114 -0.33255595
1.4569652 0.69508505 -0.37384281
1.4769717 0.7729547 -0.4028905
1.5460261 0.88440549 -0.44966608
2.1839192 0.94089437 -0.62207711
1.7233809 0.82059872 -0.51871014
1.5077221 0.78854483 -0.48041162
1.536606 0.87908787 -0.5196842
5.6327195 2.4188645 1.8938396
5.7820711 2.7496347 1.9016324
5.8413577 3.0548508 1.8880897
5.989933 3.4230001 1.9043183
6.5854068 2.8328803 1.914057
6.7592211 3.2121439 1.9159054
6.9065833 3.6053329 1.9155219
0 0 0
7.2003894 3.0975797 1.7801229
0 0 0
0 0 0
0 0 0
9.9560413 4.2857275 2.0422277
0 0 0
1.103742 0.57491916 0.20944138
0 0 0
1.297991 0.55860549 0.21265022
1.1774054 0.55862468 0.18306084
1.1936789 0.6209712 0.17599688
1.1726035 0.66516238 0.16347525
1.2833985 0.55205995 0.15796897
1.1934586 0.56621563 0.13653155
1.2103177 0.62900984 0.12797618
0 0 0
1.2173889 0.52343899 0.10108075
1.2027513 0.57016158 0.088664934
1.2031701 0.6249218 0.077580385
1.2177858 0.68947238 0.066533484
1.2412556 0.53323901 0.053338639
1.225935 0.58041823 0.040588528
1.2389244 0.64269644 0.028699709
1.2298223 0.69560695 0.015413134
1.2634258 0.54255426 0.0039117141
1.2420352 0.58748364 -0.00937643
1.2366205 0.64087147 -0.0224151
1.2401897 0.70087105 -0.036531411
1.289628 0.55300677 -0.0475295
1.267312 0.59887135 -0.060684264
1.261167 0.65261549 -0.075066127
1.2592176 0.71121842 -0.090226263
1.3022029 0.5573768 -0.099993661
1.2963127 0.61174554 -0.11482571
1.2756823 0.65987271 -0.128712
1.2409669 0.70042467 -0.14152952
1.3291867 0.56848741 -0.15556774
1.3008868 0.6132102 -0.16843723
1.4100727 0.728921 -0.20092104
2.115139 1.1931422 -0.33166409
1.3617402 0.58108956 -0.21450993
1.3609436 0.64059097 -0.23229316
1.4413475 0.74438691 -0.26672432
1.6089481 0.90726864 -0.32214141
1.3593875 0.57885194 -0.27018571
1.3889486 0.65297341 -0.29566333
1.4626005 0.75423169 -0.33313054
1.5380602 0.86665899 -0.3758969
1.3847481 0.5880813 -0.33363849
1.4603209 0.68571812 -0.3736172
1.476503 0.7612052 -0.401481
1.5362219 0.86632979 -0.44525999
2.903203 1.2297174 -0.8247962
1.7292573 0.81041831 -0.5189724
1.5304978 0.78853488 -0.48611784
1.5018548 0.84701806 -0.50616401
5.6606584 2.3898313 1.8982671
5.7910199 2.7104475 1.89907
5.8463182 3.0119071 1.883684
6.0007453 3.3805046 1.9011253
6.5750799 2.7807531 1.9060603
6.749845 3.1570652 1.9077209
6.9328933 3.5651073 1.9167156
0 0 0
7.1986032 3.0446038 1.7750292
0 0 0
0 0 0
1.1074158 0.62108749 0.24963313
10.002966 4.233367 2.0464861
1.2191385 0.57003891 0.23967935
1.1519951 0.59109545 0.21790533
0 0 0
1.3159654 0.5567959 0.21503119
1.1897836 0.5555796 0.18445188
1.1824651 0.60594785 0.17379205
1.2000575 0.67103654 0.1667255
1.2995745 0.54959333 0.15954192
1.2419746 0.57992429 0.14167204
1.1893395 0.60886794 0.12536059
0 0 0
1.221496 0.51634759 0.1011568
1.2053229 0.56234902 0.088598467
1.2007604 0.61434442 0.07718049
1.2115266 0.67614579 0.065963604
1.242663 0.52483517 0.053259734
1.2340034 0.57499593 0.04073808
1.2366126 0.63189793 0.028555799
1.2253336 0.68317837 0.015304053
1.2676523 0.53518075 0.0039145588
1.240177 0.57731944 -0.0093354844
1.2512162 0.63872695 -0.022608195
1.2497066 0.69616717 -0.036685232
1.2966808 0.54663628 -0.047664914
1.2736804 0.59234786 -0.060814019
1.2598094 0.64214385 -0.074749388
1.2574536 0.70008016 -0.089790381
1.3138733 0.55285811 -0.10062742
1.3018501 0.60461974 -0.11498541
1.2850319 0.65474588 -0.12924756
1.2600242 0.70102167 -0.1432097
1.3280671 0.55839413 -0.15503277
1.3091297 0.60730642 -0.16901885
1.3641266 0.69459617 -0.19376324
2.1302135 1.1844748 -0.33288193
1.3725811 0.57578582 -0.21565704
1.3621583 0.6309821 -0.23183529
1.4212619 0.72300172 -0.26218158
1.559377 0.86674869 -0.31114566
1.3756173 0.57581753 -0.27270406
1.3857994 0.64114022 -0.29415002
1.4672008 0.74524313 -0.33313054
1.5057271 0.83630943 -0.36673376
1.3856276 0.57844526 -0.33298898
1.4556572 0.67265821 -0.37136105
1.4828792 0.75301141 -0.40195084
1.4855771 0.82579643 -0.42910433
2.6436493 1.1006954 -0.74912453
2.1583266 0.99539614 -0.64589643
1.5662023 0.79480749 -0.49589998
1.4701239 0.8172735 -0.49377045
5.6911001 2.361645 1.9035803
5.8066711 2.6744623 1.8987852
5.8715472 2.9794583 1.8858869
5.9758668 3.3183508 1.8867571
6.5866656 2.7381315 1.9045125
6.7717295 3.1168046 1.9084649
6.9399104 3.5150416 1.9126568
0 0 0
7.21805 3.0007513 1.7752508
8.4052372 3.8700769 2.0043764
0 0 0
0 0 0
10.035104 4.1745524 2.0477822
1.2235075 0.56295919 0.23985468
1.2136884 0.61337227 0.22885868
1.1576289 0.63936353 0.20983507
1.2426609 0.51681346 0.20253111
1.2399611 0.5697695 0.19168527
1.2153722 0.6134246 0.17807201
1.1893719 0.65551442 0.16467904
1.2891589 0.53588772 0.15785661
1.2536443 0.57603049 0.14259733
1.2090553 0.60962743 0.12704203
0 0 0
1.2274036 0.50999069 0.10138498
1.2123778 0.5566079 0.088864326
1.2062904 0.60786366 0.077294745
1.191147 0.65521938 0.064633884
1.2495515 0.51873291 0.053417541
1.2320566 0.56491375 0.040558614
1.2306428 0.61935425 0.028329656
1.2347604 0.67853642 0.015369501
1.269065 0.52662593 0.0039088693
1.2400596 0.56803328 -0.0093081882
1.2533252 0.63013935 -0.022576014
1.2373054 0.67934465 -0.036198143
1.2907774 0.53484398 -0.047326382
1.2809249 0.5861845 -0.060987037
1.2556937 0.63036954 -0.074274287
1.2573507 0.6899507 -0.089479037
1.3126318 0.54287976 -0.10027533
1.2964692 0.59247714 -0.11418691
1.2899154 0.64729548 -0.12933682
1.2817525 0.70284611 -0.14518636
1.3305494 0.54985499 -0.15492578
1.3146385 0.60008717 -0.1692515
1.3302296 0.66708976 -0.18836349
2.1504743 1.1785245 -0.3349117
1.3742584 0.56659853 -0.21537027
1.3561121 0.61810344 -0.23015642
1.4018515 0.70233351 -0.25780109
1.4929556 0.8178795 -0.29688552
1.3736663 0.56512058 -0.27162477
1.3870262 0.63140458 -0.29358253
1.4507084 0.72570276 -0.32836869
1.4945295 0.81813139 -0.36277694
1.3674735 0.56103867 -0.32779279
1.4455676 0.65726215 -0.36775124
1.4744313 0.73737687 -0.39842701
1.4753103 0.80827993 -0.42469823
1.4621714 0.59828138 -0.41328391
2.1731813 0.98612171 -0.6485188
1.6304482 0.81486881 -0.51464909
1.4801598 0.81100392 -0.49546048
5.7028294 2.3255982 1.9026947
5.8212256 2.6379917 1.8982158
5.8879981 2.9425154 1.885336
6.0248656 3.2973559 1.8958038
6.5997643 2.6962035 1.9034806
6.8021984 3.0803907 1.911689
6.9622164 3.4728262 1.9128954
0 0 0
7.3455567 3.0010316 1.8020477
8.4403992 3.8236735 2.0071287
0 0 0
0 0 0
10.068716 4.1162462 2.0494485
0 0 0
1.1618105 0.57823235 0.21840321
1.2066381 0.6568017 0.21798399
0 0 0
1.2380198 0.55970287 0.19085066
1.1880361 0.59050888 0.17353266
1.2256486 0.66573608 0.16913308
1.2731055 0.52007616 0.15549719
1.2571552 0.56832749 0.14259733
1.2020723 0.59688383 0.12592107
1.2419589 0.67380947 0.11934571
1.2342023 0.50395757 0.1016892
1.2166796 0.54956919 0.088930793
1.2055259 0.59823155 0.077009104
1.2170984 0.65979946 0.065821134
1.253636 0.51143348 0.053456992
1.2427888 0.56063151 0.0407979
1.2308367 0.61001569 0.028247422
1.2248322 0.66332829 0.015194971
1.2676426 0.51694119 0.0038946448
1.2380515 0.55794853 -0.0092672426
1.2598561 0.62376815 -0.022624286
1.2432089 0.67269135 -0.036249414
1.3023655 0.53030592 -0.047631059
1.2817645 0.57708341 -0.060857274
1.2640139 0.62486559 -0.074538231
1.2720954 0.68791986 -0.090226263
1.3205588 0.53669322 -0.10062742
1.3182631 0.592686 -0.11578392
1.2938629 0.63936853 -0.12933682
1.2676564 0.68503332 -0.14311086
1.3375829 0.54317689 -0.15535374
1.3201079 0.59282315 -0.16948414
1.3076117 0.64573669 -0.18459621
2.117563 1.143649 -0.32868707
1.377709 0.5581556 -0.21537027
1.3544687 0.60734475 -0.2292407
1.3990551 0.69022608 -0.25650313
1.5083483 0.81431955 -0.29894724
1.377108 0.55668128 -0.27162477
1.3828087 0.61926997 -0.29188007
1.4006213 0.68993521 -0.31606725
1.5021037 0.81033885 -0.36340171
1.3790395 0.55592263 -0.32974136
1.4406803 0.64440215 -0.36549509
1.4798 0.72874546 -0.39866191
1.475123 0.79644847 -0.42322955
1.4335005 0.57630712 -0.40417296
2.1721416 0.96962196 -0.6464209
1.6397349 0.80697399 -0.51600772
1.4842638 0.80145073 -0.49517882
5.7116704 2.2884305 1.9009237
5.8338003 2.6006622 1.8970768
5.9111176 2.9088788 1.8869882
6.0322576 3.2534618 1.8918126
6.6143909 2.6549375 1.9029647
6.8192019 3.0378067 1.9111931
6.9886241 3.4326103 1.9143281
0 0 0
8.2317095 3.3042769 2.0144312
8.4753065 3.7769837 2.0098808
0 0 0
0 0 0
10.099256 4.0565863 2.0505595
1.3238573 0.58955592 0.25808924
1.1511683 0.56414932 0.21574785
1.1566844 0.62044102 0.20826797
0 0 0
1.3310091 0.59193379 0.20462194
1.1604657 0.56795228 0.16899332
1.1964514 0.64040118 0.16455866
1.2827277 0.51484561 0.15628366
1.2488033 0.55534863 0.1412608
1.199451 0.58643568 0.12526718
1.1810422 0.63141108 0.11311752
1.2381966 0.49674645 0.10176526
1.2163814 0.54047287 0.088664934
1.210071 0.59126168 0.077066235
1.1990979 0.64055282 0.064633884
1.2641704 0.50670576 0.053772606
1.2416372 0.55096829 0.040648349
1.2264699 0.59850568 0.028062394
1.2341723 0.65862507 0.015260421
1.2670776 0.50766563 0.0038832652
1.2487652 0.55358356 -0.0093218358
1.2564698 0.61252099 -0.022495557
1.2490773 0.66599119 -0.036300685
1.2944598 0.51785016 -0.047224823
1.2861949 0.56961232 -0.060900532
1.261539 0.61403871 -0.074168712
1.2762924 0.68010151 -0.090226263
1.3256799 0.52932018 -0.10076826
1.3154935 0.58176398 -0.11522496
1.2879097 0.62662411 -0.12835497
1.2876459 0.68566102 -0.14488986
1.3381203 0.53385419 -0.15503277
1.3318974 0.58832377 -0.17053106
1.3061961 0.6350984 -0.18384276
2.0843062 1.1092225 -0.32246247
1.3820274 0.55005753 -0.21551365
1.3464146 0.59383786 -0.22725658
1.3935006 0.67688608 -0.25471848
1.493313 0.79440767 -0.29499564
1.3786691 0.54749489 -0.271265
1.3775963 0.60681522 -0.28998843
1.4207021 0.68902677 -0.31963864
1.4906384 0.79238421 -0.35944489
1.3706245 0.5427776 -0.32692677
1.4330146 0.63045007 -0.36256209
1.4781212 0.71668333 -0.39701748
1.4816941 0.78829312 -0.42371911
1.4370097 0.56750047 -0.40417296
2.1674471 0.9516204 -0.64327401
1.6862266 0.81704032 -0.52905059
1.4916947 0.79368043 -0.4960238
5.7167139 2.2498422 1.897972
5.8382349 2.5598137 1.8933755
5.9798985 2.897285 1.903234
6.0487022 3.2145782 1.8907483
6.6341519 2.61572 1.9039967
6.8341637 2.9943526 1.910201
7.0200458 3.3947375 1.9171932
0 0 0
8.2527361 3.2540634 2.0146525
8.5323372 3.7398183 2.0179253
1.1886678 0.57425022 0.27278131
1.1405385 0.60335845 0.25368437
10.147723 4.0039196 2.0553737
1.3572092 0.59445637 0.26387522
1.203457 0.58064383 0.22487563
1.1578499 0.61194754 0.20779784
0 0 0
1.3237288 0.57899362 0.2029527
1.2389632 0.59697533 0.17988774
1.1740154 0.61915505 0.16094728
1.2572057 0.49566695 0.15280071
1.2512759 0.54727703 0.14115798
1.2102035 0.58251947 0.12601449
1.2545421 0.66083997 0.11976653
1.2393661 0.48840854 0.10161315
1.2315607 0.53819329 0.089528985
1.2163751 0.58512402 0.077237621
1.2047734 0.63411373 0.064728864
1.2570285 0.49491277 0.053338639
1.2468266 0.54413897 0.040708169
1.2328228 0.59226781 0.02812407
1.2275697 0.64545566 0.015129524
1.2710992 0.50024766 0.0038861101
1.2493885 0.54471189 -0.0093013635
1.2611059 0.60523248 -0.022511648
1.2540252 0.65877938 -0.036326323
1.2920318 0.50770468 -0.047021706
1.2896657 0.56170964 -0.060900532
1.267084 0.60714954 -0.074274287
1.2671863 0.66529828 -0.089292236
1.3316886 0.52226853 -0.10097951
1.3254369 0.57646424 -0.11578392
1.2980183 0.62172163 -0.12897977
1.297116 0.68052113 -0.14548287
1.3459994 0.52744734 -0.15556774
1.3382151 0.58132756 -0.17088003
1.3100684 0.62707174 -0.18384276
1.4390936 0.75456005 -0.22192129
1.3927504 0.54444987 -0.21666077
1.3509398 0.58595848 -0.22740921
1.3976276 0.66832298 -0.25471848
1.4885612 0.78019935 -0.29310572
1.3820026 0.53902525 -0.271265
1.368679 0.59288663 -0.28734013
1.3957151 0.66636127 -0.3130911
1.4937395 0.78231537 -0.3590284
1.3839378 0.53825003 -0.32930833
1.4162911 0.61274815 -0.35737297
1.4684554 0.70090109 -0.39325872
1.4676105 0.76928377 -0.41833389
1.4350529 0.55657351 -0.40265444
2.1652715 0.93486065 -0.64091384
1.6946826 0.80833572 -0.53013748
1.4965365 0.78451264 -0.4960238
5.7348671 2.216445 1.8994479
5.8591132 2.5262201 1.8950839
5.9828129 2.853503 1.8985531
6.1075954 3.1979721 1.9029878
6.6653934 2.5808949 1.9083819
6.8479595 2.9504461 1.9089611
7.0530181 3.3574426 1.9205357
0 0 0
8.2852783 3.2082942 2.0177531
8.5775604 3.6970654 2.0232177
0 0 0
0 0 0
10.192258 3.9493902 2.0594468
1.24238 0.53509998 0.24090667
1.1874001 0.5639413 0.22122452
1.1817311 0.61532265 0.21140218
12.483309 4.8358946 2.0145967
1.2872295 0.55364466 0.19683212
1.1861618 0.56259215 0.17171693
1.1857207 0.61605906 0.1620307
1.2731963 0.49296653 0.15437366
1.2600931 0.54194707 0.14177486
1.2425468 0.58872449 0.12900372
1.2240797 0.63522953 0.11648411
1.2497786 0.48367375 0.10222161
1.2265892 0.52708101 0.088930793
1.2163332 0.57594043 0.077009104
1.2157357 0.63038784 0.065108784
1.2684294 0.4904336 0.053693704
1.248305 0.53569001 0.040648349
1.2337222 0.58340997 0.028062394
1.2279553 0.63607156 0.015085891
1.2741448 0.49243894 0.0038861101
1.250869 0.53624755 -0.009287715
1.2584673 0.59449357 -0.022399008
1.2527169 0.64831555 -0.036172505
1.3137709 0.50696343 -0.047698762
1.2995167 0.55653906 -0.061203301
1.2725919 0.60021538 -0.074379861
1.2801098 0.66209561 -0.089914918
1.3432461 0.51731414 -0.10161328
1.316118 0.56283349 -0.11466601
1.3036104 0.61459494 -0.12915829
1.2968472 0.6702649 -0.1449887
1.3482825 0.51882142 -0.15546073
1.3390167 0.57193506 -0.17053106
1.3085065 0.61648452 -0.1830893
1.404963 0.72570872 -0.2159673
1.3877494 0.53270191 -0.21537027
1.3545096 0.57765824 -0.22740921
1.3811677 0.65006983 -0.25098693
1.4723123 0.76020384 -0.2889823
1.3797723 0.52842444 -0.27018571
1.3650638 0.5813992 -0.2858268
1.3971164 0.65653419 -0.31249589
1.4924271 0.76999605 -0.35757062
1.3753579 0.52522045 -0.32649371
1.3769931 0.585742 -0.34654346
1.4612916 0.68650466 -0.39020476
1.4835026 0.76604736 -0.42151606
1.4447696 0.55016768 -0.40442601
2.5253925 1.0720079 -0.74554753
1.6978682 0.79710418 -0.529594
1.5584421 0.80481339 -0.5148958
5.746572 2.1805367 1.8988575
5.8868599 2.4954596 1.89907
5.987155 2.8106115 1.8944227
6.1236758 3.1586688 1.9019235
6.6919413 2.5440683 1.9114774
6.8659344 2.9083722 1.9089611
7.0620546 3.3087468 1.9174317
0 0 0
8.300252 3.155664 2.0166459
8.5919857 3.640933 2.0213125
0 0 0
0 0 0
10.205277 3.8825841 2.057225
1.2945952 0.54819697 0.25037462
0 0 0
1.232939 0.63240057 0.21986453
12.933289 4.9191599 2.0823057
1.3316463 0.56309152 0.2030918
1.1895914 0.55530339 0.17171693
1.2221757 0.6255064 0.16648473
1.2687666 0.48232034 0.15347484
1.243239 0.52568257 0.13951305
1.2208701 0.56930763 0.12638815
1.2536846 0.6408596 0.11892489
1.2629758 0.47989193 0.10305824
1.2353151 0.52187467 0.089329593
1.2234639 0.57015318 0.077237621
1.2195808 0.62291634 0.065108784
1.2667439 0.48086831 0.053496443
1.2451217 0.52530068 0.040438976
1.2345594 0.5745635 0.02800072
1.2353979 0.63034284 0.015129524
1.2808822 0.48603076 0.0038974897
1.2513714 0.52739716 -0.0092672426
1.2376111 0.57537937 -0.021964544
1.2593431 0.64197886 -0.036249414
1.3112493 0.4967683 -0.047495648
1.2973824 0.54622883 -0.060943779
1.2798741 0.59407741 -0.074591026
1.2752551 0.64969784 -0.089292236
1.3426627 0.50765127 -0.1013316
1.3213844 0.55551994 -0.11482571
1.3010325 0.60365015 -0.12853348
1.3018222 0.66274637 -0.14508753
1.3495803 0.50983602 -0.15524675
1.3406693 0.56293923 -0.17029841
1.3176649 0.61094797 -0.18384276
1.4288172 0.72695887 -0.21894428
1.371544 0.51684809 -0.2123591
1.3571171 0.56895417 -0.22725658
1.3779674 0.63826507 -0.24968901
1.4198732 0.72212762 -0.27781475
1.3820679 0.51960218 -0.27000582
1.3658882 0.57187468 -0.28525931
1.3922225 0.64383537 -0.31051177
1.4570143 0.74044102 -0.34799099
1.3812972 0.51779962 -0.32714325
1.3877517 0.58028853 -0.34834838
1.4513597 0.67099893 -0.38644603
1.4665697 0.74594122 -0.41539648
1.4481182 0.54129237 -0.40442601
1.5611892 0.65143538 -0.45970625
2.1395478 0.98848534 -0.66545701
1.5462466 0.7865352 -0.50926238
5.7795415 2.1525719 1.9053514
5.9135642 2.4640846 1.9027712
5.9938159 2.7689843 1.8911185
6.1343479 3.1166689 1.8992628
6.70471 2.5019462 1.9107035
6.8800731 2.8646994 1.9079689
7.0707598 3.260067 1.9143281
0 0 0
8.3185444 3.1043341 2.0164244
8.6078491 3.5855145 2.0198305
0 0 0
0 0 0
10.23075 3.8205805 2.0575955
10.709778 4.4577627 2.0659413
0 0 0
1.2350329 0.62393272 0.2195511
13.190198 4.9244475 2.1187642
1.3643383 0.56707251 0.20754313
1.2245127 0.56247997 0.17625627
1.1923048 0.60101515 0.16191031
1.2744951 0.47556841 0.15381189
1.2482781 0.51880783 0.13971867
1.2342944 0.56637329 0.12741569
1.2308927 0.61971229 0.11639994
1.2780417 0.47666311 0.10404699
1.2458659 0.51734632 0.089861311
1.2287543 0.56346774 0.077351876
1.231411 0.61946142 0.065536194
1.2734158 0.47448218 0.05365425
1.2566313 0.52109677 0.040708169
1.2353346 0.56572872 0.027939044
1.2463902 0.62634265 0.015216788
1.2866516 0.4792093 0.0039060242
1.2555078 0.52009171 -0.0092740674
1.2392998 0.56694281 -0.021932362
1.2721925 0.63872504 -0.036505774
1.3039683 0.48488158 -0.047123265
