# .PCD v0.7 - Point Cloud Data file format
VERSION 0.7
FIELDS x y z
SIZE 4 4 4
TYPE F F F
COUNT 1 1 1
WIDTH 1517
HEIGHT 1
VIEWPOINT 0 0 0 1 0 0 0
POINTS 1517
DATA ascii
0.1519517 2.3208952 0.48060504
0.068450101 2.3735542 0.46685642
0.324092 2.3063631 0.4388105
0.2373351 2.3053503 0.41273239
0.15445268 2.3409195 0.39481857
0.068777375 2.3535402 0.37359729
0.32439706 2.3070729 0.35059759
0.23745349 2.2950964 0.32411227
0.15377069 2.3121538 0.30309853
0.071296811 2.3675759 0.28722531
0.3248533 2.3073967 0.26346886
0.24029487 2.3221638 0.24129485
0.15699607 2.3464258 0.22064213
0.072512247 2.3694499 0.20022811
0.32828832 2.3291452 0.17942023
0.24022736 2.3144093 0.15499747
0.15612991 2.3249519 0.13333772
0.073599525 2.3791733 0.11316866
0.32762235 2.3191483 0.092474677
0.24147397 2.3154004 0.069661513
0.15827312 2.3391559 0.048209753
0.074769929 2.3846862 0.026026707
0.32722023 2.3139689 0.0066484916
0.24409086 2.3322067 -0.016002713
0.15888564 2.334296 -0.037653506
0.075243257 2.3720267 -0.060860049
0.33035168 2.327323 -0.07962206
0.24305236 2.3140912 -0.10073674
0.15969822 2.3252683 -0.1232098
0.075955696 2.3761642 -0.14832225
0.33083862 2.3196955 -0.16541205
0.24287495 2.3008051 -0.18533413
0.16039957 2.3301256 -0.2093132
0.076465793 2.3700998 -0.23552015
0.19157512 1.3405625 -0.14572439
0.15557809 1.4676893 -0.17285754
0.16099072 2.3298104 -0.29560509
0.077581018 2.3865728 -0.32611603
0.19798025 1.3773146 -0.20160492
0.15342273 1.4396849 -0.22359361
0.16217789 2.3339593 -0.3846736
0.077831253 2.3827446 -0.41577718
0.20008685 1.3844198 -0.25579497
0.15436691 1.4420952 -0.27939525
0.15181205 2.1656494 -0.43947834
0.041909978 1.2708067 -0.27072906
0.19582237 1.345787 -0.30159533
0.11121165 1.034503 -0.24095602
0.072157331 1.0278054 -0.24901688
0.037501451 1.1493078 -0.29031247
0.26274586 1.7938513 -0.47427681
0 0 -0
0.060478374 0.8582347 -0.24292307
0.024694074 0.75761127 -0.22252062
0.33918253 2.2968183 0.71727401
0.25001132 2.2986143 0.68674016
0.16211163 2.2995946 0.66029441
0.07797721 2.3575003 0.65109217
0.33899626 2.3055794 0.62219751
0.2496953 2.2901311 0.5897764
0.16446158 2.3082325 0.56895036
0.080497131 2.3492937 0.5536831
0.33984855 2.3116565 0.53062636
0.2491504 2.2880981 0.49855369
0.16597967 2.3169889 0.47999799
0.082429521 2.3564191 0.46357685
0.33766663 2.300442 0.43806988
0.25104868 2.2999361 0.41203108
0.16860051 2.336977 0.3943207
0.083461471 2.359983 0.37469426
0.3401275 2.3158009 0.35223448
0.2520712 2.2985179 0.32480776
0.16788304 2.310178 0.30296883
0.085678764 2.3631256 0.28674379
0.34073988 2.3171573 0.26481712
0.25432196 2.3186681 0.24108921
0.17081001 2.3374743 0.21989481
0.086720236 2.3599982 0.19947061
0.34024999 2.3113034 0.1782033
0.2545329 2.3138838 0.15506394
0.16995458 2.3179758 0.13299495
0.088159464 2.3776789 0.11312117
0.3414087 2.3141286 0.092356324
0.25699383 2.3257973 0.070020437
0.17284377 2.3411319 0.048271429
0.088651307 2.364198 0.025808547
0.3415584 2.3129067 0.0066513363
0.25971872 2.342592 -0.016084604
0.17335366 2.3352714 -0.037685689
0.089380257 2.360532 -0.060578056
0.34330696 2.3163548 -0.079317391
0.25779906 2.3175213 -0.10095301
0.17463361 2.3332071 -0.12368491
0.090382099 2.3716638 -0.14807318
0.34741613 2.3334079 -0.16653873
0.25687712 2.298281 -0.18525428
0.17298052 2.3062534 -0.20726024
0.090892442 2.3666029 -0.23522365
0.20375778 1.3659129 -0.14861318
0.164913 1.4696681 -0.17320652
0.17461297 2.319875 -0.2944749
0.092108496 2.3830817 -0.32571009
0.20246346 1.3496486 -0.19773342
0.16358262 1.4505012 -0.22542511
0.1760491 2.3270166 -0.38370013
0.09222082 2.3763158 -0.41474631
0.19669671 1.3043782 -0.24122438
0.15580885 1.3757484 -0.26672125
0.15682386 2.0561988 -0.41745481
0.049400825 1.2627069 -0.26906303
0.19030517 1.253829 -0.28124359
0 0 -0
0.17691065 2.3163686 -0.56146258
0.06615296 1.7061448 -0.43106258
0.28762507 1.8830589 -0.49831966
0 0 -0
0 0 -0
0 0 -0
0.352833 2.2918608 0.71638846
0.26443914 2.2998939 0.68759429
0.17592469 2.2947226 0.65919304
0.092214435 2.3511984 0.64949572
0.3526974 2.300591 0.62142366
0.26407531 2.2914431 0.59052044
0.17787197 2.2974982 0.56656277
0.095185712 2.3555636 0.55528796
0.35461724 2.3133831 0.5315122
0.26430276 2.2962356 0.50067067
0.17950962 2.3071396 0.47817674
0.096564136 2.348026 0.46203354
0.35251889 2.3031836 0.43899563
0.26639724 2.3091104 0.41395971
0.18193583 2.323118 0.39216322
0.097776636 2.3554792 0.37406743
0.35358214 2.3087831 0.35149044
0.26708186 2.3047979 0.32592061
0.18174312 2.3051503 0.30245003
0.099798515 2.3536286 0.28566036
0.35419828 2.3101118 0.26425534
0.26808619 2.3131115 0.24067798
0.18546388 2.3403523 0.22026846
0.10107118 2.3564351 0.19921812
0.35896358 2.3387389 0.18048503
0.26976246 2.3211982 0.15566212
0.18377866 2.3119135 0.13270931
0.10209994 2.362124 0.11240882
0.35879147 2.3327303 0.093184814
0.2699852 2.3132558 0.069691427
0.18680678 2.3350444 0.048168641
0.10354847 2.3726001 0.025906717
0.35696098 2.3186746 0.0066740955
0.2730411 2.3320155 -0.016023185
0.18663758 2.3212073 -0.037476502
0.10368671 2.3559444 -0.060475513
0.35827631 2.3191431 -0.079486653
0.27154809 2.3119268 -0.10078
0.18805952 2.3211427 -0.12310421
0.10435901 2.3581026 -0.14726369
0.3601976 2.3213749 -0.16583455
0.26992309 2.2877522 -0.18453562
0.18704759 2.3041561 -0.20717098
0.10519047 2.3610299 -0.23472947
0.22068763 1.4196547 -0.15460479
0.17556292 1.482437 -0.17483504
0.12659404 1.5544096 -0.19740492
0.10637435 2.3745532 -0.32462755
0.21991023 1.4070486 -0.20633675
0.1661737 1.3964766 -0.21718343
0.12175914 1.4879812 -0.24547076
0.10644595 2.3678322 -0.41337186
0.20698619 1.3177233 -0.24392264
0.16750899 1.4020668 -0.27201784
0.12007192 1.4564165 -0.29582945
0.056661166 1.2516322 -0.26677224
0.19967157 1.2632451 -0.28362519
0.14988436 1.2497321 -0.29149359
0.084364817 1.021999 -0.24784228
0.054517541 1.2136574 -0.3067129
0.21059167 1.3242378 -0.3507725
0 0 -0
0 0 -0
0 0 -0
0.36719131 2.2915397 0.71697885
0.27727729 2.2877598 0.68446237
0.19071582 2.3022225 0.66167122
0.1062462 2.3419216 0.64710104
0.36756822 2.303154 0.62271339
0.27918169 2.2984347 0.59275258
0.1922085 2.2992666 0.56727904
0.10950159 2.3520181 0.55460018
0.36988088 2.3179047 0.5330624
0.27815181 2.2926304 0.5002473
0.19333476 2.3020914 0.47736731
0.11115487 2.3513098 0.46280521
0.36710823 2.3038886 0.43955109
0.28020418 2.3045006 0.4134337
0.19602074 2.3199925 0.39183128
0.11222775 2.354835 0.37406743
0.36976585 2.3192647 0.35342497
0.28061867 2.2982006 0.32522509
0.19588383 2.3039916 0.30245003
0.11366054 2.3410733 0.28421581
0.36852285 2.3088765 0.2643677
0.28130952 2.3035243 0.23985551
0.1989731 2.3292501 0.21933433
0.11572331 2.3597515 0.19955477
0.3729924 2.334523 0.18033291
0.28363624 2.3165283 0.15546273
0.19804604 2.3117368 0.13276644
0.11673951 2.3644459 0.11255129
0.37546742 2.3452845 0.093776584
0.28368616 2.3075871 0.069571786
0.20138837 2.3368425 0.048230316
0.11725914 2.3549423 0.02572128
0.37197247 2.3213775 0.0066883196
0.28477502 2.3094547 -0.015879879
0.20113547 2.3230069 -0.037524775
0.11799032 2.3522685 -0.060398605
0.37313414 2.320848 -0.07962206
0.28548342 2.308234 -0.10069349
0.20247175 2.3219347 -0.1232098
0.11847439 2.3504403 -0.14682782
0.37475252 2.3210907 -0.16597539
0.28801015 2.3186965 -0.1871707
0.2003153 2.2930427 -0.20627838
0.11902045 2.3474205 -0.23344466
0.21875803 1.3525131 -0.14743626
0.17728421 1.4221969 -0.16785561
0.12833568 1.4646569 -0.18610312
0.12074068 2.3698978 -0.32408628
0.20789319 1.2786835 -0.18769619
0.17228326 1.3758183 -0.21413095
0.1285512 1.4606664 -0.24109024
0.1204699 2.357296 -0.41165379
0.21379887 1.3086618 -0.24248357
0.17537394 1.3951669 -0.27088284
0.12762168 1.4400315 -0.29265487
0.065796539 1.2795877 -0.27281159
0.21185233 1.2889701 -0.28968742
0.14218499 1.127003 -0.2630662
0.10549637 1.1889625 -0.28848371
0.050342154 0.98574567 -0.24918891
0 0 -0
0 0 -0
0 0 -0
0 0 -0
0.38171589 2.2920709 0.71786439
0.29155186 2.2879174 0.68503183
0.2056056 2.3096271 0.6641494
0.12001882 2.3296735 0.64390808
0.38327438 2.3103864 0.62529302
0.29315665 2.2957177 0.59250462
0.20657341 2.3009455 0.56799531
0.12331644 2.3396378 0.55184895
0.3847346 2.3194394 0.53394824
0.29246122 2.2928193 0.50067067
0.20745648 2.3008616 0.47736731
0.12495197 2.3388257 0.4604902
0.38589481 2.3297083 0.44492051
0.29383975 2.2988315 0.41273239
0.20998509 2.3157997 0.3913334
0.12640929 2.3491712 0.37328389
0.38366631 2.3150012 0.35312736
0.29484096 2.2974179 0.3253642
0.20992711 2.301759 0.30232036
0.12775184 2.3353755 0.28361392
0.38382137 2.3134336 0.26515418
0.2949318 2.2978082 0.23944426
0.21208061 2.3150961 0.21811996
0.13003556 2.3560121 0.19930227
0.38828987 2.3380923 0.18078926
0.29899088 2.3236508 0.1560609
0.21341403 2.3234026 0.13350911
0.1306915 2.3537118 0.11207639
0.38968676 2.3419509 0.093737133
0.29796794 2.3067944 0.069601692
0.2150795 2.3285942 0.048086405
0.13226515 2.3641622 0.02583036
0.38719481 2.3249698 0.0067053894
0.29894018 2.3076639 -0.015879879
0.21566246 2.3247156 -0.037573047
0.1320841 2.3455117 -0.060244787
0.38819104 2.3234437 -0.07979133
0.30157179 2.3213 -0.10134229
0.21634366 2.3166716 -0.12299865
0.1323306 2.3397045 -0.14620514
0.38816223 2.3138287 -0.16562329
0.30248988 2.3188627 -0.18733041
0.21623668 2.311604 -0.20806357
0.13229196 2.3267758 -0.23146796
0.22260399 1.3246715 -0.14454746
0.19000331 1.4516115 -0.17146166
0.13787617 1.4697683 -0.18685657
0.13516685 2.3671339 -0.32381564
0.220185 1.3037318 -0.19156769
0.17659992 1.3433799 -0.20924699
0.13288437 1.41073 -0.23297819
0.13436857 2.3466773 -0.40993568
0.21047011 1.2404073 -0.23007157
0.18072014 1.3697268 -0.26615375
0.13710274 1.4460517 -0.29404375
0.11114468 1.9304575 -0.41171643
0.22107126 1.2953449 -0.29141948
0.15971076 1.2062697 -0.28179219
0.12858763 1.3547312 -0.32889023
0.058051407 1.0144582 -0.25653243
0.20064141 1.1689936 -0.31027928
0 0 -0
0 0 -0
0 0 -0
0.39235511 2.2699142 0.71166569
0.30837899 2.306989 0.69129568
0.21977332 2.308322 0.6641494
0.13414466 2.3260062 0.6431098
0.39711553 2.306087 0.62477714
0.30736598 2.2948358 0.59275258
0.21994573 2.2919016 0.56608528
0.13766988 2.3388371 0.55184895
0.39647707 2.3026199 0.53062636
0.30652419 2.2909815 0.50067067
0.22110076 2.2946713 0.47635549
0.13930039 2.3380148 0.4604902
0.39818394 2.3156745 0.44269866
0.30767792 2.2950337 0.41238171
0.22362016 2.3085785 0.39033762
0.14058466 2.3444076 0.37265703
0.39937264 2.3213747 0.35446665
0.30813962 2.2896769 0.32452959
0.22519989 2.3122702 0.3038767
0.1417172 2.3286023 0.28289163
0.3998642 2.3218067 0.26639006
0.3106176 2.307785 0.24067798
0.22967359 2.348433 0.22138943
0.14387916 2.3452241 0.19846062
0.40262881 2.3356657 0.18078926
0.31390995 2.3267169 0.15639324
0.2263997 2.3091326 0.13276644
0.14482366 2.3478806 0.11183894
0.40506968 2.3454237 0.093973845
0.31466499 2.3237424 0.070169993
0.22867699 2.3202655 0.047942493
0.14652096 2.3593142 0.02578673
0.4029862 2.3314188 0.0067309933
0.31363231 2.3097496 -0.015907174
0.22923332 2.3163836 -0.037460409
0.14684738 2.3506434 -0.060398605
0.40363532 2.3279111 -0.080028303
0.31230482 2.2936678 -0.1002177
0.23065336 2.3162942 -0.12305143
0.14624697 2.3318758 -0.14576927
0.4057737 2.3310583 -0.16703168
0.31603742 2.3120248 -0.18693115
0.23071291 2.3132069 -0.20833135
0.14619082 2.3199615 -0.23087499
0.24063325 1.3800907 -0.15075304
0.19647767 1.4327062 -0.16936782
0.1479778 1.4797535 -0.18823791
0.14900069 2.3553829 -0.32232714
0.22322737 1.2740865 -0.18740942
0.18780547 1.3638098 -0.2126047
0.14587475 1.4530879 -0.24011679
0.14839089 2.3399098 -0.40890482
0.22182828 1.2604063 -0.23402904
0.18629852 1.3481654 -0.26218131
0.14420001 1.4276304 -0.29047236
0.13542949 2.124958 -0.45336705
0.22714357 1.2833892 -0.28903788
0.19119228 1.3789644 -0.32240275
0.12037218 1.1904796 -0.28918847
0.065256208 1.029565 -0.26044893
0.33544606 1.8849578 -0.5008505
0 0 -0
0 0 -0
0.049499214 0.78139466 -0.22984409
0.41031992 2.2900355 0.71874988
0.32239574 2.3041039 0.69101089
0.23373881 2.305017 0.66359866
0.14823003 2.3222532 0.64231157
0.41261631 2.3112159 0.62684077
0.32265151 2.3015411 0.59498471
0.23400442 2.2905087 0.56608528
0.15195496 2.3369772 0.55161965
0.41591063 2.3299036 0.53749168
0.32166001 2.2968009 0.50236434
0.23497662 2.2913229 0.47595075
0.15351483 2.3351581 0.46010438
0.41376495 2.3209276 0.44417989
0.322575 2.2989523 0.4134337
0.23707345 2.3002963 0.38917592
0.15477154 2.3405442 0.3721869
0.41517153 2.3276417 0.35580593
0.32425445 2.3024521 0.32661611
0.23907696 2.3078861 0.30348763
0.15567064 2.3227363 0.28228971
0.41794541 2.3408298 0.26886183
0.32435584 2.3028808 0.24036954
0.24346106 2.3410378 0.22082895
0.15806511 2.3413146 0.19820814
0.41782969 2.3380592 0.18116955
0.32957524 2.3346269 0.1570579
0.2404605 2.3067069 0.13270931
0.15929489 2.3479445 0.11188643
0.41751626 2.3320746 0.093539871
0.32877707 2.3207781 0.070140079
0.24280542 2.3178246 0.047921937
0.16024557 2.3473969 0.025666742
0.4195767 2.3416984 0.006767977
0.32568941 2.2929313 -0.015804812
0.24312836 2.3119502 -0.037412137
0.1608572 2.3437142 -0.060244787
0.42003292 2.3371947 -0.080434538
0.32918984 2.3114901 -0.10108276
0.24402118 2.306891 -0.12262912
0.16082665 2.3349173 -0.14601833
0.42006916 2.3285248 -0.16703168
0.33092311 2.314976 -0.18733041
0.24574155 2.3196714 -0.20904543
0.16035441 2.318028 -0.23077613
0.23866619 1.3208617 -0.14444046
0.19370463 1.350855 -0.15982924
0.15715939 1.4798042 -0.18836349
0.1625582 2.3415749 -0.32056803
0.22856602 1.2590604 -0.18540198
0.19264947 1.3381768 -0.20878913
0.15238251 1.4295981 -0.23638524
0.16267714 2.3379724 -0.40873304
0.2366157 1.2977307 -0.24122438
0.19007504 1.3158975 -0.25612807
0.15180781 1.4159988 -0.28828984
0 0 -0
0.21829018 1.1907449 -0.26846963
0.19559819 1.3498052 -0.31585994
0.20369849 1.8981376 -0.461386
0.071639538 1.0301125 -0.26069373
0.2410979 1.3082052 -0.34798861
0.13994296 0.96065325 -0.26381317
0 0 -0
0.055290855 0.79543424 -0.23406915
0.43098608 2.3231723 0.72996652
0.3362501 2.3001852 0.69044149
0.24880342 2.3121419 0.66607684
0.1621398 2.3164921 0.64098126
0.43100515 2.3314421 0.63303185
0.33648667 2.2976007 0.59448868
0.24826357 2.2909608 0.56656277
0.16580772 2.3292046 0.55001479
0.43338943 2.3445685 0.54147804
0.33574688 2.2947841 0.50236434
0.2490315 2.2898381 0.47595075
0.16791056 2.3351507 0.46029729
0.43013898 2.3299415 0.44640172
0.33596116 2.2920594 0.41255707
0.2516118 2.3027198 0.38983977
0.16898751 2.3375807 0.3718735
0.4307031 2.3318574 0.35684758
0.34024939 2.3131557 0.32842448
0.25366625 2.3103182 0.3040064
0.17049944 2.3296583 0.28325278
0.43410712 2.3479924 0.26998538
0.34123066 2.3195453 0.24232294
0.25683928 2.3305931 0.21998823
0.17220852 2.3373194 0.19795564
0.43380073 2.3442755 0.18185405
0.34447616 2.3365092 0.15732376
0.25504807 2.3091574 0.13293782
0.17318252 2.3399498 0.111554
0.43910274 2.3687682 0.095117934
0.34388855 2.3246498 0.070319548
0.25768432 2.3222532 0.048045289
0.17472012 2.3473666 0.025677649
0.4359436 2.3498952 0.0067992704
0.34430006 2.3215535 -0.016016362
0.25642428 2.3024652 -0.037283409
0.17434011 2.3307204 -0.059937153
0.43144074 2.3188524 -0.079892889
0.34351358 2.3104148 -0.10112602
0.2590605 2.3132894 -0.12305143
0.17604671 2.3458297 -0.14676556
0.43508127 2.3298256 -0.16731334
0.34629816 2.3207891 -0.18796921
0.25863811 2.3062422 -0.20797431
0.17375213 2.3060853 -0.22968897
0.24658358 1.3183951 -0.14433347
0.20125464 1.3447297 -0.15924764
0.16268997 1.447264 -0.18434507
0.17542912 2.3207736 -0.31786165
0.24341415 1.2955674 -0.19099413
0.19836073 1.3203553 -0.20619452
0.16247874 1.4404026 -0.23833215
0.17597786 2.3231778 -0.40632769
0.23800822 1.2614557 -0.23474856
0.19595054 1.3001417 -0.25329062
0.1593888 1.4053019 -0.28630576
0.1494782 1.9651444 -0.41963005
0.2301406 1.2133627 -0.27388236
0.19717795 1.3042692 -0.3054817
0.1373843 1.2101606 -0.29435673
0 0 -0
0.2007457 1.0529636 -0.28041553
0 0 -0
0.089221962 0.7840873 -0.22281533
0.05951884 0.78646898 -0.23153411
0.45081386 2.3495722 0.73911697
0.34949055 2.2923927 0.68873316
0.26255092 2.306751 0.66497546
0.17671649 2.3202593 0.64231157
0.44221765 2.3126211 0.62864649
0.35174823 2.3031542 0.5964728
0.26286867 2.2942181 0.56775653
0.17942068 2.3194089 0.54795134
0.44776726 2.3418651 0.54147804
0.34967369 2.2917147 0.50215262
0.26385999 2.2950773 0.47736731
0.18193012 2.3301637 0.45952564
0.4453488 2.3320847 0.44732749
0.35210121 2.3035798 0.4150117
0.26709381 2.3128879 0.39183128
0.18301845 2.3325613 0.37124667
0.44444633 2.326257 0.35640121
0.35338542 2.3041725 0.32745075
0.26897997 2.3185678 0.30530334
0.18416247 2.3206511 0.28228971
0.44813266 2.3433325 0.26976067
0.35530588 2.3164248 0.24222013
0.26779589 2.3002939 0.21727926
0.18615024 2.3312523 0.19753483
0.44948888 2.3484247 0.18238646
0.35774511 2.3274481 0.1568585
0.26932767 2.3085406 0.13299495
0.18713772 2.3338647 0.11131655
0.45306453 2.3630855 0.094999589
0.35860288 2.3254597 0.070409276
0.27192855 2.3206284 0.048045289
0.18855762 2.3392735 0.025601292
0.44997722 2.3452117 0.0067935805
0.35884389 2.3213737 -0.01603001
0.27148125 2.3087926 -0.037412137
0.1884765 2.3276141 -0.059885882
0.44887108 2.3328457 -0.080468386
0.35844851 2.3132 -0.10134229
0.27430472 2.3205817 -0.12352654
0.19027553 2.3427157 -0.14664102
0.4506925 2.3339682 -0.16780627
0.36114436 2.3225603 -0.18828861
0.26786694 2.2630696 -0.20422542
0.13089848 1.605747 -0.16001138
0.27279162 1.4105698 -0.15460479
0.20460489 1.3120662 -0.15552525
0.17355396 1.4629865 -0.18647984
0.14323847 1.751837 -0.24005388
0.24098009 1.2406166 -0.18310775
0.20508316 1.3103256 -0.2048209
0.16781525 1.4099834 -0.2334649
0.15813565 1.9302996 -0.33777601
0.23256221 1.1923867 -0.22215667
0.20057385 1.2775735 -0.24912898
0.16486494 1.3780216 -0.28094867
0.11848446 1.440731 -0.30779812
0.24302784 1.2397109 -0.28016105
0.19760036 1.2549167 -0.29420096
0.14238019 1.1890274 -0.28942341
0.095907554 1.1712081 -0.29667678
0.22908251 1.1627682 -0.3100262
0 0 -0
0.11513107 0.95934045 -0.27281293
0 0 -0
0.46522209 2.3467619 0.73911697
0.36324924 2.2883115 0.6881637
0.27681449 2.306051 0.66525078
0.1900008 2.3076031 0.63911867
0.45939577 2.3250296 0.63277382
0.36465642 2.2932985 0.59448868
0.27775601 2.2993107 0.56942785
0.19405405 2.3231144 0.54909772
0.4626953 2.3419435 0.54214245
0.36541554 2.3001435 0.50448132
0.27793735 2.2934153 0.47736731
0.19622432 2.3290036 0.45952564
0.46326464 2.3476264 0.45084539
0.36638379 2.3023481 0.41518703
0.28056559 2.3053319 0.39083549
0.19666095 2.3235211 0.36999297
0.461393 2.3370681 0.35848454
0.36970264 2.3156514 0.32939819
0.28272015 2.3129368 0.30478457
0.19780602 2.3125536 0.28144708
0.46481419 2.3522367 0.2711089
0.36966935 2.3151834 0.24232294
0.28287476 2.3065131 0.21802655
0.20045103 2.3300662 0.19753483
0.46505076 2.3514915 0.18284281
0.37201935 2.3252091 0.1568585
0.28300047 2.302881 0.13276644
0.20025131 2.3187404 0.11065169
0.46988562 2.3720229 0.095473006
0.3722313 2.319268 0.070289634
0.28689724 2.3248699 0.048168641
0.20290759 2.3380725 0.025601292
0.4670811 2.3561394 0.006833409
0.37323964 2.3201153 -0.016036835
0.28699407 2.3179989 -0.037589144
0.2031889 2.3313932 -0.060014062
0.46707386 2.3496525 -0.08114545
0.3726353 2.310957 -0.10134229
0.28755191 2.3109269 -0.12310421
0.204299 2.337527 -0.14639194
0.46871254 2.3497455 -0.16914421
0.37618452 2.3252208 -0.18868788
0.28297925 2.2712669 -0.20511802
0.13422851 1.530566 -0.15259887
0.30033422 1.5034441 -0.16498311
0.21599181 1.3313744 -0.15796806
0.17416924 1.3949521 -0.1779407
0.130375 1.4824632 -0.20324743
0.26124108 1.3021861 -0.19242802
0.21502501 1.320748 -0.2066524
0.17842565 1.4245929 -0.23606077
0.12813102 1.4543298 -0.25462058
0.23987418 1.1909374 -0.22215667
0.20856737 1.2772878 -0.24931817
0.17062445 1.3555902 -0.27658367
0.12818384 1.4497197 -0.30988064
0.25043631 1.2372396 -0.27994457
0.20860283 1.2738703 -0.29893887
0.13096409 1.0396149 -0.25324547
0.095521852 1.084638 -0.27489114
0.23775542 1.168925 -0.31205085
0 0 -0
0 0 -0
0 0 -0
0.47961277 2.3438632 0.73911697
0.38040513 2.304956 0.69385809
0.29095894 2.3043091 0.66525078
0.20364645 2.3006325 0.63752222
0.47654963 2.3363669 0.63664323
0.38172293 2.3091779 0.59920096
0.29161432 2.2956364 0.56895036
0.20786989 2.3170326 0.54795134
0.48153862 2.3610368 0.54723608
0.38127396 2.3084648 0.50681001
0.2922518 2.2936094 0.477772
0.20989247 2.3209147 0.45817518
0.48060313 2.3591835 0.45362264
0.37937903 2.2932575 0.41395971
0.2945804 2.3025889 0.39066955
0.21011011 2.3134184 0.36858258
0.47848898 2.3477583 0.36056787
0.38260728 2.3055241 0.32828537
0.29614869 2.3052576 0.3040064
0.21208254 2.3122852 0.28156748
0.48221764 2.3639448 0.27279422
0.38761392 2.3354409 0.24468757
0.29765823 2.3096714 0.21849363
0.21428677 2.3238311 0.19711399
0.47887215 2.3456628 0.18261464
0.38611588 2.3218985 0.15679204
0.29827601 2.3100123 0.13328059
0.2140148 2.3124948 0.11041424
0.48803446 2.3867166 0.096183136
0.3885929 2.3297575 0.070678473
0.30179963 2.328023 0.048271429
0.21743505 2.3387747 0.025623109
0.48473683 2.3689044 0.0068789274
0.3887876 2.3256719 -0.016091427
0.30159846 2.3191688 -0.037637416
0.21832637 2.3390608 -0.060244787
0.48389271 2.3584907 -0.081551686
0.38944951 2.3243923 -0.10203434
0.30276117 2.3170407 -0.12352654
0.21835895 2.3332484 -0.14620514
0.47829425 2.3233764 -0.16745417
0.39127088 2.3277838 -0.18908712
0.30052787 2.2971406 -0.20761728
0.13692018 1.4583799 -0.14548287
0.42699113 2.0712359 -0.22757398
0.21326269 1.2653837 -0.15029068
0.18324105 1.3977919 -0.17844301
0.13779736 1.4638793 -0.2008117
0.25799173 1.2462879 -0.18439823
0.21620375 1.2784768 -0.20024219
0.18266122 1.3892297 -0.23038234
0.13529512 1.4348813 -0.25135621
0.2391714 1.1509187 -0.21496132
0.21886356 1.2905059 -0.25215563
0.17329097 1.311764 -0.26785362
0.13541855 1.4313787 -0.30613208
0.24425393 1.1697385 -0.26500553
0.21151526 1.2437536 -0.29217046
0.15887171 1.2016451 -0.29294723
0 0 -0
0.24830021 1.1835403 -0.31635326
0 0 -0
0 0 -0
0 0 -0
0.49437997 2.3427458 0.73970723
0.39356956 2.2969096 0.69214982
0.30547127 2.3053396 0.66607684
0.21903141 2.3127749 0.64124727
0.49644539 2.3598719 0.64386606
0.39654005 2.3106112 0.60019302
0.30723399 2.3053548 0.57181537
0.22180425 2.3128066 0.54726356
0.49601662 2.3580377 0.54723608
0.39477056 2.3022289 0.50596321
0.30748728 2.3005092 0.47959325
0.22365753 2.3147001 0.45721063
0.4995153 2.3773479 0.45769599
0.39760914 2.3151443 0.41834304
0.30883443 2.3017154 0.39083549
0.22487321 2.3179839 0.36952284
0.49858132 2.3718743 0.36473459
0.40078121 2.3265545 0.33162385
0.31028789 2.3033969 0.3040064
0.22597624 2.3079762 0.28120634
0.49732718 2.3638585 0.27313128
0.40176776 2.3320384 0.24458477
0.31262437 2.3137214 0.21905409
0.22776084 2.3145394 0.19644068
0.49510482 2.3514619 0.18329917
0.40018576 2.3185022 0.15672557
0.31324792 2.314075 0.13362338
0.22878888 2.3171022 0.11069918
0.50370079 2.3885655 0.09638039
0.40816605 2.3578613 0.071605697
0.31607842 2.3261273 0.048271429
0.23188007 2.3383915 0.025634017
0.49988243 2.3688207 0.0068874615
0.40544337 2.3370364 -0.016186967
0.31555286 2.3152931 -0.037605233
0.23178338 2.3287241 -0.060014062
0.50145805 2.3701439 -0.082059473
0.40473115 2.3278646 -0.10229385
0.31764984 2.3200862 -0.12379047
0.23217593 2.3268991 -0.14589381
0.49979058 2.3545501 -0.16991881
0.40469024 2.3204293 -0.18868788
0.31204724 2.2765045 -0.20592135
0.15121712 1.5109807 -0.15081987
0.45664296 2.1483245 -0.23634739
0.22256257 1.2728567 -0.15133759
0.19005948 1.383864 -0.17681053
0.14974415 1.4925818 -0.20487124
0.25262079 1.1837057 -0.17536473
0.21909209 1.2488971 -0.19581613
0.18916242 1.3734199 -0.22794873
0.1430134 1.423242 -0.2494663
0.2528224 1.1802093 -0.22071762
0.2199728 1.2504549 -0.24458906
0.18335138 1.3252391 -0.27082977
0.14253117 1.4139775 -0.3025918
0.24875633 1.1558102 -0.26219094
0.22083503 1.2520263 -0.29442659
0.17024128 1.2295325 -0.29999486
0.1401253 1.3949897 -0.35395598
0.25269538 1.1687562 -0.31281012
0 0 -0
0 0 -0
0.080815017 0.80482042 -0.23744923
0.51077557 2.3490045 0.74265897
0.41201565 2.3189909 0.69955242
0.32000721 2.3062785 0.6669029
0.23341176 2.3133056 0.64177948
0.51644266 2.3822751 0.65083092
0.41189823 2.314811 0.60192907
0.32056847 2.2976556 0.57038283
0.23539799 2.3055923 0.54588795
0.51336813 2.3682923 0.5503366
0.40974477 2.3045747 0.50702173
0.32200426 2.3014889 0.48020032
0.23795642 2.3142602 0.45740354
0.51658863 2.3857639 0.45991784
0.41197971 2.3136301 0.41851836
0.32404876 2.3075898 0.39216322
0.23868629 2.3126307 0.36889601
0.51626575 2.3832669 0.36696672
0.41452682 2.3211272 0.33120656
0.32510749 2.3063591 0.3046549
0.24013348 2.3065462 0.28120634
0.51476973 2.3743579 0.27470422
0.41781825 2.3393214 0.24561286
0.32570028 2.3038731 0.21830679
0.24175096 2.3111162 0.19627234
0.51671207 2.3815103 0.18588512
0.41791919 2.3356469 0.15805487
0.32702094 2.3091438 0.13345198
0.2426893 2.3126745 0.11055671
0.52216643 2.4030058 0.097090527
0.42209631 2.3523607 0.071515962
0.32978258 2.3201849 0.048189197
0.24653813 2.3399081 0.025666742
0.5192948 2.3881836 0.0069528935
0.42101431 2.3413939 -0.016234737
0.32975331 2.3133132 -0.037605233
0.24543712 2.3212934 -0.059860244
0.51854599 2.3787403 -0.082465716
0.42024726 2.3322203 -0.10259663
0.33216271 2.3200705 -0.12389605
0.24613358 2.322453 -0.145707
0.52126098 2.3835974 -0.1722426
0.4208706 2.3286924 -0.18956622
0.3258684 2.2735608 -0.20583208
0.16521801 1.5545534 -0.15526737
0.50703567 2.3154502 -0.25507116
0.21974425 1.2128291 -0.14435814
0.19798307 1.3787438 -0.17630821
0.15543617 1.4591224 -0.20040575
0.24542961 1.1164056 -0.16561429
0.22356981 1.230027 -0.19306889
0.1921014 1.3341429 -0.2216213
0.15153454 1.4203786 -0.24912269
0.25793976 1.1690298 -0.21891876
0.23521174 1.290621 -0.25272313
0.19147944 1.3240891 -0.27082977
0.15193294 1.419884 -0.30404955
0.25140697 1.1342461 -0.25764427
0.22711232 1.242981 -0.29262167
0.1819589 1.2573246 -0.30704251
0.13079095 1.2263484 -0.31136379
0.25355464 1.138854 -0.30521765
0.20812376 1.1342419 -0.31337646
0 0 -0
0 0 -0
0.52851897 2.360744 0.74738181
0.42606348 2.3154764 0.69926775
0.33456615 2.3071258 0.66772896
0.24862808 2.3214145 0.64444023
0.53231323 2.3847191 0.65237874
0.42521608 2.3074768 0.60068905
0.33452049 2.2946842 0.57014406
0.25037888 2.3118463 0.5477221
0.53128892 2.3803258 0.55387998
0.42582446 2.3125899 0.50935042
0.33682805 2.3043146 0.48121211
0.25215197 2.3127565 0.45740354
0.53271466 2.3892632 0.46121389
0.4290247 2.3265498 0.42132369
0.34020549 2.3192174 0.39448664
0.25351638 2.3170135 0.36983627
0.5341087 2.3945317 0.36919889
0.43056196 2.3282776 0.33259758
0.33939731 2.3053019 0.30478457
0.25613216 2.321804 0.28325278
0.53149378 2.3808527 0.27582777
0.43433493 2.3484507 0.24684657
0.34273872 2.3215303 0.22017506
0.25713438 2.3204837 0.19719817
0.53370643 2.3889995 0.18672177
0.43315142 2.3379443 0.15838721
0.34205973 2.3130193 0.13379474
0.25687504 2.311142 0.11055671
0.54126447 2.4192591 0.097879559
0.43633962 2.3487439 0.071486056
0.34489334 2.3240514 0.048312549
0.26022565 2.3323886 0.025601292
0.53677875 2.3976381 0.0069898772
0.43189576 2.3200877 -0.016105076
0.34570739 2.3231142 -0.03779833
0.26000932 2.3227241 -0.059937153
0.53969759 2.4047689 -0.083481297
0.43399999 2.3266513 -0.10246687
0.34772044 2.3268776 -0.12437116
0.26037925 2.3208992 -0.145707
0.53675294 2.3842466 -0.17252427
0.43441808 2.3221471 -0.18924683
0.33804429 2.2596982 -0.20476098
0.18109398 1.6098758 -0.16090088
0.51970303 2.3055062 -0.2543222
0.23303992 1.242696 -0.14808051
0.20423362 1.3627861 -0.17442459
0.16016838 1.4207277 -0.19526367
0.27783024 1.2278143 -0.18239079
0.2314783 1.2305745 -0.19337414
0.20116366 1.3387939 -0.22259477
0.15615793 1.3832023 -0.24276577
0.26597929 1.1712623 -0.2196383
0.23238955 1.2322223 -0.24156244
0.19652954 1.3025372 -0.26666316
0.15547097 1.3732473 -0.29426166
0.26856607 1.1774184 -0.26782015
0.23165813 1.2252907 -0.28878623
0.19489455 1.2907847 -0.31549969
0.13494238 1.1956556 -0.30377552
0.26291412 1.1476499 -0.30800152
0.22857814 1.2040489 -0.33304444
0 0 -0
0.088964127 0.78851265 -0.23294248
0.55328798 2.402148 0.76155019
0.44546151 2.3401279 0.70752454
0.34943509 2.309782 0.66910571
0.26232466 2.3150561 0.6431098
0.54434043 2.3701086 0.64928323
0.44390163 2.3286145 0.60688937
0.34830219 2.2906685 0.56966656
0.26511306 2.3151014 0.54886842
0.55570626 2.4197903 0.56384581
0.4440296 2.3310552 0.51400787
0.35169867 2.3070452 0.48222393
0.26611337 2.3092165 0.45701772
0.55637407 2.4252205 0.4688051
0.44513682 2.3335443 0.42307702
0.35219294 2.3024647 0.39199725
0.26874954 2.3242443 0.37124667
0.55697548 2.4268703 0.37470487
0.44521201 2.3275373 0.33287582
0.3550404 2.3129766 0.30608153
0.26979911 2.3152583 0.28265086
0.55165339 2.4017577 0.27863657
0.44985795 2.3516035 0.24746343
0.35712835 2.3203676 0.22026846
0.27171522 2.3218315 0.19745067
0.54947174 2.3905385 0.18710205
0.44992983 2.3479819 0.15925126
0.35761473 2.3197575 0.1343089
0.2702361 2.3025777 0.11022428
0.55654681 2.4178398 0.097958453
0.45470351 2.3666358 0.07211417
0.36082804 2.3327599 0.048538692
0.27535081 2.3376994 0.025677649
0.55215365 2.397223 0.0069984118
0.45292869 2.3527441 -0.016350746
0.35964876 2.3189731 -0.037766144
0.27460831 2.3240633 -0.060014062
0.55444282 2.4014122 -0.083481297
0.45394453 2.353374 -0.10376447
0.36183769 2.3237133 -0.12431837
0.27496719 2.3222313 -0.14589381
0.55204749 2.3838236 -0.17273553
0.45225519 2.3380325 -0.190764
0.36141407 2.3185971 -0.21029507
0.20774284 1.7500421 -0.17503406
0.53630996 2.312928 -0.25549912
0.23442192 1.209066 -0.14424182
0.20172486 1.2919126 -0.16550872
0.17204274 1.4462826 -0.19891724
0.26965502 1.1586132 -0.17235357
0.23902461 1.229131 -0.19337414
0.20037085 1.2800164 -0.21302254
0.16487519 1.3841746 -0.24310939
0.26846293 1.149492 -0.21586074
0.24595867 1.2616148 -0.24761568
0.20634411 1.3129256 -0.26904407
0.16134234 1.3509016 -0.28968009
0.26619875 1.1348773 -0.25851029
0.23225842 1.1884693 -0.28043851
0.19359918 1.2309917 -0.30116948
0 0 -0
0.27327827 1.1601403 -0.3117978
0.21348034 1.088043 -0.30131343
0 0 -0
0 0 -0
0.56867737 2.4014969 0.76243573
0.46092212 2.3429942 0.70923287
0.36300254 2.3037961 0.66800427
0.27721107 2.3191459 0.64470631
0.56797647 2.4052761 0.65985954
0.4604283 2.3372529 0.60986555
0.36386955 2.2980795 0.57205415
0.28001329 2.3192294 0.55024403
0.57838666 2.4495525 0.57159704
0.46002319 2.3369172 0.51591313
0.36600134 2.3058109 0.48242629
0.28063241 2.3104622 0.45759648
0.5676347 2.4064574 0.46584266
0.45697153 2.318212 0.42079768
0.36833006 2.3129203 0.3941547
0.282289 2.3166692 0.3703064
0.57412708 2.4330313 0.37619299
0.45910108 2.3228185 0.33259758
0.36875653 2.3078172 0.30569243
0.28412116 2.3145447 0.28277126
0.57003397 2.4138007 0.28043425
0.46505019 2.3527021 0.24787466
0.3748239 2.3397605 0.22232357
0.28485957 2.3112197 0.19669318
0.56940389 2.4094405 0.18885137
0.46374691 2.3422406 0.15905187
0.37152544 2.3155479 0.13419466
0.28607458 2.314755 0.11088914
0.57597423 2.4338267 0.098747492
0.47038406 2.369684 0.072293639
0.37592927 2.3354375 0.048641484
0.28919724 2.3319967 0.025634017
0.5666219 2.3928168 0.0069955671
0.46930692 2.3597283 -0.016418988
0.37434885 2.319684 -0.03781442
0.28849313 2.3193583 -0.059937153
0.57678372 2.4300544 -0.084598444
0.46974269 2.3574028 -0.10406724
0.37545013 2.3175063 -0.12410721
0.28896409 2.3185194 -0.14576927
0.57382524 2.4104741 -0.1749185
0.46952218 2.3498757 -0.19196175
0.37388006 2.305521 -0.2093132
0.24808428 1.9857172 -0.1987541
0.56086534 2.3531163 -0.26031381
0.24125113 1.2046833 -0.14389285
0.21028434 1.2945675 -0.16601101
0.17512943 1.3989928 -0.19255732
0.27837083 1.1636745 -0.17335729
0.24578348 1.2237654 -0.19276364
0.20790394 1.2768151 -0.21269806
0.17115986 1.3655422 -0.24001683
0.27390388 1.1411275 -0.21460156
0.23644623 1.1744078 -0.23078008
0.20633261 1.2623034 -0.25892517
0.17267695 1.3741473 -0.29488641
0.2843672 1.1797285 -0.26911917
0.24262984 1.2023013 -0.28404835
0.20648344 1.2623957 -0.30915681
0.15430628 1.2314297 -0.31332204
0.27401909 1.1321133 -0.30471149
0.23988758 1.184129 -0.32832414
0.1285214 0.78446317 -0.22444569
0 0 -0
0.59288824 2.4369538 0.77483308
0.47910583 2.3589103 0.71492726
0.3769761 2.3005767 0.66772896
0.29155615 2.3183575 0.64497238
0.59730381 2.4618363 0.67636895
0.47784987 2.3495729 0.61383379
0.37875217 2.3005943 0.57324785
0.29485157 2.3222957 0.55139041
0.59869397 2.4677541 0.57669073
0.47493753 2.3369238 0.51654822
0.3803021 2.3044882 0.48262867
0.29554951 2.3145366 0.45875394
0.58979696 2.4334912 0.47176754
0.48002198 2.3587775 0.42868766
0.38364238 2.3174272 0.39531645
0.29649848 2.3148935 0.3703064
0.59417129 2.4506054 0.37946683
0.48245159 2.3645911 0.33899638
0.38469708 2.3162708 0.30711907
0.2984446 2.3137424 0.28289163
0.59350348 2.4459867 0.28459135
0.48027286 2.353703 0.24828592
0.38884631 2.3354523 0.22213672
0.2986517 2.3064637 0.19644068
0.59805816 2.4630694 0.19333878
0.47950846 2.346194 0.15951712
0.38654742 2.3181486 0.13448028
0.29937208 2.3060222 0.11055671
0.5982154 2.4603457 0.099970497
0.48852661 2.3843789 0.072832026
0.3892625 2.3271701 0.048518132
0.30388811 2.333153 0.025666742
0.60327792 2.4796586 0.007260141
0.48659208 2.370518 -0.016514527
0.39089 2.3311486 -0.038039695
0.30271903 2.3175447 -0.059937153
0.60020709 2.4614248 -0.085817151
0.48741853 2.3701336 -0.10475929
0.39115471 2.3240218 -0.12458232
0.30305532 2.3157132 -0.145707
0.58339173 2.3855906 -0.17336929
0.48413324 2.3479269 -0.19204162
0.38702667 2.2972906 -0.20877767
0.28252399 2.1538618 -0.21575345
0.56630802 2.3129327 -0.25624809
0.24542236 1.1876178 -0.14203167
0.21838877 1.2942311 -0.16613659
0.18771231 1.4283448 -0.19675218
0.27464285 1.1177348 -0.1667614
0.23784584 1.1477196 -0.18101163
0.21145593 1.2502191 -0.20847979
0.18197723 1.3830237 -0.24328119
0.28254873 1.146111 -0.21586074
0.24324839 1.1710122 -0.23040175
0.2145662 1.2639124 -0.25952041
0.17688464 1.3410625 -0.28801405
0.27987084 1.1305777 -0.25829378
0.24940673 1.1979287 -0.28337148
0.21129534 1.2438558 -0.30492824
0.15262823 1.160285 -0.29545289
0.28562754 1.1491883 -0.30977312
0.23471233 1.1231251 -0.31180301
0.13155675 0.7732237 -0.22145671
0.10271236 0.78103364 -0.23125245
0.62172318 2.4888875 0.79254353
0.4939639 2.3578026 0.71549666
0.39269781 2.3076975 0.67048252
0.30527127 2.3127024 0.64390808
0.61590147 2.4721875 0.68023831
0.49384871 2.3541815 0.61581784
0.39531559 2.3125851 0.5768292
0.30948094 2.3233373 0.55207825
0.62396067 2.5047228 0.58621365
0.49428067 2.3578792 0.52184075
0.39509654 2.3059723 0.4834381
0.30987597 2.3136523 0.45894688
0.62133056 2.4965799 0.48472819
0.50014895 2.382766 0.43359694
0.39785463 2.3150294 0.39531645
0.3118802 2.3218403 0.3717168
0.61923051 2.4872153 0.38571683
0.49878666 2.3703079 0.34024832
0.401766 2.3304782 0.30932394
0.3125028 2.310884 0.28277126
0.61738908 2.4779742 0.28874841
0.49675435 2.3604457 0.24931403
0.40469491 2.3418524 0.22297746
0.31320032 2.30755 0.19669318
0.61581337 2.469996 0.19417542
0.5010981 2.3773794 0.16184342
0.40229627 2.3245869 0.13499445
0.31445864 2.31107 0.11088914
0.62007731 2.4837737 0.10107514
0.50314772 2.3813365 0.072832026
0.40609923 2.3395138 0.048826508
0.31698126 2.3223276 0.025568567
0.61848146 2.4759104 0.007260141
0.5013352 2.3684659 -0.01652135
0.40707168 2.3395422 -0.038216699
0.31883129 2.3295095 -0.060296055
0.61942506 2.4741774 -0.086392649
0.49987978 2.3573251 -0.10432676
0.40489194 2.3186269 -0.12442395
0.31902111 2.3266647 -0.14651649
0.35244712 1.4038312 -0.10217662
0.50018901 2.3527122 -0.19268042
0.40351614 2.3086085 -0.21002729
0.30670771 2.2319407 -0.22375898
0.31460336 1.2516159 -0.13887684
0.24918643 1.1695757 -0.14005417
0.22735234 1.2987301 -0.16689005
0.1952568 1.4183322 -0.1955343
0.28972542 1.1486553 -0.17163663
0.25727233 1.2042271 -0.19016904
0.22014627 1.2547294 -0.20945323
0.18064098 1.3106401 -0.23073916
0.28426695 1.1233759 -0.2119033
0.24487764 1.1435728 -0.22529434
0.22265732 1.2645026 -0.2599172
0.18256684 1.3215435 -0.28405726
0.2783885 1.0957215 -0.25071603
0.25021094 1.1658949 -0.27615184
0.21892351 1.2425359 -0.30492824
0.13870132 1.0066068 -0.25653243
0.28836945 1.1305404 -0.30521765
0.25338462 1.1763792 -0.32701293
0.14365713 0.81410211 -0.23341264
0 0 -0
0.63698298 2.4850259 0.79254353
0.51125431 2.3678458 0.71948272
0.40985766 2.3222852 0.67543882
0.31998402 2.3146052 0.64497238
0.64134926 2.5086119 0.69133055
0.51176441 2.367204 0.6200341
0.41102338 2.3187218 0.578978
0.32359636 2.3204305 0.55184895
0.64197445 2.5112398 0.58864975
0.51059651 2.3633997 0.52374607
0.41077998 2.3121824 0.48525929
0.32556483 2.322396 0.46106893
0.64271706 2.5165243 0.48935702
0.51330286 2.3729167 0.43236962
0.41170591 2.3106029 0.39498451
0.32735822 2.328685 0.37312716
0.63937587 2.5025311 0.38869306
0.51541978 2.3768806 0.34163937
0.41518572 2.3230886 0.30867544
0.32876226 2.3236668 0.28457695
0.63750482 2.4933932 0.29099548
0.51502305 2.374851 0.25116459
0.41817889 2.3344252 0.2225104
0.32959449 2.3213696 0.19803981
0.64010173 2.5019124 0.19698957
0.51249927 2.3596342 0.16084643
0.41760978 2.3279707 0.13533722
0.32961836 2.3160193 0.11122157
0.65439969 2.5544555 0.10411292
0.52242762 2.3996911 0.073490053
0.41991553 2.3340261 0.04876484
0.33249661 2.3292482 0.025666742
0.65153933 2.5418139 0.0074649728
0.52203763 2.3936787 -0.016719252
0.42212898 2.3409364 -0.038281064
0.33340219 2.3294888 -0.06034733
0.64180595 2.4984019 -0.087374382
0.51731998 2.367878 -0.1049323
0.42071149 2.3249428 -0.12489905
0.33456606 2.333555 -0.1470769
0.34313837 1.3320915 -0.097106524
0.51952076 2.3719945 -0.19451699
0.41998151 2.31883 -0.21118766
0.32053837 2.2310016 -0.22385781
0.30291075 1.1745666 -0.13053139
0.25763562 1.1738453 -0.14075211
0.22398488 1.2348367 -0.1588532
0.19887459 1.3818023 -0.19066286
0.2960242 1.1439817 -0.17120644
0.24723929 1.1234803 -0.17765389
0.22554673 1.2407342 -0.20734411
0.19120835 1.3270581 -0.23383172
0.28151524 1.0844774 -0.20488782
0.25908065 1.1746511 -0.2317259
0.22830133 1.2515422 -0.25753629
0.18815602 1.3029737 -0.28030872
0.28289062 1.0854901 -0.24876744
0.25210348 1.1405562 -0.27051148
0.22497264 1.2325633 -0.30281392
0.18012623 1.2504532 -0.31895205
0.28526163 1.0903759 -0.29484126
0.25997105 1.171976 -0.3262262
0.16422413 0.89840728 -0.25786799
0 0 -0
0.65319043 2.4847667 0.79372418
0.52639771 2.3674715 0.72033691
0.42651969 2.3329659 0.67929369
0.33418015 2.3125982 0.64497238
0 0 0
0.52964783 2.3791492 0.62400228
0.4285748 2.3343031 0.58351427
0.3381089 2.3203278 0.55230749
0.66058618 2.5195162 0.59152877
0.52912104 2.3783484 0.52776831
0.42655447 2.3182867 0.48708054
0.3402352 2.3232672 0.46164769
0.67308694 2.5695713 0.50046611
0.52999365 2.3793318 0.43412295
0.42855984 2.3225799 0.39747393
0.34121016 2.3237011 0.37265703
0.65146053 2.4861252 0.38675854
0.53366292 2.3901033 0.34400412
0.42997339 2.3234224 0.30906454
0.34330404 2.32357 0.2848177
0.64951545 2.4769394 0.28953487
0.53218651 2.3832958 0.25239831
0.43503672 2.3455203 0.22381818
0.34310129 2.3143752 0.19761898
0.64936751 2.4747908 0.19516417
0.52958119 2.36813 0.16164401
0.43243301 2.3283093 0.13550861
0.34455705 2.3188934 0.11145902
0.66498309 2.5310638 0.10332388
0.53583038 2.3905885 0.073310599
0.4349612 2.3353372 0.048847072
0.34707707 2.3291421 0.025688555
0.66941154 2.5464723 0.0074905767
0.53846771 2.398236 -0.016773846
0.43593431 2.3353536 -0.038232792
0.34857559 2.3333313 -0.060501147
0.66450721 2.522444 -0.088356122
0.53512764 2.3792799 -0.1055811
0.43680754 2.3321331 -0.12542695
0.34873044 2.330471 -0.14701462
0.3500317 1.3251387 -0.096754432
0.53165364 2.3580658 -0.19363864
0.43475223 2.3191462 -0.21145543
0.3379105 2.2535956 -0.22632864
0.32053384 1.2120959 -0.13491809
0.26548997 1.1751488 -0.14110108
0.22789647 1.213938 -0.15634169
0.20425904 1.35998 -0.18782118
0.29415494 1.1086639 -0.16618784
0.26657259 1.1768826 -0.18635346
0.23114866 1.2286597 -0.20555945
0.19260976 1.2810476 -0.22592852
0.2967661 1.11505 -0.21100388
0.26150107 1.1519725 -0.22756431
0.22943155 1.2154458 -0.25039354
0.19614738 1.3017946 -0.28030872
0.29382968 1.0997682 -0.25244805
0.26514772 1.1655865 -0.27682871
0.2307273 1.2216084 -0.30046472
0.18750724 1.247407 -0.31846249
0.28317574 1.0559001 -0.28598335
0.25985554 1.1383715 -0.31731007
0 0 -0
0 0 -0
0.66941869 2.4844022 0.79490489
0.55245948 2.4146581 0.73571163
0.44136253 2.3331387 0.68011975
0.34879482 2.3133638 0.64577061
0 0 0
0.55094171 2.4051278 0.63169074
0.44397706 2.3373537 0.58494681
0.35350984 2.3259077 0.55414158
0.67578006 2.5144737 0.59130728
0.5434863 2.3741043 0.5275566
0.44186988 2.321398 0.48829472
0.35537291 2.3269558 0.46280521
0.67278576 2.5056002 0.48880154
0.5555802 2.4240165 0.44288954
0.44428194 2.3276556 0.39880159
0.35635856 2.3274212 0.37359729
0.67208976 2.5021365 0.38988355
0.55009204 2.3945053 0.34511697
0.44794983 2.3402178 0.31165844
0.35740361 2.3204386 0.28469732
0.66960222 2.4911401 0.29166961
0.5568229 2.4236102 0.25702474
0.45054579 2.3486736 0.22437866
0.35790426 2.3161654 0.19795564
0.66764808 2.4823143 0.19607686
0.55014235 2.3910904 0.16343859
0.44671109 2.3256121 0.13550861
0.36000192 2.3246324 0.11183894
0.67686319 2.5134277 0.10277156
0.55273461 2.3969955 0.073609702
0.45325327 2.3532407 0.049278799
0.36289632 2.3368495 0.025797637
0.68580431 2.5452137 0.0074991118
0.55789888 2.4153476 -0.016917154
0.45613009 2.3630688 -0.03873162
0.36380869 2.3370752 -0.060654964
0.67788798 2.5106003 -0.088085301
0.5584994 2.4139123 -0.10726797
0.45357722 2.342154 -0.12611321
0.36256212 2.3253288 -0.14682782
0.35685268 1.3181517 -0.09640234
0.55016607 2.3722377 -0.19507594
0.44613123 2.3017676 -0.21011654
0.36064041 2.3085039 -0.23206097
0.32510418 1.1995502 -0.13374117
0.26999784 1.1618885 -0.1397052
0.23118214 1.1910908 -0.15357903
0.20340969 1.2999676 -0.17970212
0.29497975 1.0848732 -0.1628899
0.26594064 1.141537 -0.18101163
0.23868322 1.2272183 -0.20555945
0.20305806 1.2963871 -0.22884925
0.30308467 1.1113099 -0.2106441
0.26767153 1.1465213 -0.22680764
0.23932526 1.2265209 -0.25297287
0.20610291 1.3131279 -0.283016
0.30315 1.107361 -0.25461313
0.26097673 1.1155587 -0.26532233
0.23579732 1.2077676 -0.29741073
0.19350758 1.235696 -0.31576988
0.30323464 1.1035849 -0.29939675
0.26837921 1.1433318 -0.31914574
0.16175687 0.82737631 -0.238032
0.11517026 0.73561937 -0.21857722
0.69227707 2.5078778 0.80376011
0.5764854 2.4504144 0.74766982
0.46120453 2.358691 0.6883803
0.36283323 2.3102279 0.64550453
0.69639343 2.5289838 0.70035917
0.5687983 2.4149034 0.63516295
0.45924577 2.33935 0.58614063
0.36731821 2.3208108 0.5534538
0.69326687 2.5178013 0.59307903
0.56655276 2.4068756 0.53560126
0.45988581 2.3378611 0.49234194
0.37026048 2.3286076 0.46357685
0.70404756 2.5592232 0.50009584
0.57834727 2.4541008 0.4490262
0.46027324 2.3335931 0.40029526
0.3712545 2.3290923 0.37422413
0.69582605 2.528475 0.39464548
0.57365203 2.4286714 0.35054204
0.46441689 2.348125 0.31308508
0.37352049 2.3299646 0.28614187
0.68883222 2.5013545 0.2933549
0.57625693 2.4395094 0.25908098
0.46630347 2.3527012 0.22503255
0.37400776 2.3257315 0.19896562
0.70167333 2.5464218 0.20147696
0.57238317 2.4197123 0.16563194
0.4650535 2.3433919 0.1367083
0.3761659 2.3342135 0.11240882
0.69971353 2.5361981 0.10387621
0.57112104 2.4091206 0.074088268
0.46943998 2.3592405 0.049463827
0.37866369 2.3434632 0.02589581
0.70353723 2.5486693 0.0075218705
0.58125657 2.4478772 -0.017169649
0.47101209 2.3621869 -0.038763802
0.37686324 2.3269043 -0.060449872
0.69914162 2.527585 -0.088830061
0.57907963 2.4347386 -0.10834931
0.47303256 2.3647861 -0.12748572
0.37730265 2.3260159 -0.14701462
0.36626682 1.3207434 -0.096754432
0.56332451 2.3629994 -0.19459684
0.46435204 2.3194962 -0.21199098
0.37559649 2.3111589 -0.23255515
0.3305966 1.1908267 -0.13299222
0.27919865 1.1689042 -0.14075211
0.2392662 1.1935409 -0.15408133
0.2204552 1.3544372 -0.18741524
0.31756207 1.1402459 -0.17149325
0.27777278 1.1600671 -0.18421671
0.2462088 1.2257307 -0.20555945
0.20388006 1.2513628 -0.22111787
0.30434033 1.0895336 -0.20686655
0.26828638 1.1181217 -0.22151104
0.24471687 1.2144604 -0.25079036
0.20785287 1.2732266 -0.27468586
0.30572212 1.0904396 -0.25114903
0.27214372 1.1319337 -0.26960903
0.23820889 1.1815242 -0.29130277
0.21137415 1.297645 -0.33192554
0.30816603 1.0951844 -0.29762515
0.27878383 1.1557351 -0.32307935
0 0 -0
0 0 -0
0.70219469 2.4842751 0.79756147
0.59624028 2.4663982 0.75364888
0.47205347 2.3379126 0.68314868
0.38026509 2.3279362 0.65109217
0.71163565 2.5237334 0.7001012
0.60069633 2.4819858 0.65376395
0.47474858 2.3421984 0.58757311
0.38423854 2.334841 0.55735141
0.70499778 2.50036 0.58997852
0.59187973 2.4470513 0.54533947
0.47792533 2.3532298 0.49618676
0.38550174 2.3321004 0.46473435
0.72373444 2.5690434 0.50287312
0.59107739 2.4409375 0.44727287
0.47871515 2.3510175 0.4037804
0.38440841 2.3199499 0.37312716
0.71052271 2.5213025 0.39419904
0.59531617 2.4530137 0.35457602
0.47861764 2.3442597 0.31295538
0.38780987 2.3276289 0.28614187
0.70416731 2.4970808 0.2933549
0.59590679 2.4552603 0.26113716
0.48073059 2.3497958 0.22503255
0.39172029 2.3440323 0.2007331
0.70861983 2.5113599 0.19904311
0.59664512 2.4549372 0.16829056
0.48202798 2.353209 0.13745096
0.39147112 2.3377724 0.11269376
0.71281731 2.5232027 0.10352114
0.60126698 2.4686964 0.076032445
0.48712519 2.3719854 0.049792763
0.39303577 2.3410957 0.02589581
0.72188228 2.5539274 0.0075503192
0.60005736 2.4598083 -0.017278835
0.48670655 2.3651285 -0.038860351
0.39163139 2.3275056 -0.060526781
0.72580367 2.5626736 -0.09021803
0.59803915 2.4476385 -0.10908461
0.48813936 2.364773 -0.12764409
0.39322621 2.333499 -0.14763731
0.37136677 1.3079158 -0.095979832
0.54604167 2.2297602 -0.18389682
0.48300859 2.3380623 -0.21395469
0.3884452 2.3009608 -0.23176447
0.33218849 1.1686918 -0.13074537
0.28210565 1.1498063 -0.13865827
0.24015421 1.1609617 -0.1500629
0.22529313 1.3325434 -0.18457356
0.29660189 1.0402471 -0.15672417
0.27001587 1.0978806 -0.17460144
0.24891895 1.2010076 -0.20166565
0.21549952 1.2734001 -0.22524129
0.30993801 1.0838625 -0.206147
0.27749163 1.1259888 -0.22340269
0.23740128 1.1419255 -0.23610801
0.20977521 1.2372121 -0.26718876
0.30351973 1.0575759 -0.24400428
0.27511379 1.1141639 -0.26577359
0.24703768 1.1876534 -0.29318213
0.21431813 1.2666879 -0.32433727
0.31059611 1.0783986 -0.29357585
0.28076521 1.1333954 -0.31731007
0 0 -0
0.12786962 0.75591028 -0.22505566
0 0 0
0.62037021 2.4989779 0.76475292
0.49227113 2.3632064 0.69140923
0.3955093 2.3312614 0.65268862
0 0 0
0.6236248 2.5092785 0.66194838
0.49447721 2.3649056 0.59401947
0.3979018 2.3286014 0.55643427
0.72032642 2.4959872 0.58997852
0.62549514 2.5183063 0.56206375
0.49416268 2.3588796 0.49800801
0.40046781 2.3335593 0.46550602
0.70082188 2.4304721 0.47658151
0.61863482 2.4879017 0.45656547
0.49657735 2.3644421 0.4066017
0.40064523 2.3292279 0.37500772
0.73255712 2.5396984 0.39777049
0.61825818 2.481024 0.35916644
0.49973488 2.3732979 0.31723535
0.40225378 2.3261836 0.28626224
0.72774249 2.521354 0.29672548
0.62394971 2.5036774 0.26668888
0.49822265 2.3614144 0.22643374
0.4067767 2.3455117 0.20106974
0.72567588 2.5127125 0.19949946
0.62160218 2.4909225 0.17101565
0.49975941 2.3658361 0.13836503
0.40563703 2.3343425 0.11264627
0.73883277 2.5552576 0.10502031
0.61616081 2.4639909 0.076002538
0.50374156 2.3787327 0.049998347
0.40945235 2.3504612 0.026026707
0.73337084 2.5350411 0.0075076465
0.62315637 2.4880908 -0.017504033
0.50307739 2.3709002 -0.039005168
0.4060773 2.3260438 -0.060552422
0.73372346 2.5312941 -0.089270145
0.61839414 2.4652419 -0.11003619
0.50492674 2.3724775 -0.12822476
0.40736502 2.3300593 -0.14757504
0.3830035 1.3180652 -0.096895263
0.33101562 1.3166795 -0.10875704
0.49983543 2.3467445 -0.21502581
0.40616134 2.319118 -0.23383999
0.33490998 1.1513566 -0.12903349
0.28697222 1.1393855 -0.13761136
0.25037706 1.1740203 -0.15194654
0.22987081 1.3106419 -0.18173188
0.31822512 1.0906605 -0.16461055
0.28279504 1.1201587 -0.17841701
0.25339699 1.1859481 -0.19939429
0.22075385 1.2574992 -0.22266413
0.31133392 1.0640025 -0.20272923
0.28680342 1.1337845 -0.22529434
0.24727888 1.1538644 -0.23888576
