# .PCD v0.7 - Point Cloud Data file format
VERSION 0.7
FIELDS x y z
SIZE 4 4 4
TYPE F F F
COUNT 1 1 1
WIDTH 1676
HEIGHT 1
VIEWPOINT 0 0 0 1 0 0 0
POINTS 1676
DATA ascii
0 -0 -0
0.22466317 -0.78284574 -0.1886135
0.24503067 -0.74823201 -0.19028649
0 -0 -0
0 -0 -0
0.22089434 -0.77189749 -0.21818344
0.24061108 -0.73538709 -0.21846771
0.26308575 -0.71191716 -0.22280228
0.66643 -2.7238865 0.86633712
0.7598263 -2.6601646 0.82169652
0.86328655 -2.6387329 0.79521704
1.5033331 -4.0740867 1.19868
0 -0 0
0.76822716 -2.692245 0.71675938
0.86279923 -2.6439562 0.68379086
1.5074177 -4.1001325 1.0289564
0.63225818 -2.5770066 0.60260195
0.76494491 -2.6793244 0.60355693
0.85968161 -2.6378365 0.57328594
1.5044544 -4.1011314 0.85886145
0.45328298 -1.8457158 0.35808417
0.73637015 -2.5817978 0.47813138
0.86096907 -2.6463325 0.46833876
1.4994754 -4.0924182 0.69156247
0.65824258 -2.6812978 0.41547894
0.69192249 -2.4306228 0.35499334
0.8422572 -2.5934331 0.35666281
1.5014868 -4.1092267 0.53051209
0.65363038 -2.6645188 0.3102079
0.76523006 -2.6883197 0.28889585
0.87293011 -2.6915569 0.26548049
1.5020295 -4.1169524 0.37015685
0.66686529 -2.7203174 0.21364619
0.76239234 -2.6815495 0.18570451
0.87067145 -2.6868296 0.1616163
1.4991779 -4.1133723 0.20814866
0.67193985 -2.7447464 0.11156928
0.77525258 -2.7318573 0.084975682
0.86562586 -2.6758769 0.05783115
1.5028192 -4.1287374 0.047930155
0.66732413 -2.727541 0.0079884315
0.77512509 -2.7352247 -0.019401157
0.85755301 -2.6545599 -0.044894565
1.499877 -4.1253581 -0.11256803
0.67167908 -2.7515812 -0.095939174
0.77096766 -2.7243605 -0.12257961
0.85975087 -2.6669316 -0.14812627
1.0588652 -2.9145882 -0.19346651
0 -0 -0
0 -0 -0
0 -0 -0
0 -0 -0
0 -0 -0
0 -0 -0
0.24137659 -0.74982125 -0.099707067
0.27025428 -0.74514675 -0.10825428
0 -0 -0
0 -0 -0
0.24462481 -0.76091313 -0.13141528
0.26556918 -0.73258787 -0.13590072
0 -0 -0
0 -0 -0
0.23742902 -0.74008167 -0.1573392
0.26177347 -0.72282588 -0.16368695
0 -0 -0
0.22064446 -0.78702366 -0.18929036
0.23568565 -0.73491204 -0.18652774
0 -0 -0
0 -0 -0
0.19952667 -0.71375847 -0.2014001
0.23286416 -0.72676837 -0.21547873
0.26100206 -0.71983236 -0.224774
0.65191764 -2.7372186 0.86928886
0.75276381 -2.6980171 0.83194637
0.84502608 -2.6375716 0.79328948
1.4773222 -4.0805154 1.1978819
0 -0 0
0.75507474 -2.7090397 0.71998358
0.84951586 -2.6584504 0.68617845
1.484213 -4.1147985 1.0303321
0 -0 0
0 -0 0
0.84586179 -2.6505251 0.5749048
1.477933 -4.1065927 0.85808986
0.41041416 -1.7165658 0.33253318
0.64521337 -2.3159754 0.42816165
0.84411663 -2.6496863 0.46800688
1.4780116 -4.1117654 0.6932863
0 -0 0
0.6952998 -2.5006545 0.36459151
0.82843173 -2.6051669 0.35757068
1.4554763 -4.0604234 0.52304858
0.63819212 -2.6723452 0.31065732
0.74099344 -2.6651723 0.28591433
0.8467558 -2.6664965 0.26249126
1.474054 -4.1185861 0.36948356
0.64645791 -2.7088404 0.21242929
0.73711419 -2.6544507 0.18351115
0.85658443 -2.6997342 0.16207331
1.4799634 -4.1394234 0.20900346
0.65045291 -2.7293777 0.11078025
0.74592781 -2.6912906 0.083569892
0.85100198 -2.6868567 0.057954501
1.4788024 -4.1416478 0.047973789
0.64918554 -2.7257473 0.0079713622
0.74632436 -2.6965609 -0.019094069
0.84305793 -2.6654918 -0.044991113
1.4778941 -4.1438994 -0.11282438
0.65801769 -2.7692637 -0.096413113
0.73933303 -2.6751137 -0.12015744
0.84126669 -2.6654904 -0.14775673
1.0496726 -2.9454744 -0.19508548
0 -0 -0
0 -0 -0
0 -0 -0
0 -0 -0
0 -0 -0
0 -0 -0
0.23885866 -0.75791168 -0.1005861
0.2646808 -0.74399054 -0.10784833
0 -0 -0
0 -0 -0
0.24084003 -0.7652235 -0.13190199
0 -0 -0
0 -0 -0
0 -0 -0
0.23670126 -0.75368077 -0.15991853
0.25700599 -0.72349685 -0.1634787
0 -0 -0
0 -0 -0
0.23291875 -0.74190867 -0.18793726
0.26639405 -0.7490961 -0.20072193
0 -0 -0
0.20657757 -0.75686204 -0.21320088
0 -0 -0
0 -0 -0
0.62346458 -2.6909046 0.85334945
0.73443127 -2.696111 0.82995337
0.83227861 -2.6537144 0.79659373
1.4599987 -4.1113038 1.2042677
0 -0 0
0.73360515 -2.6958611 0.71527129
0.82912928 -2.6506379 0.68283588
1.4543921 -4.110981 1.0271221
0 -0 0
0 -0 0
0.83425462 -2.6706216 0.57814258
1.4582597 -4.1313128 0.86136937
0 -0 0
0.57621175 -2.1184914 0.39099118
0 -0 0
1.4557098 -4.1291399 0.69469666
0 -0 0
0.65581685 -2.4159942 0.35165486
0.80064398 -2.572331 0.35238287
1.0469735 -2.9782052 0.38280654
0.60784054 -2.6162016 0.30369142
0.72358406 -2.6658289 0.28550312
0.82712793 -2.6611834 0.2614637
1.4573354 -4.1519985 0.37167183
0 -0 0
0.71898544 -2.6521823 0.18304589
0.8305282 -2.6744289 0.1602452
1.4654431 -4.1795325 0.21057063
0.63459617 -2.737211 0.11093805
0.72600651 -2.6832736 0.083181053
0.8312434 -2.6815231 0.057728354
1.4685631 -4.1940565 0.04847556
1.6057239 -6.9303856 0.020238498
0.72663468 -2.6895049 -0.019012177
0.82964361 -2.680166 -0.045152027
1.4715812 -4.2076197 -0.11431127
1.1442809 -4.950561 -0.17210823
0.72186404 -2.6757417 -0.11998443
0.83550531 -2.7049508 -0.14965715
1.3819151 -3.9543421 -0.26133856
0 -0 -0
0 -0 -0
0 -0 -0
0 -0 -0
0 -0 -0
0 -0 -0
0.23537326 -0.7631551 -0.1010884
0.26141623 -0.74934262 -0.10838961
0 -0 -0
0.20912586 -0.77987623 -0.12469351
0.23614018 -0.76668686 -0.13190199
0.25850531 -0.74137294 -0.13693158
0 -0 -0
0 -0 -0
0.23639126 -0.76917201 -0.16289468
0 -0 -0
0 -0 -0
0.21851346 -0.81790823 -0.19605878
0.23606934 -0.76841104 -0.19428015
0.25221488 -0.72325134 -0.19337843
0 -0 -0
0.20714556 -0.77769768 -0.21870793
0.22392806 -0.72957122 -0.21547873
0.25499272 -0.73113501 -0.22730905
0 -0 0
0.71516544 -2.6903756 0.82682145
0.82415962 -2.6854234 0.80457896
1.4394999 -4.1338401 1.208259
0 -0 0
0.71182859 -2.6806493 0.71006304
0.81000751 -2.6463897 0.68044835
1.4348823 -4.1363807 1.031249
0 -0 0
0 -0 0
0.81813854 -2.6766267 0.57834494
1.4383386 -4.1559467 0.864649
0 -0 0
0.47884807 -1.804165 0.33243018
0.77441382 -2.5381718 0.44659805
1.4277653 -4.1305265 0.693443
0 -0 0
0.70462185 -2.6602468 0.38656992
0.7724241 -2.5364075 0.34680593
0.98015726 -2.8437917 0.36474964
0 -0 0
0.70084649 -2.6461799 0.28293285
0.80788696 -2.656683 0.26052958
1.4263197 -4.1448445 0.37024102
0 -0 0
0.70295352 -2.6575086 0.18311235
0.80336398 -2.6441305 0.15813145
1.4313279 -4.1638856 0.20933589
0 -0 0
0.70672214 -2.677047 0.082852043
0.80200714 -2.6444759 0.056823783
1.4353338 -4.1812358 0.048224673
0 -0 0
0.70807946 -2.6861773 -0.018957585
0.80506831 -2.6584115 -0.044701468
1.4272552 -4.1626692 -0.11285003
0 -0 -0
0.69983774 -2.658865 -0.11903285
0.80040592 -2.6488478 -0.14627865
1.3631248 -3.9787984 -0.26239714
0 -0 -0
0 -0 -0
0 -0 -0
0 -0 -0
0 -0 -0
0.20982404 -0.80029607 -0.096897937
0.23756379 -0.78737998 -0.10410222
0.25745466 -0.7528075 -0.10866024
0 -0 -0
0 -0 -0
0.23598605 -0.78323817 -0.13449785
0.24917194 -0.72896248 -0.13435446
0 -0 -0
0.20414864 -0.78193063 -0.15568197
0.23533557 -0.78281009 -0.16547401
0.24874035 -0.72844744 -0.16389522
0 -0 -0
0.21127969 -0.81074899 -0.19402824
0.22911206 -0.762398 -0.19240078
0.25718144 -0.75230879 -0.20072193
0 -0 -0
0.20503893 -0.78922796 -0.22159256
0.22359823 -0.74475741 -0.21955462
0.25639957 -0.74993616 -0.2326608
0 -0 0
0.69623834 -2.6854339 0.82397425
0.79965079 -2.663728 0.79659373
1.4113052 -4.1343842 1.2058642
0 -0 0
0 -0 0
0.80266666 -2.6810791 0.68808848
1.3887935 -4.0842848 1.0161173
0 -0 0
0.64870214 -2.5033426 0.56015843
0.79973614 -2.6750283 0.57692838
1.3951588 -4.112658 0.85384566
0 -0 0
0.53808224 -2.0787013 0.38239989
0.76220912 -2.554215 0.44858956
1.389717 -4.1017928 0.68717456
0.27809072 -1.2662253 0.19509059
0.67738795 -2.6223328 0.38044935
0.74524188 -2.5021372 0.34148842
0.90867728 -2.6898651 0.34428513
0 -0 0
0.68982071 -2.6706555 0.28509188
0.78475899 -2.6386864 0.25828767
1.3909886 -4.124248 0.36763191
0 -0 0
0.69286495 -2.685926 0.184774
0.78826225 -2.652838 0.15835996
1.317414 -3.910383 0.19618116
0.25944659 -1.1849852 0.04789431
0.70398873 -2.7345722 0.084497109
0.78633434 -2.651264 0.056864895
0.92499399 -2.7493973 0.031644374
0 -0 0
0.69681197 -2.7108097 -0.019100891
0.79044497 -2.6690536 -0.044798017
0.89699024 -2.6693976 -0.072216839
0.26063174 -1.1941885 -0.04140212
0.70064753 -2.7298803 -0.12201732
0.781874 -2.6460478 -0.14585634
0.88885683 -2.6473351 -0.17422572
0.22817121 -1.0487959 -0.075769849
0 -0 -0
0 -0 -0
0 -0 -0
0 -0 -0
0.20810743 -0.81407785 -0.098410144
0.2375005 -0.80499893 -0.106237
0 -0 -0
0 -0 -0
0 -0 -0
0.23173347 -0.78656441 -0.13482234
0.24938805 -0.74448937 -0.13693158
0 -0 -0
0.20201138 -0.7936362 -0.15776278
0.23025149 -0.78329903 -0.1652756
0 -0 -0
0 -0 -0
0.20822012 -0.81958389 -0.19583316
0.23045838 -0.78430635 -0.19756906
0.25379252 -0.75755006 -0.20170106
0 -0 -0
0.19711258 -0.77831012 -0.21818344
0.22119284 -0.75350267 -0.22172843
0 -0 -0
0 -0 0
0.68209654 -2.6989493 0.82682145
0.78654051 -2.6796536 0.79989803
0.8886708 -2.6565444 0.77322185
0.25606254 -1.2019778 0.32812408
0 -0 0
0.78483677 -2.6812937 0.68689471
0.88400924 -2.6530714 0.65868801
0.25420517 -1.1931571 0.27705073
0.63237232 -2.5034857 0.55931163
0.76929528 -2.6319463 0.56660807
0.87622696 -2.6360033 0.54614484
0.26013362 -1.2196255 0.23495802
0.4740141 -1.8786358 0.34505409
0.74569386 -2.5560036 0.44809166
0.87005824 -2.6208072 0.43816197
0.26598606 -1.2475981 0.19196557
0.66612059 -2.6456461 0.38323143
0.77395028 -2.6580334 0.36210999
0.89153159 -2.693505 0.34404436
0.25236046 -1.1847016 0.13695888
0.67487794 -2.6806252 0.2857087
0.77133316 -2.6530125 0.25922179
0.877922 -2.6567392 0.2363348
0.23062694 -1.0835091 0.084500156
0.67807448 -2.6969004 0.18523926
0.76974201 -2.6499548 0.15790294
0.88449347 -2.6796079 0.13415924
0.25445566 -1.197306 0.048328277
0.69035876 -2.7514439 0.084885947
0.7733925 -2.667562 0.057111599
0.88087285 -2.6723993 0.030695371
0.25552431 -1.2031605 0.0034992059
0.68210971 -2.7227943 -0.019155487
0.77516526 -2.677695 -0.044862382
0.87746823 -2.6653557 -0.071960472
0.25537056 -1.2055424 -0.041740648
0.67976284 -2.7176516 -0.12128202
0.75731045 -2.6220136 -0.14427266
0.87384379 -2.6565316 -0.17447479
0.24769646 -1.1731522 -0.084642522
0 -0 -0
0 -0 -0
0 -0 -0
0 -0 -0
0 -0 -0
0 -0 -0
0.25623342 -0.78038549 -0.1121785
0 -0 -0
0 -0 -0
0 -0 -0
0.24665828 -0.75162166 -0.13796243
0 -0 -0
0 -0 -0
0.22408774 -0.77998698 -0.16428356
0.24282922 -0.74073911 -0.16597775
0 -0 -0
0.20271917 -0.81895477 -0.19538194
0.22778805 -0.79317969 -0.19944842
0.25458187 -0.77567518 -0.20610715
0 -0 -0
0.18955922 -0.76826209 -0.21503657
0.21921925 -0.76409626 -0.22444569
0 -0 -0
0 -0 0
0.66919005 -2.7179768 0.83137691
0.77167416 -2.6899738 0.80155015
0.86695045 -2.6454592 0.7684325
0.25220162 -1.2205575 0.33276734
0 -0 0
0.76730156 -2.6823244 0.68593967
0.87073392 -2.6676989 0.66098064
0.24905011 -1.2051994 0.27948684
0 -0 0
0 -0 0
0.8652007 -2.657191 0.54942441
0.24945982 -1.2058014 0.23199558
0.50407296 -2.0507302 0.37608796
0.73134834 -2.5652728 0.44892147
0.8506012 -2.6157646 0.43643811
0.2445085 -1.1823885 0.18169764
0.64845932 -2.6439128 0.38239682
0.76820922 -2.6999266 0.36716813
0.87437552 -2.697036 0.34380361
0.24589074 -1.1901201 0.13740829
0.66149724 -2.6972747 0.28704524
0.76184225 -2.6816385 0.26155713
0.86313826 -2.6668162 0.23675564
0.24655318 -1.1942731 0.093018621
0.66768515 -2.726208 0.18696736
0.77036893 -2.7141747 0.1614449
0.8686496 -2.6868854 0.13425422
0.24367516 -1.1822078 0.047657598
0.66658145 -2.7274697 0.084018543
0.77881026 -2.749212 0.058756281
0.86538029 -2.6806085 0.030728096
0.24490926 -1.1890348 0.003453688
0.66681242 -2.7327573 -0.019196432
0.77069467 -2.7247343 -0.045570396
0.86140412 -2.6716409 -0.071986109
0.24897423 -1.2119817 -0.041909914
0.67016912 -2.7508914 -0.12257961
0.74690318 -2.6467936 -0.14538123
0.84865206 -2.634294 -0.17266902
0.24109371 -1.1775818 -0.084853776
0 -0 -0
0 -0 -0
0 -0 -0
0.20313539 -0.99359262 -0.1091328
0 -0 -0
0.2219543 -0.78779972 -0.10359991
0.24931711 -0.77534032 -0.11123127
0 -0 -0
0 -0 -0
0.23061486 -0.819745 -0.14001405
0.24053466 -0.74843156 -0.13710338
0 -0 -0
0.19133493 -0.7922374 -0.15700613
0.2232704 -0.79550213 -0.16725971
0.23678471 -0.73755884 -0.16493648
0 -0 -0
0.19769034 -0.82018322 -0.19538194
0.21582766 -0.76929367 -0.19310555
0 -0 -0
0.17409089 -0.86693752 -0.23131751
0.18348917 -0.76378089 -0.21346313
0.21608502 -0.77098697 -0.22607604
0.23873486 -0.74265343 -0.22899906
0 -0 0
0.65987444 -2.7527943 0.84077263
0.75671071 -2.700212 0.80320221
0.84805077 -2.6424682 0.76603776
0.24337979 -1.2154505 0.33096161
0 -0 0
0.75762355 -2.7112987 0.69214731
0.8561269 -2.6785543 0.66235632
0.23265079 -1.161764 0.26907805
0 -0 0
0 -0 0
0.85037053 -2.6671243 0.55038899
0.2416701 -1.2053822 0.23162527
0.41793019 -1.7464349 0.31980625
0.66215622 -2.3778148 0.41539755
0 -0 0
0.24016351 -1.1984104 0.1839298
0.50412363 -2.1113386 0.3049159
0.73861885 -2.6577773 0.36081305
0.85120255 -2.6815338 0.34115526
0.23468205 -1.1721199 0.13516122
0.64123875 -2.6858027 0.28540027
0.73845232 -2.6613188 0.25912839
0.84435058 -2.6644628 0.2360823
0.24058983 -1.2026075 0.093551025
0.63775468 -2.6749301 0.18317881
0.74063218 -2.6717083 0.15864561
0.85094112 -2.6883557 0.13406426
0.24150512 -1.2091573 0.048683345
0.64243066 -2.7003913 0.083061412
0.74513131 -2.6932328 0.057461094
0.85373777 -2.7011232 0.030902626
0.22860557 -1.1454051 0.0033228234
0.65141845 -2.742635 -0.019237377
0.73878646 -2.6744769 -0.044653196
0.84950894 -2.6911757 -0.072370656
0.2388016 -1.1997638 -0.041435976
0.65419936 -2.7588403 -0.12275262
0 -0 -0
0.83787602 -2.6565847 -0.17378984
0.23172881 -1.1682758 -0.084079176
0 -0 -0
0 -0 -0
0 -0 -0
0.20340964 -1.0270057 -0.11266357
0 -0 -0
0.22185336 -0.80636454 -0.10586028
0.25675303 -0.81560379 -0.11677931
0 -0 -0
0 -0 -0
0.22113699 -0.80496913 -0.13725595
0.24569467 -0.780904 -0.14277308
0 -0 -0
0.19186217 -0.81633806 -0.16154605
0.21864414 -0.79780233 -0.16745812
0.23548043 -0.74926168 -0.16722725
0 -0 -0
0.19754829 -0.84224731 -0.20034546
0.21701008 -0.79216534 -0.19850874
0.23747729 -0.75469428 -0.19974279
0 -0 -0
0.18582821 -0.79496187 -0.22185479
0.21338248 -0.7797243 -0.22824985
0.23676586 -0.75234163 -0.23153411
0.21732026 -1.1247745 0.3539142
0 -0 0
0.7335313 -2.6806955 0.79604304
0.83759946 -2.6660147 0.77135932
0.23407853 -1.207436 0.32838202
0 -0 0
0.72614849 -2.6615596 0.67829955
0.83240932 -2.660533 0.65662456
0.2292302 -1.1823165 0.2735073
0.36808461 -1.579065 0.35121045
0 -0 0
0.83691257 -2.6816585 0.55231816
0.23595487 -1.2155248 0.23329166
0.39626718 -1.701982 0.31121495
0 -0 0
0.79992372 -2.5666025 0.42656538
0.23563099 -1.2144228 0.18616195
0.50527555 -2.1751614 0.31367946
0.71061373 -2.6191964 0.35497677
0.83974016 -2.7028227 0.3432017
0.22767475 -1.1745133 0.13527358
0.27118877 -1.1675333 0.12388593
0.71117568 -2.625438 0.25520504
0.82887143 -2.6724489 0.2363348
0.23567101 -1.216787 0.094539776
0 -0 0
0.72187775 -2.6675291 0.15813145
0.83117819 -2.6830306 0.13354187
0.23123592 -1.1959007 0.048091568
0 -0 0
0.72259635 -2.6755543 0.056988247
0.84246689 -2.7235057 0.031098969
0.23219655 -1.2017691 0.0034821369
1.2428179 -5.3791661 -0.037676323
0.72184169 -2.6770289 -0.044621017
0.83327526 -2.6972926 -0.072396286
0.23181364 -1.2031692 -0.041503679
0.94668233 -4.10429 -0.18235555
0 -0 -0
0.82479769 -2.6721661 -0.17447479
0.22493219 -1.171635 -0.084220015
0 -0 -0
0 -0 -0
0 -0 -0
0 -0 -0
0 -0 -0
0 -0 -0
0.24911837 -0.80864185 -0.11556145
0.21631789 -1.1334944 -0.16719157
0 -0 -0
0.21772693 -0.81202936 -0.1382294
0.24466708 -0.79463649 -0.14500658
0.18953562 -0.99731547 -0.18564025
0 -0 -0
0.21425129 -0.80102253 -0.16785493
0 -0 -0
0 -0 -0
0.19151007 -0.83964425 -0.199443
0.21591125 -0.80756748 -0.20203257
0.23826367 -0.77374333 -0.20439367
0 -0 -0
0.17517203 -0.77068013 -0.21477434
0.2051176 -0.76800191 -0.22444569
0.22649683 -0.73544008 -0.22590068
0.2125206 -1.1373571 0.35745633
0 -0 0
0.71582896 -2.6805022 0.79466629
0.83057356 -2.7015097 0.78013986
0.22719961 -1.2116983 0.32915589
0 -0 0
0 -0 0
0.82290751 -2.687928 0.66212702
0.21621984 -1.15303 0.26642048
0.29552487 -1.303924 0.28960571
0.64383739 -2.4219408 0.51783925
0.81557083 -2.6707897 0.54903859
0.22395851 -1.1928039 0.22866283
0.32191229 -1.4220783 0.25966725
0.51509082 -1.9415886 0.33806029
0.78300792 -2.5676837 0.42593855
0.22598627 -1.2041831 0.18437622
0 -0 0
0.69072288 -2.6091292 0.35303131
0.81823188 -2.6917775 0.34115526
0.22192864 -1.1837013 0.1361724
0.27694693 -1.2264212 0.12995172
0.69886917 -2.6441908 0.25660625
0.80898595 -2.6660423 0.23532483
0.22948563 -1.2250705 0.095072173
0 -0 0
0.70830011 -2.6825264 0.15875986
0.80398005 -2.6527107 0.13178474
0.22719972 -1.2149765 0.048801698
0.24132831 -1.0726967 0.032901529
0.7048921 -2.6751039 0.056885459
0.81067908 -2.6788559 0.030531749
0.22573665 -1.2080861 0.0034963612
0.27061921 -1.2049562 -0.0084278677
0.70692837 -2.6872094 -0.044717561
0.80658716 -2.6688623 -0.07149902
0.22735567 -1.2202892 -0.042045329
0 -0 -0
0 -0 -0
0 -0 -0
0.22046977 -1.1877046 -0.085276283
0.22387384 -1.0009847 -0.082166657
0 -0 -0
0 -0 -0
0.20818546 -1.123275 -0.12293489
0 -0 -0
0 -0 -0
0.23729053 -0.78738737 -0.11231382
0.20720419 -1.1231215 -0.1654709
0 -0 -0
0.21124212 -0.80762219 -0.13725595
0.24205954 -0.80366898 -0.14638107
0.19389844 -1.0555421 -0.1962534
0.18843038 -0.84834719 -0.16741015
0.20858997 -0.79947704 -0.16725971
0.23134013 -0.76895386 -0.17097582
0.18072933 -0.98919499 -0.22300303
0 -0 -0
0.21168794 -0.81169873 -0.20273733
0.22512196 -0.74733955 -0.1970502
0 -0 -0
0.172521 -0.78116339 -0.21739674
0 -0 -0
0.22530137 -0.74784064 -0.22928074
0.20502873 -1.135819 0.35657078
0 -0 0
0.70518416 -2.707171 0.80127472
0.81148314 -2.698247 0.77774513
0.22268835 -1.2292312 0.33354121
0.26524374 -1.2053568 0.31596938
0 -0 0
0.80974984 -2.7041159 0.66487825
0.21905033 -1.2090292 0.27904391
0.30433252 -1.3820702 0.30654174
0.57095921 -2.2021258 0.47008234
0.78849727 -2.6400168 0.54170775
0.21382879 -1.1786848 0.22570042
0.26877275 -1.2221053 0.22284743
0.48612374 -1.8788385 0.32660905
0.76018113 -2.5487785 0.42202079
0.21929899 -1.2094389 0.18497147
0.28373152 -1.2932425 0.185982
0.66354644 -2.5701151 0.347195
0.78133219 -2.6282344 0.33248794
0.21696389 -1.1977516 0.137633
0.25811979 -1.176603 0.12450279
0.691329 -2.6821733 0.25987568
0.78665906 -2.6508949 0.23355736
0.21912329 -1.2107569 0.093855262
0.26004475 -1.1871593 0.080954939
0.69680607 -2.7061584 0.15990242
0.78399813 -2.645144 0.13116737
0.21867464 -1.2104479 0.048564989
0.25778922 -1.17962 0.036131863
0.69194806 -2.6929355 0.057173274
0.79195666 -2.6761091 0.030444484
0.21654332 -1.1996075 0.0034679126
0.26066306 -1.19487 -0.0083459783
0.69241428 -2.6992445 -0.044846293
0.78339636 -2.650753 -0.070883758
0.21667741 -1.203956 -0.041435976
0.2580744 -1.1850893 -0.052509405
0.69434714 -2.7136657 -0.14807346
0 -0 -0
0.21634664 -1.2067086 -0.086543813
0.21624656 -0.99552083 -0.081607707
0 -0 -0
0 -0 -0
0.20759597 -1.1597648 -0.12678663
0 -0 -0
0 -0 -0
0.23189463 -0.78692776 -0.11204319
0.20794639 -1.1672421 -0.17178002
0 -0 -0
0 -0 -0
0.23127915 -0.78529412 -0.14277308
0.18432596 -1.0392777 -0.19301549
0.19150268 -0.88788229 -0.17497671
0.20440538 -0.80359143 -0.16785493
0.22744563 -0.77317387 -0.17160058
0.17686075 -1.002784 -0.22581762
0.18119192 -0.84193116 -0.199443
0 -0 -0
0.22053213 -0.74870682 -0.1970502
0 -0 -0
0.16833158 -0.78503788 -0.21818344
0.20065245 -0.79004925 -0.23015194
0.21799706 -0.74000496 -0.22646402
0.20117073 -1.1549398 0.36217913
0.24743465 -1.1567588 0.35134217
0.69281912 -2.7282188 0.80623108
0.79273617 -2.6957772 0.77561659
0.21081561 -1.2058297 0.32683426
0.25723562 -1.2041196 0.31522533
0 -0 0
0.79095453 -2.7015605 0.6630441
0.21062 -1.204587 0.27771512
0.25273636 -1.1822505 0.26187304
0 -0 0
0 -0 0
0.21032098 -1.2012702 0.22977376
0.25736332 -1.2054381 0.21951613
0.49146688 -1.9487195 0.33822623
0.71715754 -2.4595273 0.40650648
0.21374887 -1.2214766 0.18660839
0.25784498 -1.2106948 0.17387995
0.63518143 -2.5241363 0.34045085
0.76269758 -2.6243994 0.33140454
0.20755722 -1.1873145 0.13628475
0.25379595 -1.1917849 0.12594213
0.67873979 -2.7018147 0.2613703
0.77037871 -2.6556718 0.23355736
0.21529262 -1.2327056 0.095452473
0.25337812 -1.1916605 0.081154339
0.68577754 -2.7326548 0.16121638
0.77386844 -2.6710119 0.13221215
0.21141498 -1.2127513 0.04860444
0.25013155 -1.179224 0.036072042
0.6732257 -2.6884017 0.056988247
0.77885586 -2.6924448 0.030575383
0.20866379 -1.1979581 0.0034593777
0.25291231 -1.1944903 -0.0083323298
0.67705142 -2.7082922 -0.044926748
0.77710468 -2.6900845 -0.071806654
0.21150881 -1.218064 -0.041876063
0.25430995 -1.2032675 -0.05324471
0.67985773 -2.7265956 -0.14854857
0 -0 -0
0.20638824 -1.1932695 -0.085487545
0.22596611 -1.0719326 -0.087756231
0 -0 -0
0 -0 -0
0.20385943 -1.1806118 -0.12892649
0 -0 -0
0 -0 -0
0 -0 -0
0.20396473 -1.1870281 -0.1745044
0 -0 -0
0 -0 -0
0 -0 -0
0.17811143 -1.0413587 -0.19319536
0 -0 -0
0 -0 -0
0.22999436 -0.79993469 -0.1772234
0.16906777 -0.99422562 -0.22365253
0.18617767 -0.89166325 -0.21094932
0 -0 -0
0 -0 -0
0 -0 -0
0 -0 -0
0.19048411 -0.76977897 -0.22390224
0.21424885 -0.74409479 -0.22730905
0.19392218 -1.1552101 0.36188394
0.24695404 -1.1901683 0.36102259
0.67883676 -2.7436168 0.80953526
0.78177196 -2.7200458 0.78120416
0.20357335 -1.2080532 0.3270922
0.24846646 -1.199035 0.31348923
0 -0 0
0.77195328 -2.6979403 0.66098064
0.20468336 -1.214511 0.27970827
0.24408831 -1.17708 0.26039112
0.38421351 -1.5604451 0.33207279
0 -0 0
0.20098376 -1.1909101 0.22755194
0.25375539 -1.2253115 0.22284743
0.4277389 -1.7410146 0.30171508
0.54210156 -1.9025266 0.3138907
0.21019739 -1.2461673 0.19017984
0.25361672 -1.2277709 0.17610563
0.52548999 -2.1437321 0.28870231
0.75227517 -2.6490843 0.33393252
0.20109358 -1.1934649 0.13684651
0.24647851 -1.1933197 0.12594213
0.66285896 -2.7088296 0.26165053
0.75923228 -2.6785638 0.23515649
0.20772482 -1.2340034 0.095452473
0.24263556 -1.17658 0.080024429
0.65761828 -2.6902604 0.15847422
0.76807588 -2.7131929 0.13406426
0.20545971 -1.2228943 0.048959505
0.24853052 -1.20815 0.036909536
0.67022127 -2.7478471 0.058160085
0.7770068 -2.7491343 0.031164419
0.20445478 -1.2179536 0.0035134302
0.24638279 -1.1999378 -0.0083596259
0.66396904 -2.7269681 -0.045168117
0.76791555 -2.7207782 -0.072498828
0.2043608 -1.2213101 -0.04194377
0.24090447 -1.1754436 -0.051947113
0.6652357 -2.7394495 -0.14902368
0 -0 -0
0.20004641 -1.200417 -0.085910045
0.22776872 -1.1143166 -0.091109969
0 -0 -0
0 -0 -0
0.20215906 -1.2151871 -0.13256425
0.20284387 -0.99458802 -0.11888319
0 -0 -0
0 -0 -0
0.19021308 -1.149202 -0.16876884
0 -0 -0
0.21537131 -0.89001745 -0.15055972
0 -0 -0
0.18131164 -1.1006684 -0.2039884
0.17473552 -0.86129522 -0.16930178
0.19912748 -0.82509464 -0.17182314
0.2200564 -0.78343982 -0.17326659
0.16675033 -1.0183672 -0.22884873
0.16930036 -0.83645242 -0.19763808
0 -0 -0
0 -0 -0
0 -0 -0
0.16841239 -0.83528876 -0.23155767
0.18620811 -0.77280444 -0.22444569
0.21071844 -0.74909008 -0.22843572
0.1944498 -1.2035388 0.37664264
0.24059163 -1.1963601 0.36244616
0 -0 0
0.76610965 -2.7285037 0.78226846
0.19739462 -1.2169092 0.32915589
0.2405324 -1.1976876 0.31274518
0 -0 0
0.75093031 -2.6866899 0.65708309
0.19707127 -1.2147815 0.27948684
0.24244583 -1.2063427 0.26653042
0.34061569 -1.4208761 0.30192116
0.46920574 -1.683377 0.3435832
0.19398786 -1.1940608 0.22792225
0.24177642 -1.2046444 0.21881479
0.39158487 -1.6371486 0.28329352
0 -0 0
0.1985849 -1.2230314 0.18645957
0.23966411 -1.1972605 0.1715152
0 -0 0
0.72220975 -2.6039064 0.32767278
0.19344868 -1.1927147 0.13662182
0.23954228 -1.1967604 0.12614776
0.64645612 -2.7138145 0.26174396
0.74039 -2.6745291 0.23439901
0.1915372 -1.1821043 0.091345355
0.24010421 -1.2015291 0.081619591
1.7938749 -7.538835 0.44343078
0.74369448 -2.6899347 0.13268705
0.19715476 -1.2191999 0.048762247
0.24306668 -1.2194549 0.037208643
0.64896017 -2.7334254 0.057769474
0.74575675 -2.7017999 0.030575383
0.19442578 -1.2033901 0.0034679126
0.24174708 -1.2151576 -0.0084551647
1.2024488 -5.0737858 -0.083915822
0.74111277 -2.688817 -0.071524665
0.19924647 -1.2373419 -0.04245156
0.2373845 -1.1955184 -0.052768923
0 -0 -0
0 -0 -0
0.1959936 -1.2223055 -0.087388828
0.22228248 -1.1225379 -0.091668926
0 -0 -0
0 -0 -0
0.19422758 -1.2134594 -0.13224328
0.19384985 -0.98119825 -0.11713833
0 -0 -0
0 -0 -0
0.19311745 -1.2128983 -0.17794573
0.19711806 -1.0006797 -0.15750758
0.20244189 -0.85962647 -0.14520577
0 -0 -0
0.17286143 -1.0910729 -0.20200968
0 -0 -0
0.1969742 -0.838705 -0.17440248
0.22636962 -0.82533461 -0.18222149
0.17765693 -1.1283485 -0.25331411
0.18665314 -0.95219815 -0.22471179
0 -0 -0
0.21056533 -0.76666355 -0.20072193
0.15211111 -0.97206187 -0.25738502
0.17271487 -0.88460952 -0.24493189
0.18168245 -0.77486944 -0.22471741
0.20662645 -0.75221938 -0.22899906
0.17533338 -1.129179 0.35302871
0.22829929 -1.1724086 0.3547588
0 -0 0
0.74017769 -2.6996858 0.77268964
0.186203 -1.1942319 0.32270691
0.23539798 -1.2105523 0.31572136
0.30445594 -1.3030533 0.32900274
0.73007458 -2.6752834 0.65318555
0.18991429 -1.2178949 0.27992976
0.2260783 -1.1617594 0.25636882
0.36481309 -1.5640888 0.33187044
0.48927012 -1.7979448 0.36634725
0.18817389 -1.2049381 0.22977376
0.23644617 -1.2167361 0.22074345
0.35404035 -1.5213828 0.26288044
0.51793689 -1.9061766 0.31342053
0.19595663 -1.2554922 0.19122152
0.23721209 -1.2239854 0.1751319
0.36370659 -1.5666358 0.2103662
0.70492166 -2.6034977 0.32707089
0.18750425 -1.2027154 0.137633
0.23124838 -1.1933249 0.1256337
0 -0 0
0.71824658 -2.6578588 0.2325474
0.18949726 -1.216755 0.09393131
0.23083207 -1.1931835 0.080954939
1.7469082 -7.546782 0.44325936
0.72014827 -2.6684096 0.13140482
0.19043745 -1.2253236 0.048959505
0.22781539 -1.180684 0.035982311
1.6967514 -7.347024 0.15505244
0.7244823 -2.6889455 0.030379036
0.18887947 -1.2164183 0.0035020509
0.23182826 -1.2038529 -0.0083664507
1.217562 -5.2817783 -0.087230623
0.72070479 -2.6788335 -0.071140118
0.19058071 -1.2316275 -0.042214591
0.23117584 -1.2028391 -0.053028442
0.80965137 -3.5220916 -0.19104381
0 -0 -0
0.18530038 -1.2027814 -0.085910045
0.22814888 -1.1904521 -0.097098798
0 -0 -0
0 -0 -0
0.18647604 -1.2126628 -0.13202928
0.21841495 -1.1423578 -0.13621546
0 -0 -0
0 -0 -0
0.1864197 -1.2189518 -0.17866269
0.20596355 -1.0805056 -0.16987009
0.20112881 -0.87816566 -0.14812611
0.21627308 -0.80690974 -0.14569382
0.16941869 -1.113508 -0.20596713
0 -0 -0
0.19313368 -0.84563088 -0.17559293
0.21851912 -0.81631511 -0.1799307
0.15832669 -1.0473655 -0.23491094
0.18098858 -0.95428264 -0.22493739
0 -0 -0
0.21012495 -0.78386182 -0.20488323
0 -0 -0
0.17158228 -0.90841031 -0.25122565
0.17713846 -0.77690792 -0.22498915
0.20324938 -0.75810695 -0.23040742
0.17713141 -1.1888242 0.37132949
0.2246502 -1.1926281 0.36045316
0 -0 0
0.72035956 -2.6920712 0.76923066
0.18115957 -1.2106402 0.32683426
0.22796573 -1.2119739 0.31572136
0 -0 0
0 -0 0
0.1822935 -1.2180728 0.27970827
0.22653911 -1.2034643 0.26526022
0.33636573 -1.4832076 0.3142651
0.49006504 -1.8454854 0.37541428
0.181214 -1.2089856 0.23032922
0.22915785 -1.2191316 0.22091879
0.28398469 -1.2551781 0.21657765
0.51559639 -1.9446412 0.31921884
0.18810289 -1.2556928 0.1910727
0.23060961 -1.2302846 0.17582743
0 -0 0
0.63264239 -2.3946986 0.30034664
0.17747432 -1.1861541 0.13561063
0.22502138 -1.2005875 0.12625057
0 -0 0
0.69786 -2.6467996 0.23120075
0.18512304 -1.2386039 0.095528528
0.22662604 -1.2112505 0.082084849
0.25752917 -1.144464 0.067125887
0.71342659 -2.7094839 0.13320944
0.18321021 -1.2284455 0.049038406
0.22753374 -1.2193981 0.037118908
0 -0 0
0.71102011 -2.7049453 0.030509934
0.18450689 -1.238325 0.0035617936
0.22443719 -1.2052528 -0.0083664507
0.26890069 -1.2000836 -0.019792227
0.70298535 -2.6783707 -0.071011938
0.1825797 -1.2298079 -0.042113032
0.22506876 -1.2111106 -0.053331215
0.26390886 -1.1811869 -0.063980408
0 -0 -0
0.18418761 -1.2463282 -0.08893802
0.2177527 -1.1751673 -0.095741324
0 -0 -0
0 -0 -0
0.18323916 -1.2423091 -0.13513207
0.21717845 -1.1749299 -0.13993783
0 -0 -0
0 -0 -0
0.17908046 -1.2210519 -0.17880608
0.19861345 -1.0778613 -0.16925961
0 -0 -0
0.22253171 -0.8511107 -0.15342522
0.16400309 -1.1242604 -0.20776597
0.19435 -1.0575199 -0.20713457
0.18730426 -0.84392947 -0.17499769
0.21202351 -0.81196254 -0.17868118
0.15441716 -1.0657088 -0.23880808
0.17583242 -0.95920819 -0.22583985
0.19366705 -0.87303025 -0.21612786
0 -0 -0
0 -0 -0
0.17085707 -0.93602693 -0.25856838
0.17278446 -0.77985936 -0.22553259
0.19932224 -0.76212466 -0.23125245
0.16834857 -1.1794842 0.36808261
0.21234986 -1.1666338 0.35219634
0 -0 0
0.71040106 -2.7216237 0.77641481
0.17359069 -1.2107726 0.32657629
0.22017846 -1.2114435 0.31522533
0.26018438 -1.1786773 0.29677096
0 -0 0
0.17536978 -1.2230296 0.28059414
0.21810113 -1.1990623 0.26399001
0.29059216 -1.3188351 0.27905446
0.48832646 -1.8855029 0.38293803
0.17504972 -1.2188293 0.23199558
0.2200897 -1.2117968 0.21934079
0.2726787 -1.2405236 0.21375634
0.51255572 -1.9821912 0.32486042
0.18165901 -1.265633 0.192412
0.22217405 -1.2268043 0.1751319
0.27798426 -1.2678263 0.16977148
0.57484227 -2.2312627 0.27940062
0.17484604 -1.21968 0.13931829
0.21871392 -1.2078183 0.12686743
0.26563165 -1.2138176 0.11657975
0.68706518 -2.6722629 0.23305237
0.17455153 -1.2189888 0.09393131
0.2085408 -1.1537057 0.078096926
0.26073527 -1.1928389 0.069868051
0.69703656 -2.7147782 0.13325693
0.17369059 -1.2156981 0.048486084
0.22217514 -1.2325757 0.037477836
0.2285516 -1.0481445 0.022059305
0.69887829 -2.7266924 0.030706279
0.17676389 -1.2384437 0.0035589486
0.21809985 -1.2125123 -0.0084073963
0.25940576 -1.191941 -0.019631315
0.69397336 -2.7116876 -0.071781024
0.18108037 -1.2734523 -0.043568708
0.21375014 -1.1908352 -0.052379645
0.26279742 -1.2110851 -0.065511294
0 -0 -0
0.17513905 -1.2375581 -0.088233843
0.21036232 -1.1755003 -0.095661476
0 -0 -0
0 -0 -0
0.17394452 -1.2315961 -0.13384816
0.21363036 -1.1967732 -0.14238064
0 -0 -0
0 -0 -0
0.16759449 -1.1937062 -0.17464779
0.19511233 -1.0965738 -0.17200683
0.19596604 -0.90660858 -0.15250662
0.2194953 -0.86105156 -0.1549715
0.15030073 -1.0765336 -0.19877176
0.18802908 -1.0596594 -0.20732376
0.18707819 -0.86805779 -0.17975953
0.20727871 -0.81419599 -0.17888944
0.15431036 -1.1130537 -0.24920045
0.17113194 -0.96698421 -0.22741915
0.18605511 -0.86374974 -0.21354373
0.20671783 -0.81080902 -0.21124759
0.12442857 -0.9037751 -0.23865689
0 -0 -0
0.17204417 -0.79972184 -0.2309671
0.19985792 -0.78378808 -0.23744923
0.16356294 -1.1984817 0.3736909
0.2020359 -1.1499759 0.34678668
0.25694841 -1.194545 0.34997258
0.69345039 -2.724997 0.77614868
0.16681449 -1.2166009 0.32786611
0.21290842 -1.2137259 0.31547335
0.25661021 -1.1973429 0.30106854
0 -0 0
0.16825959 -1.226981 0.28125855
0.21378167 -1.217705 0.26780063
0.26446727 -1.2363204 0.26124677
0.4227086 -1.6744062 0.33953196
0.16796903 -1.2228011 0.23255104
0.20925044 -1.1937299 0.21583414
0.26176918 -1.2267426 0.21110097
0.4839696 -1.9201757 0.31420413
0.1712001 -1.2471302 0.18943578
0.21106212 -1.207659 0.17221072
0.27205756 -1.2782366 0.17093875
0.62351656 -2.4831603 0.31045854
0.16870859 -1.2305745 0.14044182
0.20718922 -1.1856211 0.12439998
0.25507569 -1.2008162 0.11517855
0.67913258 -2.7102585 0.23599814
0.16679813 -1.2180611 0.093779199
0.20745873 -1.1893667 0.080423214
0.26149222 -1.2325048 0.072096065
0.68303299 -2.7296629 0.13377932
0.1681215 -1.2306013 0.049038406
0.21375164 -1.2289919 0.037328281
0.23577832 -1.1140832 0.023416167
0.6784997 -2.7163775 0.030542659
0.16943206 -1.2414867 0.0035646383
0.20962998 -1.2079161 -0.0083664507
0.25270718 -1.1964451 -0.019679589
0.68312728 -2.7391737 -0.072396286
0.16760893 -1.232946 -0.042146884
0.21104197 -1.2187034 -0.053547479
0.25309789 -1.2019258 -0.06493061
0 -0 -0
0.16981538 -1.2554144 -0.089430951
0.20467176 -1.1856093 -0.096380129
0 -0 -0
0 -0 -0
0.16877833 -1.2503761 -0.13577403
0.20763133 -1.205892 -0.14331125
0 -0 -0
0.20553941 -0.82692856 -0.11637335
0.16618808 -1.2388515 -0.18110029
0.19456483 -1.13379 -0.17765389
0 -0 -0
0.20114639 -0.80979788 -0.14552201
0.16488867 -1.2363695 -0.22809285
0.18549855 -1.0840222 -0.21186368
0.18214959 -0.87110811 -0.18015637
0.20180804 -0.81355393 -0.17847294
0.14824668 -1.1197866 -0.25049952
0.17125914 -1.0035484 -0.23576689
0.19248369 -0.92101115 -0.2274041
0 -0 -0
0.13148744 -1.0004412 -0.26396519
0 -0 -0
0.17224626 -0.82525635 -0.238032
0.19157438 -0.77103168 -0.23322415
0.1580569 -1.2136743 0.37811852
0.19641669 -1.1597004 0.34934917
0.24568614 -1.1772778 0.34446552
0 -0 0
0.15909569 -1.2156856 0.32735017
0.20093448 -1.188264 0.30852896
0.2462936 -1.1846336 0.29748723
0.35389805 -1.4345578 0.34802938
0.16136059 -1.232825 0.28236586
0.20451197 -1.2083938 0.26547191
0.24453995 -1.1784692 0.24870047
0.40750566 -1.6569589 0.33548072
0.16135721 -1.2306293 0.2338471
0.20159385 -1.1930499 0.21548349
0.25303784 -1.2225317 0.21010521
0.48442456 -1.9729853 0.32235307
0.16572866 -1.2648255 0.19196557
0.20677355 -1.2274853 0.1748537
0.25498807 -1.2352122 0.16497275
0.63232553 -2.5852983 0.32273722
0.16231507 -1.240454 0.14145301
0.20271917 -1.2035452 0.12614776
0.25714487 -1.2481906 0.11956898
0.66107237 -2.7085662 0.23549315
0.15970874 -1.2220278 0.094007373
0.20346539 -1.2102969 0.081752524
0.24788857 -1.2047497 0.070382208
0.66461563 -2.7270091 0.13344689
0.1612134 -1.2365638 0.049235664
0.20653713 -1.2322518 0.037388101
0.24702792 -1.2036527 0.025266435
0.66252863 -2.7234044 0.030575383
0.16168211 -1.2415113 0.0035617936
0.20270923 -1.2121385 -0.008386923
0.24375618 -1.1901369 -0.019550858
0.65781313 -2.7083423 -0.07147339
0.16389696 -1.2636851 -0.043162473
0.20142263 -1.2071646 -0.052985188
0.24372055 -1.1936719 -0.064402722
0 -0 -0
0.16185379 -1.2544539 -0.089290112
0.19624835 -1.1799598 -0.095821179
0.2052701 -1.0061592 -0.092026398
0 -0 -0
0.16059518 -1.2474438 -0.13534607
0.20217848 -1.2189012 -0.14470713
0 -0 -0
0 -0 -0
0.16122028 -1.260463 -0.18411146
0.1845421 -1.1164365 -0.17475407
0 -0 -0
0.20520657 -0.84835994 -0.15222256
0.14960806 -1.1768563 -0.21694006
0.18219694 -1.1054864 -0.21583612
0.1892629 -0.93368667 -0.19285461
0.2043909 -0.84615105 -0.18534528
0.1447943 -1.147796 -0.25656173
0.16462429 -1.0016963 -0.23509005
0.18567082 -0.9164589 -0.22599457
0 -0 -0
0.13784495 -1.1010641 -0.29028577
0.16590554 -1.0142486 -0.27928531
0.16336247 -0.80743247 -0.23259747
0.18887067 -0.780586 -0.23575918
0.15389891 -1.2411704 0.38638338
0.20194787 -1.2384651 0.37269601
0.23807666 -1.1768786 0.34391484
0.29796538 -1.2340618 0.35042435
0.15378422 -1.2338963 0.33199346
0.19690849 -1.2095542 0.31373727
0.24132216 -1.1975459 0.30035228
0.32963055 -1.372344 0.33243912
0.15367246 -1.2328242 0.28214437
0.19709356 -1.209626 0.26547191
0.24000759 -1.1933886 0.25153351
0.3785955 -1.5811803 0.31966162
0.1536814 -1.2306211 0.23366196
0.19758911 -1.2146708 0.21916544
0.24320446 -1.2124588 0.20811369
0.36921415 -1.5446184 0.25199014
0.15784225 -1.2648373 0.19181675
0.20288351 -1.2512137 0.1780531
0.24176364 -1.2085571 0.16121158
0 -0 0
0.15384062 -1.2345243 0.14066654
0.19708164 -1.215567 0.12727866
0.24246462 -1.2145959 0.1162061
0.57833815 -2.4343343 0.21133785
0.1538084 -1.2358478 0.094996125
0.19731034 -1.2194023 0.082284249
0.2416629 -1.2121226 0.070724979
0.61536169 -2.5939982 0.1267508
0.15546937 -1.2524039 0.049827438
0.19865392 -1.2315223 0.037328281
0.24373248 -1.2257382 0.025698163
1.7289068 -7.3016572 0.081854321
0.15750676 -1.2702671 0.0036414503
0.19717446 -1.2252067 -0.0084688133
0.24170348 -1.2180904 -0.019985324
1.2170513 -5.1483636 -0.13566613
0.15809944 -1.2805372 -0.043704119
0.19321993 -1.2034457 -0.052768923
0.23813561 -1.2039616 -0.064877823
0 -0 -0
0.155734 -1.2682945 -0.090205543
0.19341467 -1.2087016 -0.098057002
0.19735461 -0.99860585 -0.091223069
0 -0 -0
0.15342158 -1.2523531 -0.13577403
0.19406959 -1.2161955 -0.14424182
0.21245222 -1.0764807 -0.13888668
0 -0 -0
0.15157063 -1.2457098 -0.18181723
0.17613643 -1.1077876 -0.17322783
0.20613191 -1.0465715 -0.17538261
0.20338322 -0.86398691 -0.15479968
0.15088473 -1.2480657 -0.2298917
0.17310438 -1.092036 -0.21299867
0 -0 -0
0.20210476 -0.85976684 -0.18805258
0.14135239 -1.1787124 -0.26327348
0.16182081 -1.0238576 -0.24005355
0.1929578 -0.98339486 -0.24220414
0.18664788 -0.79276985 -0.20561759
0.12925777 -1.0865184 -0.28623644
0.1470847 -0.9351716 -0.25725716
0.16895308 -0.86225134 -0.24808586
0 -0 -0
0.14337486 -1.2174205 0.3787089
0.18380374 -1.1724408 0.35248104
0.23658067 -1.2075629 0.35245076
0 -0 0
0.14689191 -1.2405734 0.33354121
0.18948311 -1.2107396 0.31373727
0.23452757 -1.2018634 0.30106854
0.30370376 -1.2994629 0.31432691
0.1486281 -1.2550486 0.28701657
0.18951647 -1.209847 0.26526022
0.22893673 -1.1756138 0.24748631
0.38424742 -1.6494118 0.33297279
0.14902233 -1.2559375 0.23829076
0.19028443 -1.216833 0.21934079
0.2340683 -1.2052158 0.20662004
0.29798496 -1.2813499 0.20873809
0.14961268 -1.2618541 0.19122152
0.19489738 -1.250478 0.17777489
0.24377005 -1.2586911 0.16769637
0.29680413 -1.2814411 0.15950273
0.15128621 -1.2778764 0.14549774
0.19038519 -1.2216675 0.1277927
0.23821893 -1.2326789 0.11779412
0 -0 0
0.14832978 -1.2545921 0.096365161
0.18553123 -1.1929837 0.080423214
0.23630205 -1.2243656 0.071353391
0.27602246 -1.1961799 0.058365207
0.14579269 -1.2364644 0.049156763
0.19139995 -1.2346935 0.037388101
0.23866345 -1.2399737 0.025965424
1.6773394 -7.2828956 0.081527084
0.14912479 -1.2662441 0.003627226
0.18598527 -1.2026759 -0.0083050327
0.23139608 -1.2048217 -0.019743955
1.1704302 -5.0904598 -0.13394852
0.14802814 -1.2626233 -0.043060914
0.18567978 -1.2036213 -0.052725673
0.23036826 -1.2034385 -0.064772248
0.24507737 -1.0670896 -0.068307936
0.14783348 -1.2682354 -0.090135135
0.18463144 -1.2009987 -0.097338349
0.21592171 -1.1289303 -0.1030053
0 -0 -0
0.14561956 -1.2522833 -0.13566704
0.18840936 -1.2291443 -0.14563772
0.22650179 -1.1859301 -0.15282556
0.19315992 -0.84312689 -0.11813249
0.14108662 -1.222038 -0.17823251
0.16888829 -1.1059166 -0.17276995
0.1941641 -1.0187373 -0.17051536
0 -0 -0
0.14512907 -1.2655817 -0.23294972
0.16551383 -1.087253 -0.21186368
0.20083784 -1.0572643 -0.21785428
0.19268413 -0.84287465 -0.18409577
0.13433787 -1.1814975 -0.26370648
0.15948236 -1.0508374 -0.24614514
0.18800798 -0.99029011 -0.24361369
0 -0 -0
0.12182986 -1.0805616 -0.28446487
0.13759771 -0.91124767 -0.25043893
0.17100866 -0.90203863 -0.25922662
0 -0 -0
0.13590221 -1.2182772 0.3787089
0.18801868 -1.2493815 0.37525851
0.22558603 -1.1901014 0.34694371
0.27828977 -1.217891 0.34483671
0.13949256 -1.2433716 0.33405712
0.17715751 -1.1793071 0.3053048
0.22390625 -1.1861037 0.29677096
0.2806257 -1.2348605 0.29827815
0.13940214 -1.2423699 0.28391609
0.18296136 -1.2167859 0.26653042
0.22806418 -1.2106798 0.2545689
0.34247333 -1.5120201 0.30480707
0.13966621 -1.2421799 0.23551348
0.18325292 -1.2208985 0.2198668
0.22994597 -1.2240746 0.20960732
0.28946373 -1.2802643 0.20826797
0.14197767 -1.2637309 0.19137031
0.18575595 -1.2418565 0.17638384
0.23531206 -1.2562647 0.16717757
0 -0 0
0.1426671 -1.2718683 0.14471127
0.17626464 -1.1785436 0.12316626
0.22918759 -1.226288 0.11704681
0.25946826 -1.154999 0.099987805
0.13885306 -1.239624 0.095148236
0.18277338 -1.2246923 0.082483642
0.22420567 -1.2012571 0.069925182
0.26583564 -1.1851805 0.057747837
0.14064333 -1.2591827 0.050024696
0.18382041 -1.2358447 0.037388101
0.22775774 -1.2237223 0.025595371
0.27676353 -1.2363253 0.013820553
0.14257196 -1.2780672 0.0036585194
0.18183093 -1.2255559 -0.0084551647
0.22454673 -1.209168 -0.019792227
0.25704989 -1.1502403 -0.030224936
0.14071916 -1.2674811 -0.043196324
0.1819475 -1.2294455 -0.053807002
0.2238884 -1.2097391 -0.065036193
0.26483476 -1.1864378 -0.075842358
0.14234664 -1.2899401 -0.091613911
0.1810395 -1.2277485 -0.099414468
0.21442369 -1.1596161 -0.10568308
0 -0 -0
0.13847685 -1.2580947 -0.13620201
0.18144175 -1.2342077 -0.14610301
0.220842 -1.1960781 -0.15395576
0 -0 -0
0.13788451 -1.2622333 -0.18396808
0.16797042 -1.1470242 -0.17902753
0.19649158 -1.0664897 -0.17830296
0.20068146 -0.90199751 -0.16115661
0.13693659 -1.2625365 -0.23223017
0.15671214 -1.0736734 -0.20902622
0.20231181 -1.1018568 -0.22678272
0.19769019 -0.88987136 -0.19409192
0.12948562 -1.2046254 -0.26868615
0.15345235 -1.0546883 -0.246822
0.18280531 -0.99620533 -0.24478829
0.18448697 -0.82907206 -0.21442977
0.12073176 -1.1332369 -0.29813132
0 -0 -0
0.16789892 -0.91632354 -0.2630308
0.1826001 -0.82045752 -0.24674439
0.12882483 -1.2228889 0.37988958
0.17213896 -1.193584 0.3581754
0.21724002 -1.1857895 0.34529158
0 -0 0
0.13308263 -1.2557334 0.33715263
0.17254069 -1.1985905 0.31001705
0.22028403 -1.2075169 0.30178481
0.27262369 -1.2346582 0.29781958
0.13300996 -1.2548386 0.28657365
0.17618881 -1.2227223 0.26758891
0.21852671 -1.2004946 0.25214058
0.27329957 -1.2419395 0.25001895
0.13474068 -1.2684211 0.24032743
0.17659912 -1.2278469 0.22091879
0.22207865 -1.2235219 0.20927541
0 -0 0
0.13495149 -1.2714617 0.192412
0.17630631 -1.2302296 0.17457549
0.22901189 -1.2654905 0.16821514
0 -0 0
0.13643096 -1.2875417 0.14639656
0 -0 0
0.22183582 -1.2286509 0.11714023
0 -0 0
0.13638492 -1.2890396 0.098875068
0 -0 0
0 -0 0
0 -0 0
0.13815559 -1.3097074 0.051997282
0 -0 0
0 -0 0
0.23454325 -1.0787311 0.012042534
0.1409083 -1.3375931 0.0038263674
0 -0 -0
0 -0 -0
0 -0 -0
0.13773188 -1.3140438 -0.044753559
0 -0 -0
0 -0 -0
0 -0 -0
0.1358756 -1.3046794 -0.092599764
0 -0 -0
0 -0 -0
0 -0 -0
0.13342527 -1.2846332 -0.13898382
0.17414224 -1.2372649 -0.14633566
0 -0 -0
0 -0 -0
0.13257135 -1.2866824 -0.18740942
0.1669658 -1.1910965 -0.18574294
0.19512902 -1.0968202 -0.18317018
0 -0 -0
0.12988771 -1.2702032 -0.23348938
0.16071805 -1.1504699 -0.22378102
0.19075684 -1.0760554 -0.22122724
0.1914013 -0.88724327 -0.1932589
0.12376422 -1.2219095 -0.27236679
0.16457774 -1.182013 -0.27637744
0.17855452 -1.0078365 -0.24737245
0 -0 -0
0.11821894 -1.1782365 -0.30977312
0 -0 -0
0.16579369 -0.93723738 -0.26873702
0.17553546 -0.81218392 -0.24392767
0.12188449 -1.2293611 0.38166064
0.16887337 -1.2240558 0.36700165
0.21096466 -1.19278 0.34694371
0.2547898 -1.181638 0.33366147
0.12527916 -1.2555649 0.33689469
0.17086534 -1.2408938 0.32068163
0.21202864 -1.204064 0.30059105
0.25586122 -1.1934795 0.28750253
0.12646995 -1.2672755 0.28923121
0.16841611 -1.2218441 0.26716551
0.21319011 -1.2133873 0.2545689
0.25952417 -1.2148063 0.24423149
0.12724869 -1.2721574 0.2408829
0.17026944 -1.2376852 0.22249678
0.21490738 -1.2268043 0.20960732
0.25498804 -1.1958203 0.19400732
0.12734407 -1.2742338 0.19270962
0.17130928 -1.2499292 0.17721847
0.21731934 -1.2444062 0.16523214
0.26368317 -1.2420173 0.15396528
0.12694994 -1.2725345 0.1445989
0.16651554 -1.2151101 0.12676461
0.20831174 -1.1956592 0.11387077
0.26509532 -1.2516797 0.10806762
0.12728705 -1.2779459 0.097962379
0.17056908 -1.2476035 0.083879419
0.21252762 -1.2216226 0.070953496
0.25478446 -1.2049669 0.058555163
0.12824105 -1.2916381 0.051247697
0.16877577 -1.2389979 0.037418015
0.21494485 -1.2392311 0.02586263
0.25661629 -1.2161469 0.013558758
0.13033049 -1.3145498 0.0037580905
0.16933531 -1.2465215 -0.0085848244
0.21054387 -1.2167586 -0.019872684
0.2532171 -1.2022187 -0.031506743
0.12829331 -1.3009398 -0.04427962
0.16765133 -1.2375257 -0.054066516
0.21021383 -1.2192839 -0.065405719
0.25066632 -1.1915517 -0.075966895
0.12650636 -1.2915899 -0.091613911
0.17035845 -1.262477 -0.10204956
0.20913792 -1.2141826 -0.11041383
0 -0 -0
0.12525047 -1.2824589 -0.13866284
0.16826832 -1.2511066 -0.14784786
0.20799728 -1.2094531 -0.1553371
0 -0 -0
0.12314769 -1.2717106 -0.18511519
0.15886711 -1.1862215 -0.18482722
0.18939662 -1.1038321 -0.18414363
0 -0 -0
0.12068053 -1.2562885 -0.23079112
0.16378704 -1.2273531 -0.23853581
0.18580227 -1.0868667 -0.22321133
0.18775712 -0.89701694 -0.19513318
0.11108888 -1.1682197 -0.26024234
0.15693668 -1.1801034 -0.2757006
0.17351303 -1.01562 -0.24901688
0 -0 -0
0.10436785 -1.108627 -0.29129809
0.11852442 -0.89640582 -0.24571861
0.15389064 -0.90218747 -0.25841144
0.17665377 -0.84235722 -0.25265947
0.11478112 -1.2348425 0.38313651
0.16160989 -1.2269697 0.36757109
0.21398565 -1.2547023 0.36456627
0.24931116 -1.1916708 0.33605614
0.11766282 -1.2572719 0.33715263
0.1599655 -1.216946 0.31423327
0.20317379 -1.1967258 0.29844224
0.25309178 -1.2169454 0.29277569
0.11769202 -1.2573473 0.28679511
0.16270095 -1.23642 0.27012932
0.20426898 -1.2059826 0.25274765
0.25246358 -1.2182974 0.24461733
0.11989952 -1.2778063 0.24180865
0.16369747 -1.2465156 0.22389944
0.20836097 -1.233934 0.21060309
0.24764584 -1.1973624 0.19400732
0.11869246 -1.2661301 0.19137031
0.1653064 -1.2637216 0.17902681
0.21132554 -1.2554942 0.1665291
0.25745872 -1.2504182 0.15480793
0.12006514 -1.283183 0.14572245
0.16241062 -1.2417527 0.12943767
0.20822546 -1.2401175 0.11798094
0.26583013 -1.294278 0.11160254
0.11916512 -1.2757244 0.097734205
0.16007075 -1.2268597 0.082417175
0.20436756 -1.2189652 0.070724979
0.25059634 -1.2221638 0.059315003
0.12114687 -1.301355 0.051602766
0.16297391 -1.2538872 0.037836764
0.20667778 -1.2365823 0.025780398
0.23752369 -1.1608793 0.012926089
0.12402061 -1.3342431 0.0038121431
0.16258329 -1.2544789 -0.0086325938
0.20455392 -1.2269039 -0.020017505
0.24483551 -1.1988524 -0.031378563
0.11865285 -1.2837892 -0.043670267
0.16376814 -1.2672651 -0.055320863
0.20551006 -1.2372977 -0.066303127
0.24654186 -1.2087141 -0.076963186
0.11821435 -1.2883683 -0.091332234
0.16031855 -1.2457027 -0.10061224
0.19793391 -1.1928438 -0.10836087
0.20553812 -1.0092152 -0.10229264
0.11611111 -1.2693416 -0.13716495
0.16147296 -1.2590116 -0.14866215
0.20235586 -1.2214726 -0.15671842
0 -0 -0
0.11614639 -1.2813131 -0.18640569
0.15559116 -1.2185442 -0.18971117
0.18358544 -1.1108146 -0.18511707
0 -0 -0
0.11226541 -1.2491674 -0.22935204
0.15811172 -1.2429464 -0.24137327
0.18072216 -1.0976574 -0.22519545
0 -0 -0
0.10832793 -1.218474 -0.27128425
0.14883526 -1.1742787 -0.27412131
0.15812509 -0.96103668 -0.23539144
0.19565611 -0.96249729 -0.24796501
0.10163216 -1.1555053 -0.30344605
0.12568717 -0.99764687 -0.2732538
0.1564638 -0.95249641 -0.2725412
0.17454061 -0.85846967 -0.25716624
0.10761506 -1.2402829 0.38461238
0.15551049 -1.2393522 0.37098774
0.19584411 -1.1924331 0.34611765
0.24237774 -1.1950676 0.33658832
0.10927317 -1.2502702 0.33508894
0.15297689 -1.2217497 0.31522533
0.19676697 -1.2037001 0.29987478
0.23965739 -1.1888962 0.28566837
0.10955025 -1.2531885 0.2856878
0.15644853 -1.2480624 0.27245802
0.19954488 -1.2236445 0.25618777
0.24305145 -1.2102035 0.24268816
0.11222839 -1.2804759 0.24217896
0.15286878 -1.2220973 0.21934079
0.20126045 -1.2381094 0.21110097
0.24437039 -1.2191955 0.19729824
0.11230145 -1.2825962 0.19375129
0.15742682 -1.2637295 0.17888771
0.20393516 -1.2587248 0.16678849
0.2369622 -1.1877207 0.14686288
0.11089192 -1.269047 0.14403714
0.15601777 -1.2525966 0.13046576
0.20124769 -1.2453035 0.1183546
0.22423813 -1.1268137 0.097042024
0.11090197 -1.2714649 0.097353913
0.15500019 -1.2476225 0.083746493
0.19767946 -1.2251242 0.071010619
0.23919998 -1.2040839 0.058365207
0.11324614 -1.3030692 0.051642213
0.15552263 -1.2568475 0.037896581
0.20083274 -1.2486854 0.026006542
0.236229 -1.1917404 0.013253331
0.11384336 -1.3120651 0.0037467107
0.15573995 -1.2624 -0.0086803632
0.19591329 -1.2212253 -0.019904867
0.23902699 -1.2081774 -0.031583652
0.11103105 -1.2874802 -0.043771826
0.15415984 -1.2533722 -0.054672066
0.19555065 -1.223744 -0.065511294
0.23950762 -1.2121624 -0.077087715
0.10945637 -1.2791306 -0.090628058
0.15606476 -1.2743666 -0.10284807
0.19139609 -1.1989536 -0.10880717
0.20319384 -1.0299832 -0.10426931
0.10975678 -1.2868714 -0.13898382
0.15278237 -1.2520915 -0.14773156
0.19548179 -1.2266103 -0.15722072
0.2336674 -1.1859788 -0.16508777
0.10819893 -1.2810154 -0.18626229
0.15097114 -1.2430218 -0.19337414
0.17661124 -1.1109457 -0.18495484
0.19104354 -0.9704451 -0.17249599
0.10230148 -1.2223855 -0.2243153
0.15154357 -1.2526667 -0.24307576
0.17674287 -1.1161705 -0.22876681
0.20804581 -1.0585662 -0.2297032
0.10213725 -1.2346832 -0.27474838
0.14535733 -1.206121 -0.28134099
0.15921369 -1.006152 -0.24619783
0.1906832 -0.96843624 -0.24918891
0.097773015 -1.1956404 -0.31382242
0.12782493 -1.0673865 -0.29213506
0.15992674 -1.012375 -0.28938821
0.17019685 -0.86423165 -0.2585746
0.098237596 -1.2190156 0.37782335
0.14358968 -1.2041121 0.36016846
0.19242325 -1.2183013 0.35327682
0.23411137 -1.191803 0.33525795
