# .PCD v0.7 - Point Cloud Data file format
VERSION 0.7
FIELDS x y z
SIZE 4 4 4
TYPE F F F
COUNT 1 1 1
WIDTH 1542
HEIGHT 1
VIEWPOINT 0 0 0 1 0 0 0
POINTS 1542
DATA ascii
-0.55810076 2.3369732 0.2716707
-0.64054227 2.3038743 0.247155
-0.772627 2.4330595 0.23951161
-0.82164234 2.2957127 0.2059513
-0.56753123 2.3781154 0.18649359
-0.65488631 2.3583364 0.16303979
-0.74275559 2.340975 0.14053589
-0.84843171 2.3730438 0.11981726
-0.55756414 2.3396056 0.094960131
-0.66450047 2.3975024 0.074447192
-0.73990983 2.336107 0.050388962
-0.82749724 2.3175526 0.026844816
-0.54284149 2.2792387 0.0066655609
-0.64629877 2.3351562 -0.016534999
-0.74084163 2.342315 -0.039536178
-0.82978338 2.3266475 -0.063346751
-0.56398219 2.3735158 -0.082634978
-0.66774172 2.4160764 -0.10852232
-0.72645289 2.3017116 -0.1275913
-0.83993912 2.3569436 -0.15610576
-0.54408646 2.2965558 -0.16660917
-0.62680578 2.2725923 -0.18884756
-0.72420287 2.2958388 -0.21573988
-0.72360754 2.0324137 -0.21427096
-0.46840969 1.9795928 -0.21890754
-0.50912821 1.8490795 -0.22462174
-0.51588696 1.6369377 -0.21724589
-0.54297757 1.5262541 -0.22124469
-0.27637032 1.172287 -0.1745044
-0.29873693 1.0873414 -0.17414355
-0.38718072 1.2301933 -0.21204908
-0 0 -0
-0.22903401 0.97485065 -0.18312186
-0 0 -0
-0 0 -0
-0.34147421 0.96128315 -0.21720803
-0.20236379 0.8650614 -0.19702208
-0.23613194 0.86259472 -0.20711388
-0.26581854 0.84670329 -0.21448341
-0 0 -0
-0.1977489 0.84894043 -0.22802743
-0.2124217 0.77827388 -0.2192324
-0.23617697 0.75297666 -0.22281533
-0.25336504 0.71237993 -0.22195728
-0.53418261 2.3055592 0.73114723
-0.61022043 2.2401307 0.68958735
-0.71145004 2.2684534 0.68094581
-0.79516065 2.2391438 0.65588158
-0 0 0
-0.68959904 2.534147 0.67236501
-0 0 0
-0.82523763 2.3326147 0.58280015
-0 0 0
-0.6341843 2.3292246 0.52289921
-0.71832913 2.2995203 0.49780563
-0.81780124 2.3168664 0.48306137
-0.56730425 2.4388328 0.47176754
-0.62427247 2.2951908 0.423603
-0.72245413 2.3168447 0.40842727
-0.81274122 2.305351 0.38785794
-0.54578447 2.3472478 0.3626512
-0.62053555 2.2860198 0.33273673
-0.71872306 2.3091331 0.31632748
-0.79313183 2.2561309 0.28999403
-0.54667425 2.3529363 0.27313128
-0.63733763 2.3480797 0.25147301
-0.70596951 2.2713711 0.22316429
-0.82371128 2.3467817 0.21007538
-0.55135024 2.3747542 0.18596119
-0.65058517 2.3998687 0.16563194
-0.72097552 2.3216522 0.13910769
-0.81005895 2.3103373 0.11639798
-0.55064535 2.3751049 0.096262038
-0.63724631 2.3552215 0.073011495
-0.72911412 2.3520625 0.050635662
-0.8145833 2.3263612 0.026888447
-0.54735458 2.3624101 0.0068988414
-0.63065428 2.3342509 -0.016500879
-0.72763824 2.3506374 -0.039600547
-0.82209218 2.3505676 -0.063859478
-0.54468137 2.3564827 -0.081924066
-0.62506038 2.3169184 -0.10389423
-0.719684 2.3299789 -0.12891102
-0.81690055 2.3375564 -0.15448679
-0.5360328 2.3260961 -0.16851045
-0.60922176 2.2629201 -0.18772966
-0.70070082 2.2697852 -0.21288359
-0.71079516 2.0358756 -0.21417212
-0.47520918 2.0647888 -0.22800194
-0.5029285 1.8713521 -0.22694823
-0.50846469 1.6486045 -0.21837607
-0.53947693 1.5463961 -0.22368042
-0.27027798 1.1787838 -0.17522134
-0.29103565 1.0853357 -0.17353307
-0.33053815 1.0731729 -0.18463033
-0.37300012 1.0697352 -0.19758007
-0.21954247 0.96089411 -0.18024373
-0 0 -0
-0.26892745 0.8750385 -0.18531501
-0 0 -0
-0 0 -0
-0.22932598 0.85838014 -0.2057602
-0.26375824 0.85853904 -0.21706754
-0 0 -0
-0 0 -0
-0.21260983 0.79821247 -0.2244772
-0.22477521 0.73233134 -0.21629392
-0 0 -0
-0 0 0
-0.59941894 2.2549498 0.69300389
-0 0 0
-0.81088758 2.3286419 0.68062681
-0 0 0
-0.61884087 2.3304701 0.61730593
-0.70456439 2.3018947 0.59187067
-0.80452937 2.3192422 0.57821476
-0.53765577 2.3798954 0.55410147
-0.61636704 2.3198481 0.51993543
-0.70706868 2.3132498 0.49982923
-0.77982211 2.2532239 0.46878558
-0.53433728 2.3627121 0.45639995
-0.61194557 2.305639 0.42483032
-0.70189345 2.3004832 0.40477616
-0.79632199 2.3037605 0.38676098
-0.53224397 2.3544109 0.36324647
-0.6044687 2.2821262 0.33162385
-0.70280772 2.3078084 0.31554928
-0.79059541 2.2938039 0.29420727
-0.52478284 2.3232915 0.26931125
-0.61655134 2.3279073 0.24890277
-0.70621318 2.3223355 0.22774154
-0.80799925 2.3480229 0.20973872
-0.53281695 2.360585 0.18459214
-0.62589657 2.3661954 0.16303979
-0.72761327 2.3948104 0.14322095
-0.7987901 2.3237655 0.11682539
-0.52947068 2.349196 0.095078491
-0.61946619 2.3465235 0.072622657
-0.71640939 2.3622324 0.050759014
-0.80191696 2.3360443 0.026942987
-0.53306854 2.3666997 0.0069016861
-0.61631972 2.3380768 -0.016500879
-0.70856446 2.3397467 -0.039343089
-0.81057191 2.3640783 -0.064090192
-0.53766125 2.3929346 -0.083075069
-0.61235803 2.3265071 -0.10415375
-0.69757497 2.3085413 -0.12748572
-0.79607272 2.3236411 -0.15324143
-0.51935172 2.318634 -0.16773586
-0.59684461 2.2724004 -0.18820876
-0.67322683 2.2292283 -0.20868839
-0.70409024 2.0571456 -0.21595113
-0.45428309 2.0307951 -0.22393622
-0.45138615 1.7216452 -0.2084527
-0.50292456 1.6668901 -0.22038528
-0.51939791 1.5187399 -0.21921493
-0.2654078 1.1910458 -0.17679863
-0.28462076 1.0880572 -0.17368568
-0.31199121 1.0354995 -0.17781623
-0.36388025 1.0645462 -0.1962056
-0 0 -0
-0 0 -0
-0.26891464 0.89450598 -0.18908481
-0 0 -0
-0 0 -0
-0.22380908 0.85882837 -0.20553458
-0.25960436 0.86386484 -0.21800724
-0 0 -0
-0 0 -0
-0.20843603 0.80230397 -0.22526391
-0.22498187 0.7493661 -0.22091325
-0.24770808 0.7245146 -0.224774
-0 0 0
-0.60361505 2.3281803 0.71435779
-0.69599748 2.3184469 0.69333673
-0.8140229 2.3846605 0.69552714
-0 0 0
-0.61643088 2.3801763 0.62945861
-0.68903446 2.3015232 0.59067696
-0.78840345 2.3186057 0.57683915
-0.51614428 2.3517172 0.54679316
-0.60947597 2.351969 0.52628642
-0.68977594 2.3072238 0.4976033
-0.7773298 2.2914178 0.47573054
-0.54134011 2.4638474 0.47528547
-0.5977869 2.3093505 0.42483032
-0.68607283 2.299077 0.4037804
-0.77995288 2.3020554 0.38566402
-0 0 0
-0.58822536 2.2771628 0.33037192
-0.68693584 2.3063755 0.31477112
-0.79239208 2.3456376 0.30022627
-0.53245467 2.4264369 0.28088364
-0.60524112 2.3432038 0.25013649
-0.68088132 2.2894065 0.22409841
-0.78434175 2.3255548 0.20729794
-0.53199083 2.4261436 0.18945985
-0.61061835 2.3670928 0.16284038
-0.68901855 2.3188407 0.13842215
-0.77973312 2.3144243 0.11611304
-0.52872396 2.414871 0.097603396
-0.60156769 2.3367283 0.072203904
-0.67745298 2.2841513 0.04899098
-0.78374195 2.3295481 0.026812091
-0.51447558 2.3513651 0.006847633
-0.59648502 2.3205075 -0.016350746
-0.68567699 2.315289 -0.038860351
-0.80114567 2.3841689 -0.064500369
-0.52232903 2.3932593 -0.08297351
-0.60179687 2.3447359 -0.10480254
-0.68396282 2.3146932 -0.1275913
-0.76972842 2.2925279 -0.15087524
-0.51126462 2.3500435 -0.16977796
-0.58412677 2.280848 -0.18860804
-0.67251217 2.2772577 -0.21279432
-0.69999886 2.0869 -0.21861963
-0.45173508 2.0792093 -0.22896488
-0.49886748 1.9514775 -0.23590519
-0.49465236 1.6766053 -0.2212643
-0.53620249 1.5998721 -0.23044631
-0.29702869 1.3725653 -0.20346898
-0.28599894 1.1213849 -0.17872226
-0.32264215 1.0951325 -0.18771292
-0.38550323 1.1508293 -0.21166839
-0.21084408 0.97793972 -0.18294199
-0 0 -0
-0.25761631 0.87639213 -0.1849182
-0.29578841 0.88392866 -0.19846523
-0.18476783 0.86100334 -0.19529003
-0.21757565 0.8564086 -0.20463212
-0.25073653 0.85331786 -0.21495324
-0.27966458 0.83477604 -0.22226281
-0.18128079 0.84865212 -0.22701509
-0.20350927 0.80356777 -0.22526391
-0.22092177 0.75257927 -0.22145671
-0 0 -0
-0.51606828 2.4299567 0.76745367
-0.5832113 2.3076758 0.70695508
-0 0 0
-0.75656289 2.2616282 0.65827632
-0 0 0
-0.59422684 2.3538566 0.62152219
-0.67217165 2.2963879 0.58828938
-0.75293094 2.2596817 0.56101966
-0 0 0
-0.59383637 2.3509266 0.52522796
-0.67533135 2.310473 0.49740094
-0.7722311 2.3231468 0.48132512
-0.51493752 2.4142625 0.46510208
-0.58240151 2.308202 0.42395368
-0.67029595 2.2975633 0.40278462
-0.76892489 2.3161712 0.38723111
-0.5014559 2.3520608 0.36190718
-0.57714331 2.292253 0.33204117
-0.67443448 2.3162591 0.31554928
-0.76862633 2.3221822 0.29661489
-0.50575602 2.3742623 0.27447951
-0.58696651 2.3314397 0.24849153
-0.67126834 2.3088379 0.22559303
-0.7428571 2.2480102 0.19997561
-0.5027709 2.3620694 0.18421187
-0.59024352 2.3475709 0.16124523
-0.67338502 2.3182311 0.13813652
-0.76520425 2.3182163 0.11606555
-0.51140398 2.4063408 0.097129978
-0.58211017 2.3200159 0.071575783
-0.68068564 2.3478003 0.05026561
-0.76473784 2.3200679 0.026648469
-0.50336212 2.3701284 0.0068931514
-0.58223546 2.3241239 -0.016350746
-0.67674035 2.3377006 -0.039166082
-0.78368825 2.3804941 -0.064269654
-0.49976414 2.3592653 -0.081687093
-0.59685314 2.3861833 -0.10648942
-0.67002439 2.3198059 -0.12764409
-0.76406759 2.3228059 -0.15255646
-0.49044725 2.3228805 -0.16759501
-0.56818974 2.2766521 -0.18796921
-0.65935522 2.2842121 -0.21306209
-0.69743246 2.1223531 -0.22188114
-0.42153311 1.9992479 -0.21987048
-0.47151887 1.8928212 -0.22846045
-0.48408067 1.6786556 -0.22113872
-0.52204859 1.5899531 -0.22855186
-0.24243315 1.1545027 -0.17091967
-0.27553758 1.108732 -0.17643291
-0.30990943 1.0762306 -0.18414363
-0.37751311 1.150365 -0.21115297
-0 0 -0
-0 0 -0
-0.25412849 0.88455045 -0.18630707
-0.28853106 0.88015044 -0.19721571
-0.18326198 0.88028085 -0.19940367
-0.2109122 0.8520534 -0.20327844
-0.24361785 0.84830052 -0.2133088
-0.27756074 0.84568864 -0.22471064
-0 0 -0
-0.19765015 0.80105376 -0.22421496
-0.21868846 0.76224619 -0.22390224
-0.23999549 0.73114645 -0.22590068
-0 0 0
-0.57362419 2.3298273 0.71264946
-0.65450478 2.2815337 0.67984444
-0.7648856 2.334013 0.677966
-0 0 0
-0.57699645 2.3461697 0.61854601
-0.66047227 2.3088717 0.59043813
-0.769858 2.3586416 0.584405
-0.48487803 2.3464141 0.54413557
-0.57916659 2.3535769 0.52501619
-0 0 0
-0.74945581 2.3017173 0.47592345
-0.49434054 2.3894691 0.45973265
-0.57386762 2.3346775 0.42816165
-0.65456349 2.2959428 0.40178886
-0.75133896 2.3105137 0.38550729
-0.48200816 2.330884 0.3581869
-0.56990826 2.3236425 0.33607522
-0.65586776 2.3050945 0.31347418
-0.76293546 2.353296 0.2999855
-0.48373926 2.3413155 0.27032244
-0.5733608 2.3378956 0.24879996
-0.65028673 2.28897 0.22325769
-0.72874272 2.2515779 0.19989143
-0.49008244 2.3738985 0.18489638
-0.57820153 2.3608398 0.16190988
-0.67277795 2.3703408 0.14099294
-0.73652393 2.2781975 0.11383352
-0.49642763 2.4084549 0.097090527
-0.57071149 2.3351958 0.071934715
-0.66980952 2.3644378 0.05053287
-0.75878215 2.3504093 0.026942987
-0.49244109 2.3908024 0.0069443597
-0.56464529 2.3140519 -0.016255209
-0.66129524 2.3379607 -0.039101716
-0.74912715 2.3234143 -0.062603302
-0.48326746 2.3524976 -0.081348568
-0.5807817 2.3839765 -0.1062299
-0.65415049 2.3181069 -0.12732735
-0.73908931 2.2942014 -0.15037709
-0.47998658 2.3444138 -0.16893296
-0.55891842 2.2994676 -0.18956622
-0.64748996 2.2958839 -0.21377619
-0.65909398 2.0479701 -0.21367796
-0.4403258 2.153758 -0.23656139
-0.48401463 1.9950957 -0.24044183
-0.47377154 1.6815943 -0.22113872
-0.52107882 1.6204802 -0.23247607
-0.25449604 1.2500365 -0.1848284
-0.27919027 1.1536268 -0.18330099
-0.30757552 1.09331 -0.18673947
-0.36050057 1.1217095 -0.20548327
-0.19589482 0.96599257 -0.18024373
-0 0 -0
-0.25266898 0.90024793 -0.18928322
-0.28312513 0.8819043 -0.19721571
-0 0 -0
-0.20522358 0.85143733 -0.20282722
-0.239721 0.85445875 -0.21448341
-0.26999292 0.83999121 -0.22275238
-0.17066242 0.8498643 -0.22676201
-0.19746502 0.82195586 -0.22972199
-0.20881292 0.7450403 -0.21846771
-0.23227462 0.72255701 -0.22280228
-0.4665747 2.3377254 0.73646033
-0.57361925 2.3929641 0.73087144
-0.64775687 2.3114259 0.68755436
-0.71932614 2.2413712 0.6497618
-0 0 0
-0.56394321 2.3553185 0.6200341
-0.63610059 2.2764058 0.58112675
-0.75033343 2.3475595 0.58050746
-0 0 0
-0.56949633 2.3770456 0.52946192
-0.63113582 2.2619891 0.48525929
-0.73412639 2.3025331 0.47515178
-0.46807885 2.3346453 0.44862354
-0.57121706 2.3869858 0.43710357
-0.64284444 2.308466 0.40328249
-0.73894566 2.3207271 0.38644755
-0.47041732 2.3473718 0.36027023
-0.56092954 2.3492494 0.33927459
-0.64357013 2.3157628 0.31438202
-0.74277478 2.3399553 0.29769829
-0.46936411 2.3442397 0.27032244
-0.56916869 2.3839402 0.25332361
-0.65220189 2.3504796 0.22886248
-0.72063291 2.274055 0.20149057
-0.48196208 2.409126 0.18740629
-0.55583704 2.3313434 0.15965006
-0.64995337 2.3445995 0.13922194
-0.73428714 2.3198137 0.11568563
-0.47616041 2.3840191 0.095985875
-0.56076765 2.3571293 0.072503008
-0.65582216 2.3704302 0.050573986
-0.73199052 2.3159294 0.026495757
-0.47541344 2.3820109 0.0069102207
-0.55274671 2.3272021 -0.016323451
-0.64400882 2.3313727 -0.038924716
-0.73636138 2.3327336 -0.062731482
-0.46940902 2.3583591 -0.081450127
-0.56130219 2.3670812 -0.10532159
-0.64468998 2.339406 -0.12827756
-0.72049534 2.2844155 -0.14944308
-0.46675697 2.3531857 -0.16935547
-0.54411018 2.2999437 -0.18932667
-0.62175405 2.2575622 -0.20984876
-0.64561832 2.0491283 -0.21338145
-0.38808164 1.9594058 -0.2149488
-0.45692849 1.935197 -0.23288076
-0.46133921 1.6768174 -0.22013412
-0.50934088 1.6179765 -0.23166418
-0.23456629 1.1894327 -0.17565151
-0.26191097 1.1120297 -0.17643291
-0.29458794 1.0723407 -0.1828457
-0.31014886 0.98576206 -0.18022738
-0.1926181 0.9806897 -0.1827621
-0 0 -0
-0 0 -0
-0.27096379 0.86216414 -0.19242589
-0.17076063 0.87384003 -0.19745511
-0.20066279 0.85552597 -0.20350406
-0.23447363 0.85591358 -0.21448341
-0.26512477 0.84255695 -0.22299717
-0.16525988 0.84994584 -0.22650895
-0.18868373 0.8071776 -0.22526391
-0.20677778 0.75558996 -0.22118497
-0 0 -0
-0.46436572 2.4033964 0.75623703
-0.5634979 2.4160435 0.7368505
-0.64929318 2.3728466 0.70462608
-0.70729339 2.2512603 0.65135825
-0 0 0
-0 0 0
-0.63285589 2.3196135 0.5911544
-0.73475236 2.3484035 0.57959038
-0.45326328 2.3378277 0.54081362
-0.55645341 2.3871579 0.53094381
-0.62959987 2.3111734 0.49497262
-0.72115374 2.3107407 0.47592345
-0.45861384 2.3625557 0.45343751
-0.56549001 2.4288003 0.44411692
-0.62323499 2.2923834 0.39979735
-0.72968793 2.3412468 0.38911161
-0.45864227 2.3638048 0.36235362
-0.54224694 2.3343196 0.3366316
-0.62415612 2.300529 0.31178811
-0.72840315 2.3444688 0.29769829
-0.45516038 2.3480511 0.2704348
-0.54305267 2.3379734 0.2480803
-0.62501204 2.3073485 0.22428523
-0.70341903 2.2679651 0.20056476
-0.45465735 2.3474295 0.18238646
-0.54377615 2.34443 0.16031471
-0.63972765 2.3639627 0.140136
-0.71590102 2.3109176 0.11502077
-0.46133369 2.385915 0.095946424
-0.54336423 2.3478663 0.07211417
-0.63266277 2.3425579 0.049895555
-0.72692686 2.3499908 0.026833905
-0.46192697 2.3907743 0.0069272905
-0.53778154 2.3276269 -0.016302979
-0.62839007 2.3304534 -0.038844258
-0.73560733 2.3811438 -0.063910745
-0.45719853 2.3729715 -0.081856363
-0.54519564 2.3636661 -0.10501881
-0.62747025 2.33271 -0.12769687
-0.71794492 2.3259861 -0.15187153
-0.46020824 2.3971496 -0.17231302
-0.52641124 2.2876961 -0.18804905
-0.6097002 2.2680676 -0.21047357
-0.64593405 2.094892 -0.21773012
-0.42135006 2.1980586 -0.24084111
-0.44882485 1.9544204 -0.23485826
-0.44460931 1.655663 -0.21699473
-0.50319576 1.6333808 -0.23342329
-0.23468451 1.2297345 -0.18138708
-0.25817201 1.1271026 -0.17856964
-0.28621379 1.0674564 -0.18171
-0.31916878 1.0366052 -0.18916143
-0.18494415 0.97315568 -0.18114315
-0 0 -0
-0 0 -0
-0.26106822 0.84885275 -0.18909384
-0.16902274 0.8940571 -0.20178525
-0.19627616 0.86054033 -0.2044065
-0.22796212 0.85264105 -0.2133088
-0.26480082 0.85992068 -0.22715847
-0 0 -0
-0.18821903 0.82808119 -0.23077096
-0.20933916 0.78380829 -0.22906503
-0.22734408 0.73819113 -0.22674571
-0.44153741 2.3629978 0.74265897
-0.51707441 2.2801592 0.69442755
-0.62380797 2.3359191 0.69251066
-0.69743252 2.2684572 0.65508336
-0 0 0
-0.53649539 2.3686757 0.6217702
-0.61361426 2.3046851 0.58637935
-0.72203863 2.3584518 0.580966
-0.43962905 2.3443985 0.54169947
-0.54049945 2.3848083 0.52967364
-0.62874156 2.3651543 0.50569767
-0.70724833 2.3160608 0.47611639
-0 0 0
-0.55079389 2.4331846 0.44429222
-0.61396194 2.3142745 0.40295061
-0.70292103 2.3050582 0.38237306
-0.44412959 2.3665745 0.36235362
-0.52682292 2.3327732 0.3359361
-0.61688 2.3301959 0.31528991
-0.70158911 2.3080521 0.29252198
-0.45575941 2.4308851 0.27964777
-0.53066885 2.3499939 0.24900559
-0.61822057 2.3390548 0.22699422
-0.70800734 2.3332636 0.2059513
-0.43749145 2.3354745 0.18124561
-0.52784443 2.3409088 0.15984945
-0.6190936 2.3446767 0.13876492
-0.70576411 2.32865 0.11568563
-0.44870564 2.3995049 0.09638039
-0.52894777 2.351156 0.07211417
-0.6060493 2.2999899 0.048908748
-0.70061904 2.315167 0.026386674
-0.44228953 2.367023 0.0068504787
-0.52502322 2.3377125 -0.016350746
-0.61280698 2.3294306 -0.038763802
-0.70825815 2.343508 -0.062782757
-0.44116518 2.367872 -0.081585534
-0.52893364 2.3591678 -0.10467278
-0.61441249 2.3413455 -0.12796082
-0.69413882 2.2988176 -0.14981669
-0.44585505 2.4018898 -0.17245385
-0.51388729 2.2976928 -0.18860804
-0.59703547 2.2765832 -0.21091987
-0.64082676 2.1245389 -0.22039862
-0.41111645 2.2181995 -0.24276696
-0.43249717 1.9377503 -0.23253179
-0.4346934 1.6593196 -0.2171203
-0.49116281 1.629797 -0.23247607
-0.25873592 1.4024421 -0.20662354
-0.24158785 1.0852553 -0.17170158
-0.28914705 1.1054688 -0.18787518
-0.29916513 0.993267 -0.18091463
-0 0 -0
-0 0 -0
-0.232344 0.89052069 -0.18630707
-0.25923619 0.86167789 -0.19159287
-0 0 -0
-0.19014905 0.85792398 -0.20350406
-0.22100908 0.84743983 -0.21166435
-0.25280777 0.83924836 -0.22128369
-0.15291452 0.84143949 -0.22372504
-0.18022098 0.81602836 -0.2270996
-0.1996735 0.76645213 -0.2236305
-0.22197999 0.73681599 -0.22590068
-0.43110344 2.3882287 0.74974322
-0.5261752 2.3881388 0.72631598
-0.6157639 2.3638906 0.69966978
-0.69293946 2.3040795 0.66412997
-0.44107103 2.4346952 0.66063344
-0.50258899 2.2839336 0.59870493
-0.60141408 2.3159261 0.58828938
-0.69694334 2.3274045 0.57225382
-0.4245404 2.3432138 0.54081362
-0.52354443 2.3775809 0.52734494
-0.61077642 2.3556962 0.50286466
-0.69386637 2.3231773 0.47669515
-0.42660511 2.351568 0.45028993
-0.51639897 2.3480575 0.42816165
-0.59975028 2.3179982 0.40295061
-0.69271618 2.3225782 0.38456705
-0 0 0
-0.51419705 2.3436999 0.33704892
-0.60033977 2.3252966 0.31412265
-0.69307166 2.3313448 0.29492956
-0.42524922 2.3475931 0.26976067
-0.50963205 2.3230863 0.24581847
-0.60435379 2.3447323 0.22718106
-0.69197655 2.3318324 0.20544632
-0.42262027 2.3351715 0.18101743
-0.51859498 2.3674958 0.16144462
-0.60270363 2.3406966 0.13830788
-0.68890786 2.3243172 0.11525822
-0.42917785 2.3756638 0.095315196
-0.51792586 2.3699815 0.072592743
-0.61257684 2.384037 0.050615102
-0.68413019 2.3117516 0.02629941
-0.43948168 2.4346423 0.0070382408
-0.50512791 2.3154881 -0.016173318
-0.59626633 2.3244302 -0.038618982
-0.7023651 2.3765702 -0.063551836
-0.42627385 2.3685672 -0.081517838
-0.5099839 2.3418691 -0.10376447
-0.60151994 2.3508761 -0.12827756
-0.6774767 2.2944188 -0.14925627
-0.43410152 2.4212718 -0.17365097
-0.49808648 2.2930098 -0.18796921
-0.57984769 2.2676592 -0.2097595
-0.64241755 2.1780627 -0.22553797
-0.4031041 2.2519989 -0.24619074
-0.42670095 1.9685171 -0.23590519
-0.42720455 1.6725291 -0.21850164
-0.48143339 1.6337304 -0.2326114
-0.25134087 1.4108235 -0.20762727
-0.25079477 1.160131 -0.18330099
-0.26967925 1.0575023 -0.17943864
-0.29195166 0.99130386 -0.18022738
-0.17264453 0.97341472 -0.18078336
-0 0 -0
-0.2341239 0.92042565 -0.19225937
-0.25504825 0.86700559 -0.19242589
-0 0 -0
-0.18549626 0.86193174 -0.2041809
-0.21772125 0.85631633 -0.21354373
-0.24518789 0.83241314 -0.21908064
-0 0 -0
-0.17561516 0.81900591 -0.22762407
-0.19496688 0.76766288 -0.2236305
-0.21826822 0.74092543 -0.22674571
-0 0 0
-0 0 0
-0.58657736 2.3098547 0.68259794
-0.6801486 2.312912 0.66546041
-0.41480923 2.3726387 0.64309216
-0.49767303 2.3296065 0.60986555
-0.592197 2.3393416 0.5933032
-0.67581213 2.3082836 0.56652212
-0.4109945 2.3505774 0.54192096
-0.50567698 2.3654566 0.52395773
-0.59031153 2.3356631 0.49780563
-0.67299783 2.3047857 0.47206512
-0.41216812 2.3541412 0.45028993
-0.51184875 2.3973968 0.43657759
-0.57900488 2.2958171 0.39846966
-0.67679328 2.3210959 0.38362679
-0.41454327 2.3689241 0.36190718
-0.5008381 2.3516536 0.33774447
-0.58412486 2.3212435 0.31308508
-0.66988844 2.3050485 0.29107744
-0.40621668 2.32373 0.26672712
-0.49992624 2.347573 0.2480803
-0.58267802 2.3194277 0.22437866
-0.67127055 2.3140235 0.20351054
-0.40708315 2.3308449 0.18048503
-0.49658793 2.3354983 0.15905187
-0.58954513 2.3491924 0.13859354
-0.68269426 2.3563237 0.11663543
-0.41236213 2.3654554 0.094802327
-0.50731486 2.3916931 0.073161043
-0.58312225 2.3285904 0.049361032
-0.67076629 2.3187876 0.026332133
-0.41269442 2.3693168 0.0068419441
-0 0 -0
-0.5793252 2.3173749 -0.038441978
-0.68111104 2.3577855 -0.062936574
-0 0 -0
-0 0 -0
-0.58780873 2.3574297 -0.12843592
-0.66892081 2.3177109 -0.15050162
-0.41923672 2.4238899 -0.17365097
-0.48585796 2.3048012 -0.18868788
-0.56881249 2.2827721 -0.21083063
-0 0 -0
-0.39283121 2.2750046 -0.24843758
-0 0 -0
-0.40902671 1.6433494 -0.21435764
-0.47112569 1.6357015 -0.23247607
-0.36234328 2.1087551 -0.31000701
-0.23251261 1.1084501 -0.17490667
-0.27246597 1.0964847 -0.18576604
-0.2877712 0.99970341 -0.18143003
-0 0 -0
-0 0 -0
-0 0 -0
-0.24783176 0.8619743 -0.19096813
-0.15171909 0.89220446 -0.20070271
-0.18398733 0.88117307 -0.20846756
-0.21152797 0.85386211 -0.21260403
-0.24731819 0.85905874 -0.22568978
-0.14515783 0.85851508 -0.22777435
-0.16940737 0.81439936 -0.22605065
-0.1921023 0.77631837 -0.22580431
-0.21557629 0.74870509 -0.2287174
-0 0 0
-0.4956609 2.3887842 0.72460765
-0.57516414 2.3246088 0.68590224
-0.64038205 2.2281032 0.63991696
-0 0 0
-0.48356602 2.333565 0.61011356
-0.57713431 2.3401029 0.59258693
-0.65601301 2.2927346 0.56170744
-0.39478123 2.3424773 0.53948486
-0.48976421 2.3618159 0.52247584
-0.56917924 2.3116651 0.49193722
-0.66638213 2.3352914 0.47746679
-0.40376639 2.3924792 0.45714054
-0.47916046 2.3137276 0.42079768
-0.56961268 2.3184798 0.40178886
-0.66118526 2.3204556 0.3828432
-0.3995066 2.3684978 0.36146075
-0.48539755 2.3498333 0.33704892
-0.56680208 2.3122644 0.31139904
-0.66088486 2.3272598 0.29336464
-0.38897908 2.3085415 0.26470476
-0.48712203 2.3583894 0.24890277
-0.56772536 2.3200581 0.22409841
-0.66113532 2.3324788 0.20477299
-0.39707714 2.3588638 0.18246253
-0.48506957 2.3521824 0.15998237
-0.56682235 2.3188221 0.13659404
-0.66631877 2.3537405 0.116303
-0.39601907 2.3571017 0.094368361
-0.48739371 2.3693054 0.072383367
-0.56645423 2.3224113 0.049155448
-0.65978944 2.3344066 0.026463032
-0.4004665 2.3856113 0.0068817721
-0.48210576 2.34796 -0.016357571
-0.56675094 2.3276863 -0.038554616
-0.66038567 2.3397925 -0.062346946
-0.39503157 2.3608055 -0.081077747
-0.47478837 2.316632 -0.10238037
-0.5723902 2.3571105 -0.12822476
-0.65793747 2.3332989 -0.15124884
-0.40599585 2.4362562 -0.17435513
-0.47090834 2.3038325 -0.18836847
-0.55315071 2.2794435 -0.21020579
-0.59918439 2.1273541 -0.21950914
-0.39028609 2.3460271 -0.25592712
-0.4410167 2.1624017 -0.25847206
-0.47115064 1.9437549 -0.25316051
-0.46805829 1.6633594 -0.23599434
-0.35020539 2.1158204 -0.31072393
-0.24776553 1.2183235 -0.19200052
-0.27130288 1.1211534 -0.18965982
-0.29043275 1.0327457 -0.18709974
-0.16452353 0.99875468 -0.18510059
-0 0 -0
-0.22626032 0.93752086 -0.19523552
-0.24491854 0.87195343 -0.19284239
-0.14813487 0.90468001 -0.20330082
-0.17645118 0.871782 -0.20598581
-0.20856418 0.86459303 -0.21495324
-0.23469192 0.83442593 -0.21883586
-0.13879934 0.85270548 -0.22600278
-0.1657422 0.82204527 -0.2278863
-0.18868788 0.78309602 -0.22743466
-0.21045862 0.74816644 -0.22815406
-0 0 0
-0 0 0
-0.56179041 2.3318326 0.68700361
-0.62748033 2.2347746 0.64071518
-0 0 0
-0.47419786 2.3611827 0.61656189
-0.55256158 2.3011093 0.58184302
-0.64612496 2.3117156 0.56537575
-0.37587205 2.3169405 0.5330624
-0.47468543 2.3619022 0.52184075
-0.56502932 2.3570163 0.50084108
-0.65651917 2.3554044 0.48074636
-0.38009644 2.339622 0.44658688
-0.46727946 2.3282073 0.42290169
-0.55904645 2.3372765 0.40444422
-0.63210535 2.2711859 0.37406743
-0.37783432 2.3269808 0.35476425
-0.47388574 2.3673327 0.3391355
-0.55651635 2.3320951 0.31360388
-0.64659262 2.3312709 0.29336464
-0.37655675 2.3216739 0.26594064
-0.47205642 2.358408 0.24859436
-0.55278689 2.3205924 0.22381818
-0.64946955 2.3460948 0.20561464
-0.37749255 2.3297594 0.18002868
-0.4714098 2.3590283 0.16024823
-0.55212152 2.3203139 0.13647979
-0.65079927 2.3539338 0.11611304
-0.38441989 2.3772426 0.095078491
-0.46581265 2.3369617 0.071306594
-0.55519581 2.3384891 0.049422707
-0.65316904 2.366364 0.026779367
-0.38677812 2.3939466 0.0068988414
-0.46788496 2.3518546 -0.016364394
-0.55084383 2.3243096 -0.038441978
-0.64389145 2.3360903 -0.062141854
-0.38022071 2.3612113 -0.081010036
-0.46542931 2.3440001 -0.1034617
-0.55929458 2.3664093 -0.1285415
-0.64175344 2.3305564 -0.15081297
-0.38740715 2.4160478 -0.17273553
-0.46450847 2.3457913 -0.1915625
-0.53869605 2.2808561 -0.21002729
-0.58717549 2.1348286 -0.21990447
-0.38201234 2.3866665 -0.26009983
-0.43043518 2.1787083 -0.26010057
-0.47151554 1.9987507 -0.25994161
-0.44760484 1.6289397 -0.23071694
-0.33457094 2.1013143 -0.30828634
-0.22557794 1.1451578 -0.18024851
-0.25310892 1.0747732 -0.18154778
-0.28461221 1.0364083 -0.18744336
-0.15854612 1.0007169 -0.18528049
-0 0 -0
-0.21893492 0.93221247 -0.19384666
-0.24240951 0.88381547 -0.19513318
-0 0 -0
-0.17372234 0.88623261 -0.20914441
-0.20125598 0.85733986 -0.21283895
-0.2287972 0.83304542 -0.21810152
-0 0 -0
-0.16180463 0.82872951 -0.22945976
-0.18212183 0.77674335 -0.22526087
-0.20662645 0.75221938 -0.22899906
-0.36371416 2.3423855 0.73232794
-0.4631947 2.3786907 0.71976745
-0.54791087 2.3371079 0.68755436
-0.63032353 2.2990093 0.65801018
-0.36957797 2.3703258 0.64051259
-0.44786641 2.3031876 0.60068905
-0.54771137 2.344172 0.59187067
-0.63807851 2.3381732 0.57087821
-0.36901069 2.366416 0.54391414
-0.45850396 2.3561361 0.51993543
-0.55389303 2.3747444 0.50387645
-0.63432497 2.3309848 0.4749589
-0.3705858 2.3729804 0.45251173
-0.44847772 2.3078361 0.41869369
-0.53955394 2.3185718 0.40062714
-0.63188303 2.3255353 0.38237306
-0.36858144 2.3614976 0.35967499
-0.45859745 2.366307 0.33857906
-0.53972977 2.3248413 0.31217721
-0.62812483 2.3198628 0.29143855
-0.36398783 2.3347406 0.26717654
-0.45833355 2.3651662 0.24900559
-0.54145956 2.3365495 0.22503255
-0.63090271 2.3346446 0.20426801
-0.36840722 2.3655293 0.18261464
-0.4569262 2.3618765 0.16024823
-0.53539729 2.3129587 0.13585137
-0.63165873 2.340524 0.11525822
-0.36936578 2.3765943 0.094960131
-0.4565776 2.3662751 0.07211417
-0.53903687 2.3340585 0.04925824
-0.62693083 2.3268793 0.026288502
-0.36901313 2.3765118 0.0068419441
-0.45193273 2.3468258 -0.016309801
-0.53365195 2.3149796 -0.038232792
-0.63370079 2.3554428 -0.062552035
-0.36710092 2.3723891 -0.081314713
-0.45292363 2.3566227 -0.10389423
-0.53894728 2.3444927 -0.12716898
-0.63029099 2.3450525 -0.15149792
-0.37318283 2.422323 -0.17301719
-0.4532958 2.3652403 -0.19291997
-0.52491385 2.2850893 -0.21011654
-0.58180553 2.1672235 -0.22286947
-0.37370765 2.4302392 -0.26459351
-0.42582521 2.2271585 -0.26556781
-0.4350602 1.8962076 -0.24625386
-0.43811476 1.6335696 -0.23098759
-0.21439761 1.4018924 -0.20547643
-0.22002754 1.1542866 -0.18146949
-0.24518768 1.0705349 -0.18057431
-0.26753592 0.99817014 -0.18022738
-0.1615766 1.0619656 -0.19643328
-0 0 -0
-0 0 -0
-0.23141782 0.8645004 -0.19055161
-0.13424936 0.88808876 -0.19918716
-0.16755512 0.88345325 -0.20824195
-0.19685696 0.86234915 -0.21377864
-0.22393246 0.83537006 -0.21834628
-0.13033669 0.86773849 -0.22954594
-0.15600017 0.82591379 -0.2284108
-0.17927782 0.78629088 -0.2277064
-0.20275244 0.75625342 -0.22984409
-0 0 0
-0.45622092 2.4219961 0.7320103
-0.52672255 2.3104322 0.67874306
-0.62243456 2.3261135 0.66466212
-0.35617086 2.3801932 0.64257628
-0.43784466 2.3277898 0.60639334
-0.52944511 2.3304436 0.58757311
-0.61745751 2.3185301 0.56514651
-0.35405067 2.3657424 0.54324973
-0.43951842 2.3348937 0.51464295
-0.53216392 2.3465815 0.49719855
-0.61900306 2.3310399 0.47418723
-0.35718387 2.3829844 0.45399296
-0.44467536 2.3656957 0.42868766
-0.53032237 2.3439608 0.40444422
-0.61405832 2.3160036 0.38017914
-0.35423115 2.3646929 0.35982385
-0.44279233 2.362263 0.33760533
-0.52894753 2.3435848 0.31425235
-0.61717492 2.3361506 0.2930035
-0.35303715 2.3595328 0.26976067
-0.44472873 2.3728223 0.24951963
-0.52448684 2.3281724 0.22391158
-0.61707383 2.340399 0.20443633
-0 0 0
-0.4424254 2.3646355 0.16024823
-0.5271129 2.3424988 0.13739385
-0.61779439 2.3462875 0.1153532
-0.35418677 2.3748629 0.094802327
-0.43874961 2.3513455 0.071575783
-0.52711409 2.3480527 0.049484383
-0.61670887 2.3461556 0.026463032
-0.36090845 2.4222507 0.0069671185
-0.43752438 2.3495545 -0.016309801
-0.52337253 2.3357725 -0.038522433
-0.61416042 2.3399484 -0.062039312
-0.35341793 2.3805285 -0.081517838
-0 0 -0
-0 0 -0
-0.61766213 2.3556337 -0.15193379
-0.34518769 2.3357553 -0.16667958
-0.43950084 2.3718975 -0.19323938
-0.50936371 2.2814627 -0.20949173
-0.5405131 2.0638993 -0.21189895
-0.35820863 2.4285519 -0.26416555
-0.40854099 2.2101963 -0.26324132
-0.4495433 2.0160058 -0.2614485
-0.43008932 1.6438953 -0.23207012
-0.24140677 1.6460211 -0.24103691
-0.21240357 1.1526994 -0.18101163
-0.25340721 1.1384786 -0.19176896
-0.28034508 1.0722278 -0.19328484
-0.15676139 1.0746177 -0.19859189
-0.17589119 0.95707971 -0.18746153
-0 0 -0
-0.23624064 0.90470415 -0.19908999
-0.12907763 0.89082819 -0.19962017
-0.16581999 0.90458798 -0.21297985
-0.191983 0.86543876 -0.21424849
-0.22493488 0.86017931 -0.22446586
-0 0 -0
-0.15075624 0.8259061 -0.22814856
-0.1788215 0.80710745 -0.23341264
-0.19640887 0.75098521 -0.22787237
-0 0 0
-0.42349803 2.3266656 0.70239961
-0.52605122 2.374629 0.69664097
-0.60790664 2.3289564 0.66439611
-0 0 0
-0.43689224 2.4038243 0.62549037
-0.51053077 2.3127868 0.58232051
-0.59685707 2.2977805 0.5591855
-0.40942687 2.8553448 0.65508878
-0.42308471 2.3260078 0.51210254
-0.52365595 2.376581 0.50286466
-0.60198224 2.3243454 0.47206512
-0.34283486 2.3870769 0.45436329
-0.42487341 2.3393199 0.42342767
-0.51148427 2.3269448 0.40095907
-0.59686893 2.3082533 0.37829861
-0.34533477 2.4059751 0.36577624
-0.43076003 2.3785777 0.33955282
-0.51243395 2.3371007 0.31295538
-0.60357201 2.3427777 0.29336464
-0.35124314 2.4501798 0.27987248
-0.42519829 2.3481007 0.24664097
-0.5116815 2.338155 0.22456548
-0.60369432 2.3480015 0.20477299
-0.34811372 2.4310684 0.18733022
-0.42684308 2.3614147 0.15984945
-0.51123726 2.3388615 0.13699393
-0.60686392 2.363579 0.11601806
-0.34144545 2.3898509 0.095315196
-0.42679614 2.3677649 0.071994528
-0.51418781 2.3580806 0.049628291
-0.60354292 2.3547387 0.026517574
-0.33982188 2.3808613 0.0068419441
-0.41938195 2.3315272 -0.016166493
-0.51030648 2.3448019 -0.038618982
-0.59855199 2.3388305 -0.061911132
-0.34063369 2.3955152 -0.081957914
-0.420793 2.3443031 -0.10311566
-0.5103479 2.3519056 -0.12722178
-0.60369104 2.3613133 -0.15205833
-0.33490279 2.366472 -0.16872171
-0.4307335 2.4069297 -0.19587445
-0.49282262 2.2728643 -0.2084206
-0.54802698 2.1462388 -0.22000329
-0.33454078 2.3686814 -0.25742501
-0.39532086 2.214617 -0.26347399
-0.325039 1.500955 -0.19439112
-0.41901493 1.6426631 -0.23152885
-0.18176711 1.2946517 -0.18941687
-0.20221049 1.1364669 -0.17826441
-0.24057956 1.1130067 -0.18722621
-0.26621714 1.0443352 -0.18795879
-0.1362908 0.97618705 -0.18024373
-0 0 -0
-0.19760908 0.91692197 -0.18987845
-0.22127426 0.86917084 -0.19096813
-0 0 -0
-0.15822914 0.8940767 -0.21027248
-0.18687382 0.86755067 -0.21448341
-0.21821548 0.85590619 -0.22299717
-0 0 -0
-0.14602065 0.82871628 -0.22867304
-0.16921051 0.78654999 -0.22716294
-0.18990059 0.74473816 -0.22561902
-0 0 0
-0.41269732 2.3490477 0.70837873
-0.49954331 2.322361 0.68039519
-0.59598225 2.3419843 0.66705686
-0 0 0
-0.40807447 2.3263083 0.60465729
-0 0 0
-0.59254301 2.3400862 0.56858552
-0.39468133 2.8780918 0.65973949
-0.41150859 2.3439617 0.51548976
-0.50455683 2.3586812 0.49841273
-0.58362603 2.3118219 0.46878558
-0.37819782 2.7532496 0.52361012
-0.40796185 2.3273368 0.42079768
-0.50316483 2.3580077 0.40577191
-0.58897048 2.3367724 0.38237306
-0.34979689 2.5481427 0.38705614
-0.412577 2.3606906 0.3366316
-0.50138682 2.3557184 0.31503052
-0.58966917 2.3483627 0.29360539
-0.36090142 2.6324449 0.30043316
-0.40598813 2.3232293 0.24376227
-0.50022149 2.3548853 0.22587328
-0.5870961 2.3429623 0.20401551
-0 0 0
-0.41268855 2.3659551 0.15998237
-0.50371444 2.3741834 0.13887918
-0.58701551 2.3459401 0.11497328
-0 0 0
-0.41191727 2.3683698 0.071934715
-0.4974322 2.3504319 0.049402151
-0.58254039 2.3322039 0.026223052
-0 0 0
-0.40900075 2.3567173 -0.016323451
-0 0 -0
-0.58152902 2.3317895 -0.061629131
-0 0 -0
-0 0 -0
-0 0 -0
-0.58412415 2.3446352 -0.1507507
-0 0 -0
-0.41985688 2.4321198 -0.19771102
-0 0 -0
-0.51586598 2.0732739 -0.21219546
-0.2417959 1.791319 -0.19451316
-0 0 -0
-0 0 -0
-0.40701583 1.6375109 -0.23044631
-0.1682934 1.2545457 -0.18339452
-0.19122179 1.1143091 -0.17460144
-0.23779681 1.1337767 -0.19047102
-0.26146656 1.0526416 -0.18916143
-0.13380949 1.0033314 -0.18510059
-0.16578934 0.96884489 -0.18935317
-0 0 -0
-0.21381761 0.86196846 -0.18909384
-0.11980177 0.90492696 -0.20243478
-0.15208466 0.8911894 -0.20937002
-0.18174596 0.86963242 -0.21471833
-0.21412845 0.86193389 -0.2242211
-0 0 -0
-0 0 -0
-0.16733056 0.80170453 -0.23123883
-0.18787245 0.75613248 -0.2287174
-0 0 0
-0.39331359 2.3222361 0.69955242
-0.48567691 2.3272645 0.68094581
-0.56884134 2.294138 0.65242255
-0 0 0
-0.39670023 2.3459618 0.6091215
-0.4807272 2.3122225 0.58064926
-0.57514256 2.3313925 0.56560498
-0.32056969 2.4492123 0.56096685
-0.39760783 2.3493335 0.51612484
-0.49027374 2.3626916 0.49861512
-0.57411665 2.3344159 0.47264388
-0.33625668 2.5645421 0.48732036
-0.39022925 2.3094106 0.41711572
-0.49468303 2.3900206 0.41075072
-0.5746212 2.3403423 0.38237306
-0.32182193 2.4561145 0.37277034
-0.39446533 2.3416941 0.33357131
-0.48692295 2.3587503 0.31503052
-0.57194686 2.3384366 0.2919201
-0.33610436 2.5685968 0.29290548
-0.39089936 2.3207724 0.24324824
-0.48435643 2.351084 0.22521937
-0.57530785 2.3571689 0.20494133
-0.32174334 2.4618521 0.18938377
-0.39551684 2.352699 0.15891893
-0.48913726 2.3772295 0.13887918
-0.56977189 2.3378522 0.1144034
-0.33017746 2.532578 0.10083844
-0.39688176 2.3678954 0.07184498
-0.48581484 2.367151 0.049689967
-0.57389212 2.3590531 0.026484849
-0.31858605 2.4463325 0.0070183259
-0.39865595 2.3838394 -0.016494054
-0.48289806 2.3577445 -0.03873162
-0.56579477 2.3294852 -0.061475314
-0.31288251 2.4123995 -0.082398005
-0.39265081 2.3532319 -0.10328867
-0.47805187 2.3413582 -0.12632436
-0.57419795 2.3666036 -0.15193379
-0.29919976 2.318959 -0.16505995
-0.40051019 2.4081013 -0.19555506
-0.46927413 2.3002107 -0.21038432
-0.52867836 2.1818159 -0.2229683
-0.29326075 2.2779408 -0.24715368
-0.36697671 2.2124426 -0.26265973
-0.4349378 2.1347599 -0.27576414
-0.39696062 1.6399775 -0.23044631
-0.18696029 1.4617052 -0.21350621
-0.20662268 1.2500188 -0.1956635
-0.22434704 1.1033046 -0.18511707
-0.27422637 1.1337 -0.20342156
-0.12430122 0.97778606 -0.18024373
-0.15648818 0.94949746 -0.18538073
-0 0 -0
-0.21472527 0.88893396 -0.19471668
-0.11119225 0.88142985 -0.19702208
-0.14724553 0.89595109 -0.21027248
-0.17524855 0.86501527 -0.2133088
-0.21157153 0.87454021 -0.22715847
-0 0 -0
-0.13521691 0.82663637 -0.22762407
-0.16259909 0.80365944 -0.23151056
-0.18480894 0.76379925 -0.23068911
-0 0 0
-0.38476548 2.359612 0.71008706
-0.47653452 2.3556416 0.6883803
-0.56765008 2.3509955 0.66758895
-0 0 0
-0.38883588 2.3885107 0.61953807
-0.48763189 2.4198422 0.60691214
-0.56173599 2.3386636 0.56652212
-0.3450996 2.768532 0.63360679
-0.37674102 2.3121798 0.5074451
-0.47460878 2.3598948 0.49740094
-0.55384159 2.3130844 0.46762806
-0.32818651 2.6279905 0.49898493
-0.38569397 2.3710375 0.42781097
-0.47632387 2.3746402 0.40759745
-0.56048 2.3447847 0.38252982
-0.35229805 2.8230696 0.42812786
-0.38024807 2.3450482 0.33371043
-0.47185728 2.3587768 0.31464145
-0.55436862 2.3283815 0.29023477
-0.31566814 2.5331411 0.28863603
-0.37410492 2.3074172 0.24160327
-0.47459915 2.3774445 0.22746129
-0.5569182 2.3441737 0.20351054
-0.32190165 2.5864742 0.19881494
-0.38298607 2.3669014 0.15971652
-0.4743464 2.3792067 0.13882205
-0.55126625 2.3238101 0.11354858
-0.3018297 2.4314287 0.096735463
-0.38186762 2.3673255 0.071755253
-0.46972126 2.3622427 0.049525503
-0.56032801 2.3664222 0.02652848
-0.29950893 2.4154923 0.0069244448
-0.38402149 2.3862407 -0.016494054
-0.46628144 2.349875 -0.038554616
-0.56091988 2.3728004 -0.062526397
-0.29868674 2.4192336 -0.082567275
-0.3767789 2.3467193 -0.1028994
-0.46542045 2.3530641 -0.12679946
-0.55668408 2.3574548 -0.15112431
-0.2871536 2.338573 -0.16632749
-0.37863913 2.3662205 -0.19196175
-0.447041 2.2620082 -0.20663542
-0.4958666 2.1026931 -0.21456745
-0.29705027 2.4247687 -0.26288164
-0.35214242 2.2068062 -0.26172912
-0.41568407 2.1062424 -0.27174571
-0.35508499 1.5073656 -0.21150181
-0.20834985 1.7123598 -0.249927
-0.19491397 1.2258865 -0.19169527
-0.21242455 1.0785204 -0.18073657
-0.25372115 1.0778261 -0.19311304
-0.11900767 0.98438972 -0.18132302
-0.1541951 0.97274607 -0.18973149
-0.17767699 0.90501583 -0.18670389
-0.21060972 0.89594746 -0.19596618
-0.10799043 0.90051293 -0.20113572
-0.14098486 0.89202631 -0.20914441
-0.17124771 0.87275106 -0.21495324
-0.20420167 0.86732799 -0.22495542
-0 0 -0
-0.13194142 0.83888996 -0.23077096
-0.15655455 0.79897547 -0.2298802
-0.17879932 0.75931501 -0.22899906
-0 0 0
-0.36612278 2.3354111 0.70211488
-0.46632266 2.3802197 0.69471341
-0.54968607 2.3394198 0.66333175
-0 0 0
-0.37312442 2.3841519 0.61780196
-0.48188812 2.469491 0.6186111
-0.545825 2.3354316 0.56491727
-0.29874706 2.5226865 0.57691216
-0.37177294 2.373347 0.52035886
-0.45562714 2.3396924 0.49254426
-0.54943377 2.3584869 0.47611639
-0 0 0
-0.36946514 2.3626599 0.42588234
-0.46061635 2.3717098 0.4066017
-0.54026556 2.3231683 0.37845534
-0.28956166 2.442203 0.37009177
-0.36447945 2.3385308 0.3324585
-0.45982611 2.3742828 0.31632748
-0.54074347 2.3346405 0.29059589
-0.30794629 2.6011446 0.29616374
-0.36621961 2.3499656 0.24581847
-0.46056923 2.3832445 0.22774154
-0.53848547 2.3300712 0.20199555
-0.29490349 2.4943309 0.19158946
-0.36830252 2.3682208 0.15965006
-0.46087411 2.387954 0.13916482
-0.54620552 2.367054 0.11549567
-0.29006428 2.4600284 0.09780065
-0.36764103 2.3715994 0.071815066
-0.45635176 2.3709712 0.049648855
-0.54377753 2.3610458 0.026430307
-0.28199202 2.3944423 0.0068590124
-0.3689141 2.3855875 -0.016473582
-0.44921389 2.3389447 -0.038329341
-0.53671783 2.3343046 -0.061424047
-0.28523347 2.4329321 -0.08297351
-0.36450508 2.3628104 -0.10350495
-0.45322651 2.367645 -0.12743293
-0.5455597 2.3754175 -0.15205833
-0.27014259 2.3175023 -0.16470787
-0.3604781 2.3448536 -0.19004534
-0.43595979 2.2793829 -0.20797431
-0.48985159 2.1357636 -0.2176313
-0.28297052 2.4334593 -0.2636306
-0.34055141 2.221688 -0.26324132
-0.41485006 2.1720939 -0.27990812
-0.35379463 1.5442841 -0.21637325
-0.14154065 1.2259706 -0.17880608
-0.1879852 1.2309673 -0.19230577
-0.20026061 1.0507245 -0.17586935
-0.24182673 1.0563157 -0.18898962
-0 0 -0
-0 0 -0
-0.16608447 0.87431329 -0.18015637
-0.20445442 0.89436245 -0.19534142
-0.10014679 0.88078797 -0.19658907
-0.13419323 0.88420594 -0.20711388
-0.16842759 0.88715476 -0.21824215
-0.19822679 0.86572927 -0.2242211
-0 0 -0
-0 0 -0
-0.15236619 0.80370319 -0.2309671
-0.1760646 0.76881552 -0.23153411
-0 0 0
-0.37632266 2.5006588 0.75108641
-0.45636407 2.4075937 0.70187259
-0.54026008 2.3643625 0.66945153
-0 0 0
-0.36151069 2.4065146 0.62301028
-0.43898594 2.3254504 0.58184302
-0.53083766 2.3358893 0.56422943
-0 0 0
-0.36098176 2.4007118 0.52586305
-0.44180635 2.3453312 0.49315134
-0.53430176 2.3589427 0.47553763
-0.29239869 2.60057 0.49306005
-0.36212179 2.4125888 0.4344736
-0.43931881 2.3386319 0.4004612
-0.53384173 2.3611193 0.38409692
-0.26805738 2.3859556 0.36131194
-0.35730189 2.3887129 0.33927459
-0.45163852 2.4111707 0.32086682
-0.52793467 2.3446939 0.29143855
-0.29131559 2.5970602 0.29548961
-0.3590031 2.4003725 0.25085616
-0.44173029 2.3635161 0.22559303
-0.53204095 2.3683314 0.20502549
-0.2782611 2.4842026 0.19067678
-0.35612091 2.3862259 0.16071351
-0.44639638 2.3917184 0.13922194
-0.52336389 2.333324 0.11369105
-0.27629539 2.4736784 0.098274074
-0.35514104 2.3876522 0.072233818
-0.44124636 2.3707778 0.049587179
-0.52993554 2.3672652 0.026463032
-0.26662952 2.3901649 0.0068419441
-0.35162786 2.3700016 -0.016350746
-0.43905279 2.3642676 -0.038699437
-0.53263181 2.3834074 -0.06262894
-0.26963821 2.4286766 -0.082770392
-0.34912273 2.3590724 -0.10324542
-0.43505585 2.3507428 -0.12637715
-0.53380078 2.3913832 -0.15286781
-0.26281062 2.3815806 -0.16914421
-0.35393587 2.4002731 -0.19435728
-0.43500483 2.3525321 -0.21440099
-0.48106763 2.1581545 -0.21960796
-0.26694596 2.4252667 -0.26256067
-0.32431272 2.2060483 -0.2611475
-0.35504043 1.9228953 -0.24750961
-0.37144399 1.668283 -0.23342329
-0.13014664 1.1913986 -0.17364407
-0.14577483 0.99545646 -0.15537085
-0.19380972 1.0519334 -0.17586935
-0.24068938 1.08182 -0.19328484
-0 0 -0
-0 0 -0
-0.17399171 0.94761622 -0.19503711
-0.19514482 0.87841374 -0.19159287
-0.096618608 0.89885831 -0.20048621
-0.12820424 0.88115638 -0.20621142
-0.16298093 0.88817149 -0.21824215
-0.19354284 0.8697685 -0.22495542
-0 0 -0
-0.12122234 0.83758074 -0.22998424
-0.14430982 0.78758383 -0.22607604
-0.17155236 0.77081794 -0.23181579
-0 0 0
-0.35974032 2.4943819 0.74852401
-0.43153501 2.3555036 0.68590224
-0.51675719 2.3271687 0.65801018
-0 0 0
-0.37462038 2.6023798 0.67310905
-0.43847674 2.4035699 0.60070455
-0.51124811 2.3153405 0.55849773
-0.26519758 2.5019195 0.57137561
-0.37788597 2.6224685 0.57391894
-0.4289858 2.3566692 0.49497262
-0.5179196 2.3535521 0.47380137
-0.27737066 2.6111102 0.49472642
-0.34254619 2.3816328 0.42851228
-0.42601764 2.3471053 0.40145695
-0.51870841 2.3614566 0.38362679
-0 0 0
-0.40402943 2.8192351 0.40006304
-0.42712396 2.3602326 0.31373358
-0.51926517 2.374074 0.29468882
-0.26029727 2.4565072 0.2793107
-0.36712509 2.5620425 0.26751137
-0.42580447 2.3583436 0.22484572
-0.51494986 2.3598688 0.20401551
-0.26259342 2.4818969 0.19037253
-0.36180842 2.530601 0.17028452
-0.43206698 2.3963776 0.1393362
-0.52073175 2.3901703 0.116303
-0.25922516 2.4574404 0.097563937
-0.3413299 2.3957236 0.072413273
-0.42439148 2.3606484 0.049319915
-0.51518786 2.3694952 0.026452124
-0.25415877 2.4126401 0.0069016861
-0.34383199 2.4196358 -0.016678307
-0.41924191 2.3373919 -0.038216699
-0.51714933 2.3827229 -0.062526397
-0.25441852 2.4273033 -0.082668833
-0.34375373 2.425467 -0.10605688
-0.41886678 2.3435376 -0.12584925
-0.51890606 2.3936384 -0.15280555
-0.25263563 2.4258108 -0.17217219
-0.33627486 2.3816724 -0.19268042
-0.41145718 2.3041711 -0.2097595
-0.465711 2.1513398 -0.21861963
-0.25226519 2.4288368 -0.26277465
-0.31187797 2.2158647 -0.26207808
-0.35559919 1.9943819 -0.25642547
-0.31890351 1.4749092 -0.20608909
-0.12739833 1.2364752 -0.18009657
-0.15324634 1.0932251 -0.17048059
-0.19409202 1.0909911 -0.18219672
-0.21698754 1.0043178 -0.17919654
-0 0 -0
-0 0 -0
-0.1630415 0.91971385 -0.18908481
-0.19160755 0.88819933 -0.19346716
-0.089724153 0.88583589 -0.19745511
-0.1229295 0.88289136 -0.20643704
-0.15549335 0.87766951 -0.21542309
-0.18881677 0.87378281 -0.22568978
-0 0 -0
-0.11449243 0.8268382 -0.22683737
-0.13645709 0.77139658 -0.22118497
-0 0 -0
-0 0 0
-0.3452144 2.5022399 0.75023234
-0.40953931 2.3155079 0.67351133
-0.49718553 2.3057959 0.65109217
-0 0 0
-0.35362384 2.5681608 0.66368449
-0.41951022 2.3823061 0.59473574
-0.49417534 2.3051097 0.55528796
-0 0 0
-0.35978591 2.6102149 0.57074344
-0.4082472 2.3235693 0.48748529
-0.50100875 2.345171 0.47148639
-0 0 0
-0.33718449 2.4509871 0.44061023
-0.41177821 2.3506463 0.40162292
-0.50153148 2.3520377 0.38158953
-0.23846284 2.3861134 0.3608655
-0.33024773 2.4095964 0.34163937
-0.4100751 2.3481574 0.31178811
-0.49726647 2.3422563 0.29035518
-0.24452905 2.4511368 0.27852422
-0.33897325 2.4735818 0.25805286
-0.41354749 2.3736629 0.22606009
-0.50397021 2.3795562 0.20544632
-0.24824926 2.4923911 0.19105706
-0.34411159 2.5169561 0.16922107
-0.41718385 2.398 0.13927908
-0.50212997 2.3747523 0.11540069
-0.24720214 2.489809 0.09878695
-0.33971015 2.4938424 0.075314596
-0.41092402 2.3691187 0.049443271
-0.50435525 2.3902228 0.026648469
-0.23905432 2.4111688 0.0068931514
-0.32574835 2.3979189 -0.016514527
-0.40830171 2.3596251 -0.038538527
-0.50272554 2.3868294 -0.062552035
-0.23824498 2.415889 -0.082228743
-0.33369324 2.4631712 -0.107614
-0.40617585 2.3559046 -0.12637715
-0.50112718 2.3821268 -0.15187153
-0.24494196 2.5007799 -0.17738311
-0.32258797 2.3906057 -0.19323938
-0.39697316 2.3046892 -0.20958097
-0.44350094 2.1113076 -0.21427096
-0.23803388 2.4372659 -0.26352361
-0.26729643 1.9873992 -0.23485826
-0.37748897 2.1950057 -0.28191733
-0.35338497 1.6843519 -0.23504712
-0.11885517 1.2273831 -0.17866269
-0.14745386 1.1010016 -0.17154896
-0.17971818 1.0474248 -0.17473364
-0.21910837 1.0451614 -0.1862407
-0 0 -0
-0 0 -0
-0.15739518 0.92069691 -0.18908481
-0.18254721 0.8721264 -0.1897186
-0.085673377 0.90094817 -0.20070271
-0.11892255 0.89425188 -0.20891879
-0.15075991 0.88243961 -0.21636279
-0.18285488 0.87207812 -0.22495542
-0 0 -0
-0.11207325 0.8476153 -0.23234439
-0.13900322 0.81490964 -0.23341264
-0.16129258 0.76910877 -0.23068911
-0.22929695 2.466831 0.76538748
-0.32046577 2.4330308 0.72887844
-0.40065739 2.3492498 0.68259794
-0.48737079 2.3295608 0.65694588
-0 0 0
-0.33811179 2.5722034 0.66418058
-0.39431971 2.3226056 0.57921672
-0.48676068 2.3404994 0.56308305
-0 0 0
-0.33445504 2.5416379 0.55528933
-0.39872521 2.3540318 0.49335375
-0.49238363 2.3760643 0.47708094
-0.22712971 2.4205918 0.45806631
-0.328805 2.5037687 0.44972751
-0.39439172 2.3356261 0.39863566
-0.48749024 2.3570051 0.38190293
-0.22197153 2.3678408 0.35788929
-0.32598886 2.4920943 0.35304588
-0.39417812 2.3418293 0.31062087
-0.48769012 2.3685994 0.29324427
-0.22902171 2.4476445 0.27796248
-0.32675627 2.4983001 0.26041749
-0.3917211 2.332953 0.22194992
-0.48414764 2.3572257 0.20325804
-0.23137507 2.4769902 0.18976407
-0.3284032 2.5170414 0.16908816
-0.39949071 2.3827913 0.13825077
-0.49838376 2.4306285 0.11796515
-0.23034577 2.4743655 0.098116271
-0.32066566 2.4671345 0.074447192
-0.39604998 2.3696229 0.049402151
-0.48827654 2.386415 0.026572112
-0.2251807 2.4225473 0.0069216001
-0.31295675 2.414748 -0.01661689
-0.39315787 2.3581407 -0.038474157
-0.48747066 2.3869307 -0.062475123
-0.22525646 2.4372089 -0.082905799
-0.31434777 2.4324753 -0.10618665
-0.39073092 2.3524418 -0.12606041
-0.48191354 2.3626647 -0.15043937
-0.22503564 2.4525685 -0.17386222
-0.3158021 2.4538367 -0.19819014
-0.38869393 2.3424542 -0.21279432
-0.44324741 2.1763947 -0.2205963
-0.22235006 2.4307594 -0.26266766
-0.21908772 1.7082365 -0.2017059
-0.36628357 2.210983 -0.2836754
-0.39656362 1.949608 -0.27171826
-0.10408504 1.1482537 -0.16704819
-0.13443677 1.0528693 -0.16391777
-0.16540389 1.0008041 -0.16678382
-0.20229214 0.99532014 -0.17713483
-0 0 -0
-0 0 -0
-0 0 -0
-0.18088807 0.89144236 -0.19367541
-0.079019733 0.8888151 -0.19788811
-0.1126983 0.88916582 -0.2075651
-0.14471129 0.87951159 -0.21542309
-0.17711417 0.87128341 -0.22446586
-0 0 -0
-0.10506096 0.83392555 -0.2284108
-0.13212846 0.80435145 -0.23015194
-0.15618804 0.76820344 -0.23012576
-0 0 0
-0.32164294 2.5633569 0.76731539
-0.38639092 2.3526127 0.68287331
-0.47345093 2.3343968 0.65747803
-0.20592819 2.3561678 0.63148403
-0.30101904 2.404088 0.62028211
-0.38100103 2.3307316 0.58064926
-0.47412157 2.3520298 0.56514651
-0.21375038 2.4451749 0.55742341
-0.32067692 2.5581882 0.55846483
-0.38317031 2.3496683 0.49193722
-0.48185244 2.3992431 0.48113221
-0.21493281 2.4522874 0.46380603
-0.32015681 2.5594685 0.45937079
-0.38337582 2.3584425 0.4021208
-0.47515386 2.3706043 0.38362679
-0.2177889 2.4873698 0.37574655
-0.30481553 2.4468789 0.34636888
-0.37758136 2.3305006 0.30880514
-0.47217634 2.3666794 0.29264238
-0.21469092 2.4569225 0.27886128
-0.32027286 2.571327 0.26781979
-0.37469873 2.3186038 0.22036189
-0.47317553 2.377743 0.20477299
-0.21738517 2.49227 0.19082887
-0.29966703 2.41207 0.16190988
