# .PCD v0.7 - Point Cloud Data file format
VERSION 0.7
FIELDS x y z
SIZE 4 4 4
TYPE F F F
COUNT 1 1 1
WIDTH 1547
HEIGHT 1
VIEWPOINT 0 0 0 1 0 0 0
POINTS 1547
DATA ascii
-0.13074972 2.6911209 -0.19019921
-0.19897112 2.3340306 -0.18764982
-0.36983219 3.0292778 -0.2734907
-0.35768443 2.2455034 -0.22583447
-0.13302767 2.7538714 -0.29669142
-0 0 -0
-0.23537922 1.9321848 -0.24637944
-0.36773026 2.3122067 -0.31975609
-0.11641106 2.4516106 -0.35560468
-0.086034708 1.0212333 -0.1582707
-0.12501436 1.029513 -0.17051536
-0.16431472 1.034222 -0.18263271
-0.046544425 0.996373 -0.18240233
-0.076561615 0.9139359 -0.17667918
-0.11003071 0.91076916 -0.18571185
-0.14259742 0.89935321 -0.19388366
-0 0 -0
-0.074415132 0.89318484 -0.2075651
-0.10704608 0.8868441 -0.21589294
-0.1377134 0.86659402 -0.22152847
-0 0 -0
-0.072253324 0.87517506 -0.23863813
-0.095397793 0.79208452 -0.22526087
-0 0 -0
-0.10518904 2.4111567 0.74561071
-0.19434643 2.3684371 0.70581627
-0.29616535 2.4596155 0.70958251
-0.3662923 2.3116341 0.64603674
-0.10678975 2.4130278 0.64489788
-0 0 0
-0.2978771 2.4895718 0.61646229
-0.37450656 2.3817573 0.56789774
-0.10782845 2.4355359 0.55365849
-0.19673003 2.4010842 0.52184075
-0.29688656 2.4893959 0.51804167
-0.37004414 2.3644023 0.47052184
-0.10690375 2.4023137 0.45306718
-0.2017082 2.4697871 0.4413116
-0.27338243 2.3022227 0.39017168
-0.37064093 2.3741827 0.3812761
-0.10736246 2.4173715 0.36413932
-0.19786753 2.4379697 0.3435868
-0.28647807 2.4233398 0.31918079
-0.36342075 2.3416078 0.28734568
-0.10724035 2.4241672 0.27436715
-0.19846725 2.4458885 0.25363201
-0.29634672 2.5154803 0.23764335
-0.35997921 2.326936 0.19888146
-0.10639467 2.4136379 0.18428792
-0.2008045 2.4843743 0.16603073
-0.29036772 2.4699225 0.14230688
-0.36571801 2.3692319 0.11397599
-0.1067346 2.4387636 0.09638039
-0.19634135 2.4440286 0.073370412
-0.28325287 2.4199643 0.050101139
-0.36435518 2.3669789 0.026124882
-0.10665087 2.444665 0.0069614286
-0.19353576 2.4202178 -0.016569121
-0.28045106 2.4043858 -0.038956895
-0.36202419 2.3575821 -0.061167687
-0.10711841 2.485266 -0.084259912
-0.19017398 2.3891983 -0.10376447
-0.28231215 2.4332573 -0.1294917
-0.36389017 2.3735998 -0.14981669
-0.10454962 2.4636462 -0.17407347
-0 0 -0
-0 0 -0
-0.35007018 2.287986 -0.22988665
-0.1022661 2.425828 -0.26127675
-0 0 -0
-0.21486087 1.858693 -0.23683567
-0.35742584 2.339885 -0.32327437
-0.100099 2.4216251 -0.35115963
-0.085612901 1.0966238 -0.16987009
-0.12682638 1.1008399 -0.18219672
-0.15142718 0.99236101 -0.17507312
-0 0 -0
-0 0 -0
-0.10466342 0.9133746 -0.18610865
-0.13619301 0.89440966 -0.19263415
-0 0 -0
-0.070207015 0.9101373 -0.21140055
-0.10160249 0.88748419 -0.21589294
-0.13210091 0.86550575 -0.22103891
-0 0 -0
-0 0 -0
-0 0 -0
-0.1171475 0.76735365 -0.22787237
-0 0 0
-0.18546793 2.4441423 0.7280243
-0.28608498 2.5053227 0.72224867
-0.35601693 2.3395684 0.65322083
-0 0 0
-0.1837161 2.4294865 0.62375432
-0.28401861 2.5038962 0.61956608
-0.36206466 2.398447 0.57133675
-0.092399277 2.4234838 0.55077952
-0.18553743 2.449024 0.53200233
-0.27258611 2.4113755 0.50144815
-0.35873637 2.3879757 0.47476599
-0.091257505 2.3793566 0.44862354
-0.18291838 2.422874 0.4327203
-0.26200795 2.3283556 0.3943207
-0.36089575 2.4086447 0.38644755
-0.09298148 2.4298425 0.36592504
-0.18357116 2.4480257 0.34483874
-0.27425206 2.4487014 0.32229346
-0.35869712 2.4085989 0.29529071
-0.091077931 2.3910196 0.27054715
-0.18100181 2.4143269 0.25023928
-0.27505425 2.4648085 0.23269244
-0.35769078 2.4099245 0.20578298
-0.091734052 2.4182308 0.18459214
-0.18585402 2.4895399 0.1662966
-0.27354988 2.456774 0.14144996
-0.35468552 2.3951457 0.11511575
-0.091130026 2.4223979 0.095709719
-0.18185887 2.4521651 0.073579788
-0.2670773 2.4097323 0.049854439
-0.35055512 2.3741159 0.02617942
-0.092322856 2.4632607 0.0070126369
-0.18140484 2.4582586 -0.016821615
-0.26569274 2.4060612 -0.038956895
-0.34696889 2.3558033 -0.061065141
-0.090132356 2.4389355 -0.082668833
-0.17990014 2.450103 -0.10635966
-0.26497868 2.4131057 -0.12833035
-0.34989995 2.3797376 -0.15006575
-0.088707455 2.444304 -0.17266512
-0.22575665 3.0968356 -0.24873582
-0.26282582 2.39697 -0.21609691
-0.34469265 2.3491645 -0.23581666
-0.08695019 2.4144862 -0.25999284
-0.22718497 3.1352937 -0.36816564
-0.24757296 2.2633328 -0.28819612
-0.34564665 2.3596802 -0.32571009
-0.085481934 2.4291172 -0.35216337
-0.077748545 1.0813565 -0.16742811
-0.11226433 1.0299886 -0.17035313
-0.15389284 1.0517565 -0.18538164
-0.034212369 0.99391979 -0.18186268
-0.066179946 0.92656004 -0.17894915
-0.098951489 0.9130252 -0.18591025
-0.12914814 0.88458252 -0.19034335
-0 0 -0
-0.065655686 0.92512751 -0.21478476
-0.095318042 0.88036001 -0.21401358
-0.12903428 0.88164973 -0.22495542
-0 0 -0
-0 0 -0
-0.086393908 0.7998932 -0.22716294
-0.11257589 0.76900744 -0.22815406
-0 0 0
-0.16766745 2.4050701 0.71606612
-0.26048991 2.4124081 0.69498885
-0.35543242 2.4361403 0.67956251
-0 0 0
-0.16860424 2.4276686 0.62301028
-0.25508776 2.3791056 0.58828938
-0.34943202 2.4150736 0.57477582
-0 0 0
-0.17098197 2.4569414 0.53348428
-0.2593455 2.427609 0.50448352
-0.34939012 2.4270375 0.48209676
-0 0 0
-0.17090829 2.4652014 0.44008428
-0.26356366 2.4789715 0.41954657
-0.34484661 2.402015 0.38503715
-0.077753007 2.4204838 0.36443695
-0.16596329 2.4115644 0.33955282
-0.25588387 2.4187844 0.31814322
-0.34671548 2.4304101 0.29769829
-0.076563843 2.3964989 0.2711089
-0.16638921 2.4183693 0.25054774
-0.26096874 2.4763513 0.23362657
-0.35131168 2.4712658 0.21083286
-0.075817123 2.3848639 0.18200618
-0.17412011 2.542397 0.16975281
-0.25920099 2.4653566 0.14184985
-0.3453123 2.4348581 0.11692037
-0.075604595 2.4019382 0.094881237
-0.16579212 2.4382761 0.073131137
-0.25291064 2.4172919 0.049977791
-0.33696115 2.3831527 0.026255777
-0.07723815 2.4647801 0.0070154811
-0.16652025 2.4623184 -0.016842088
-0.24843694 2.3837786 -0.038570706
-0.34227884 2.4271791 -0.062859669
-0.074611582 2.4214613 -0.082059473
-0.17190291 2.5558262 -0.11090124
-0.24882936 2.4017735 -0.12764409
-0.33765668 2.3986411 -0.15112431
-0.07253547 2.4059169 -0.16991881
-0.20913999 3.1339679 -0.25161046
-0.24811332 2.3985376 -0.21609691
-0.44363856 3.1583023 -0.31676126
-0.070916481 2.374228 -0.25560614
-0.20984821 3.1653688 -0.37153903
-0.17472599 1.6934261 -0.21548782
-0.32386953 2.3097529 -0.31853822
-0.069598526 2.3959615 -0.34728813
-0.070269302 1.0689933 -0.16544402
-0.10533693 1.0247686 -0.16937968
-0.1429273 1.0204859 -0.17971195
-0.029809391 1.0540919 -0.1928356
-0 0 -0
-0.093247786 0.91264015 -0.18571185
-0.12791413 0.91538686 -0.1967992
-0 0 -0
-0.058906943 0.90898597 -0.21094932
-0.090802744 0.88963121 -0.21612786
-0.12160438 0.86802191 -0.22128369
-0 0 -0
-0 0 -0
-0.08138676 0.79945081 -0.22689122
-0.10692314 0.76303214 -0.22618236
-0 0 0
-0.15126552 2.3802233 0.70837873
-0.24801888 2.4369144 0.70159727
-0.34834325 2.494602 0.69526106
-0 0 0
-0.15419468 2.4363923 0.6249944
-0.24682899 2.4434264 0.60380834
-0.33207092 2.3988528 0.57041967
-0.061846301 2.3932402 0.54369271
-0.15491338 2.4423382 0.53009707
-0.24552368 2.439873 0.50670952
-0.33315301 2.4194152 0.4801676
-0 0 0
-0.15137239 2.3964424 0.42763564
-0.24353431 2.4324617 0.41141453
-0.33520699 2.4412675 0.39099216
-0 0 0
-0.15339245 2.4481175 0.34456056
-0.24270812 2.4370823 0.32034802
-0.33045459 2.4226556 0.29649448
-0.06170395 2.3909636 0.2704348
-0.15316407 2.4451563 0.2532208
-0.24252637 2.4452107 0.23054394
-0.33171347 2.4407916 0.20805542
-0.06100348 2.3783066 0.18147378
-0.155724 2.4986041 0.16676185
-0.24239793 2.4500108 0.14087868
-0.33049995 2.4379208 0.11696786
-0.060839843 2.4013579 0.094841778
-0.15113644 2.4442356 0.073280685
-0.23846538 2.4227781 0.050060026
-0.32835823 2.4297676 0.026746642
-0.062087905 2.4642081 0.0070126369
-0.15097918 2.4563072 -0.016794318
-0.23702453 2.4180965 -0.039101716
-0.32737949 2.4292336 -0.062859669
-0.060072824 2.4348624 -0.082499564
-0.15524258 2.5408773 -0.1102092
-0.23641112 2.4271088 -0.12891102
-0.3224003 2.3967111 -0.15087524
-0.058489926 2.4362335 -0.17203134
-0.1906296 3.1471319 -0.25256866
-0.23155987 2.3811798 -0.21440099
-0.42266276 3.1491296 -0.31557524
-0.057031151 2.4034438 -0.25870892
-0.19179314 3.1893995 -0.3742145
-0 0 -0
-0.20075978 1.4985764 -0.20649505
-0.055258516 2.412174 -0.34958237
-0.063767523 1.0703908 -0.16559663
-0.10492919 1.0862908 -0.17943864
-0.14019068 1.0477073 -0.1843508
-0.02253543 1.0178676 -0.18617989
-0 0 -0
-0.087271623 0.90929258 -0.1849182
-0.12333032 0.92391032 -0.19846523
-0 0 -0
-0 0 -0
-0.085342363 0.89017159 -0.21612786
-0.11756225 0.87836176 -0.22373152
-0 0 -0
-0 0 -0
-0 0 -0
-0.10414907 0.7779392 -0.23040742
-0 0 0
-0.13863525 2.41556 0.71862859
-0.247788 2.5924647 0.74592894
-0.32653007 2.4479623 0.68169111
-0 0 0
-0.13868982 2.4276206 0.62251425
-0.22550657 2.3781896 0.58733433
-0.32959041 2.4934824 0.5924294
-0 0 0
-0.140651 2.4559274 0.53284913
-0.22594468 2.392585 0.49659151
-0.32239377 2.4525449 0.48634094
-0.047093403 2.3629482 0.44529083
-0.13772987 2.4160013 0.43096697
-0.22629902 2.4093652 0.40726557
-0.33831802 2.5813553 0.41308829
-0.047573265 2.3975277 0.3608655
-0.13736269 2.4312158 0.34205666
-0.22747327 2.4355638 0.31995893
-0.31353313 2.4088867 0.29456842
-0.046504542 2.3644733 0.26740125
-0.13849455 2.4520087 0.25383765
-0.2300995 2.4744105 0.2331595
-0.31711519 2.4457457 0.20830792
-0.046759427 2.3965805 0.18284281
-0.13938275 2.4815807 0.16556548
-0.22828236 2.4613929 0.14144996
-0.31822526 2.460706 0.11796515
-0.045874108 2.3896978 0.094368361
-0.13741407 2.4680712 0.073968627
-0.22368683 2.4251912 0.050080582
-0.31075883 2.4109101 0.026517574
-0.047252439 2.4795399 0.0070553096
-0.13651216 2.4681702 -0.016869385
-0.22282293 2.426475 -0.039214354
-0.31399706 2.443095 -0.063167304
-0.044502005 2.4012105 -0.081348568
-0.13444243 2.4470139 -0.10610013
-0.22069782 2.4195633 -0.12843592
-0.31416461 2.4491317 -0.15405092
-0.043308686 2.4235809 -0.17111591
-0.1696907 3.1183822 -0.25017312
-0.22064792 2.4232237 -0.21806063
-0.40004784 3.1260004 -0.31300557
-0.04188063 2.3808842 -0.25624809
-0.17050664 3.1587796 -0.3704921
-0.18819878 2.0728664 -0.26345772
-0.1870418 1.4643987 -0.20162362
-0.038996365 2.3253891 -0.33696413
-0.060994193 1.1418171 -0.17658554
-0.096040763 1.0623456 -0.17538261
-0.12777577 1.0016416 -0.17610398
-0.016604261 1.0376579 -0.18977757
-0.050515562 0.95409667 -0.18405658
-0.082216568 0.91566807 -0.18610865
-0.11469591 0.90136361 -0.19346716
-0 0 -0
-0 0 -0
-0.078923695 0.88002908 -0.21354373
-0.11204779 0.87810481 -0.22348674
-0 0 -0
-0 0 -0
-0.072341554 0.80901635 -0.22933675
-0.098523386 0.77190113 -0.22843572
-0 0 0
-0.12278091 2.3962605 0.71264946
-0 0 0
-0.30736959 2.4174073 0.6726445
-0 0 0
-0.12339704 2.4206858 0.62053013
-0.21794038 2.4588461 0.60691214
-0.30723011 2.439445 0.57913184
-0 0 0
-0.12373304 2.4206297 0.52501619
-0.21280938 2.4114857 0.50023395
-0.30697343 2.451556 0.48576218
-0.033230707 2.4093757 0.45399296
-0.12265296 2.4118848 0.43009028
-0.21306258 2.4283907 0.41025284
-0.30840433 2.4706783 0.39506662
-0.032807209 2.3938191 0.36027023
-0.1219943 2.4231117 0.34080473
-0.21200779 2.4309871 0.31918079
-0.30570555 2.4669213 0.30143008
-0.032398835 2.3945215 0.27077183
-0.12249673 2.4339371 0.25188425
-0.21172667 2.4390757 0.2297032
-0.30503187 2.47138 0.21032786
-0.031626739 2.364918 0.18040898
-0.12360518 2.471427 0.16483435
-0.21291696 2.4597633 0.14127856
-0.30263251 2.4586465 0.11777519
-0.031445194 2.4079185 0.095078491
-0.12127886 2.4489014 0.073370412
-0.20974478 2.4374752 0.050306723
-0.29413372 2.3978839 0.02635395
-0.032140724 2.4877825 0.0070780688
-0.12072694 2.4559774 -0.016780671
-0.2072476 2.419827 -0.039085627
-0.29778713 2.4350529 -0.062910944
-0.029990593 2.4194264 -0.081957914
-0.1204477 2.4687483 -0.10700846
-0.2044092 2.4039567 -0.1275385
-0.29635018 2.4282269 -0.15261875
-0.028425356 2.4228036 -0.1710455
-0.15055346 3.1193647 -0.25017312
-0 0 -0
-0.28862107 2.3707454 -0.23720032
-0.028033916 2.4477072 -0.26341662
-0.15022002 3.1409168 -0.36828196
-0.12621251 1.4917251 -0.18949366
-0.18187684 1.4969931 -0.20595378
-0.025716402 2.418608 -0.35044268
-0.055340163 1.1707982 -0.18101163
-0.088609576 1.052099 -0.17359796
-0.12127143 0.99947292 -0.17558855
-0.010702758 1.084955 -0.198412
-0 0 -0
-0.076269947 0.91224849 -0.18531501
-0.11092568 0.91661531 -0.19659096
-0 0 -0
-0 0 -0
-0.073684216 0.88243413 -0.21401358
-0.10770912 0.88743842 -0.22568978
-0 0 -0
-0 0 -0
-0 0 -0
-0.093669593 0.77153862 -0.22815406
-0.016149452 2.3809102 0.73557484
-0.10785954 2.3921807 0.71122593
-0.19857731 2.3864591 0.68590224
-0.29079512 2.4048929 0.66865325
-0.017614132 2.376678 0.63457954
-0.10888873 2.4291399 0.62251425
-0.19957732 2.4204576 0.59712327
-0.30104932 2.5147357 0.59655631
-0.017668191 2.378371 0.54014927
-0.10887801 2.4213433 0.52501619
-0.19945058 2.4303143 0.50387645
-0.2945917 2.4758034 0.49019924
-0.018243309 2.3830018 0.44899386
-0.10789558 2.4135756 0.43026567
-0.19575343 2.4001663 0.40527403
-0.28428221 2.3970046 0.3829999
-0.018110909 2.3929865 0.36012143
-0.10646822 2.4089749 0.33871818
-0.19548586 2.4124758 0.31658688
-0.28742999 2.4421308 0.29817984
-0.01769837 2.3936818 0.27065951
-0.10641862 2.4088056 0.24921119
-0.19579661 2.4284198 0.22858225
-0.28499037 2.4316385 0.20679295
-0.017108062 2.3640704 0.18033291
-0.10564005 2.4083419 0.16058056
-0.19558035 2.4331594 0.13967898
-0.28870028 2.4703784 0.11825009
-0.016787481 2.4250524 0.095749162
-0.10573064 2.4376161 0.073011495
-0.19558078 2.4486825 0.05051231
-0.279762 2.4026232 0.026386674
-0.016848244 2.483933 0.0070666894
-0.10544024 2.4516768 -0.016746551
-0.1920791 2.4170661 -0.039021265
-0.28272504 2.4358411 -0.062885299
-0.015144708 2.419565 -0.081957914
-0.1051698 2.4664464 -0.1068787
-0.18871294 2.3932192 -0.12690504
-0.28006732 2.4181023 -0.15187153
-0.013441556 2.4019849 -0.16956672
-0.11203245 2.6601131 -0.21328197
-0 0 -0
-0.27418321 2.3734603 -0.23729914
-0.012702656 2.3891726 -0.25710404
-0.10149677 2.4352267 -0.28545925
-0.21022178 2.6803164 -0.34031001
-0.16769575 1.4547722 -0.19999979
-0.010960166 2.4375238 -0.35316709
-0.092412576 2.247436 -0.34737137
-0.079618685 1.0201588 -0.168244
-0.11626308 1.0099849 -0.17730664
-0.0039610425 1.0623755 -0.19427466
-0 0 -0
-0.069914408 0.90292734 -0.18333091
-0.10563398 0.92019373 -0.19721571
-0 0 -0
-0 0 -0
-0.068717942 0.88868433 -0.21542309
-0.10026544 0.87074476 -0.22128369
-0 0 -0
-0 0 -0
-0 0 -0
-0.088165194 0.76542634 -0.22618236
-0.0015407752 2.3819199 0.73587
-0.090046026 2.312335 0.68730956
-0.18954222 2.4604788 0.70682895
-0.27273822 2.3779018 0.66067094
-0.0030566503 2.3970308 0.63999671
-0.093307786 2.4123375 0.61804998
-0.18420491 2.4148586 0.59545201
-0.28144237 2.4797835 0.58784407
-0.0030870535 2.3881862 0.54236388
-0.094170526 2.4258723 0.52586305
-0.18394181 2.4236805 0.50225759
-0.27642614 2.4512384 0.48499054
-0.0036360736 2.3928959 0.45084539
-0.092970334 2.4112408 0.42973965
-0.1808002 2.3983722 0.40477616
-0.26934853 2.3967409 0.38268653
-0.0034416411 2.4029412 0.36160955
-0.091120221 2.3947394 0.3366316
-0.18215987 2.4334056 0.31918079
-0.27079013 2.4290493 0.29637411
-0.0030231792 2.403682 0.27178302
-0.089859679 2.3626962 0.24437913
-0.18163167 2.4395044 0.22951637
-0.27336228 2.4630527 0.20931791
-0.0026086622 2.3701134 0.18078926
-0.091048792 2.4139299 0.16091289
-0.1810165 2.4392915 0.13996461
-0.27254823 2.4631681 0.11782268
-0.0019049649 2.4221122 0.09563081
-0.090660155 2.4352224 0.07292176
-0.18011136 2.4438541 0.050388962
-0.26830119 2.4341123 0.026713917
-0.0015886882 2.4559896 0.0069870325
-0.090431891 2.4532769 -0.016753374
-0.17972971 2.4521039 -0.039568365
-0.26700956 2.4305742 -0.062705852
-0.00029677252 2.4076195 -0.081551686
-0.089596748 2.4550645 -0.10635966
-0.17930934 2.4670389 -0.13075864
-0.26544237 2.4217596 -0.15199606
0.0012975376 2.4030197 -0.16963714
-0.087610081 2.4356177 -0.19523565
-0.22989687 3.1699374 -0.28482664
-0.26112857 2.388947 -0.23868284
0.001976819 2.4130678 -0.25967184
-0.085423946 2.4040408 -0.28173685
-0.22852193 3.1624548 -0.4013398
-0.16510403 1.5138866 -0.20798354
0.0038601081 2.3544135 -0.34112242
-0.084182315 2.4069774 -0.37194377
-0.076328695 1.061965 -0.17505811
-0.10867728 0.99794775 -0.17507312
0.002500809 1.0387714 -0.18995744
-0 0 -0
-0.064581841 0.90627229 -0.18392615
-0.10030254 0.92374164 -0.19784047
0 0 -0
-0 0 -0
-0 0 -0
-0.095970765 0.88098234 -0.22373152
0 0 -0
-0 0 -0
-0 0 -0
-0.083259083 0.76404518 -0.22561902
0.013016751 2.3713748 0.7326231
-0.081480905 2.4843433 0.73827416
-0.17009228 2.4002235 0.68920636
-0.28267807 2.6056962 0.72346532
0.01156678 2.3796136 0.63535339
-0.077748142 2.3896267 0.61209768
-0.16945206 2.4169121 0.59569073
-0.262795 2.4495261 0.58027822
0.011571363 2.3891354 0.54258531
-0.077304974 2.3658421 0.51273763
-0.17022492 2.4413714 0.50569767
-0.26429155 2.4802077 0.49039215
0.011091894 2.4027002 0.45269689
-0.077184752 2.3812621 0.42430434
-0.16730635 2.4171443 0.40776342
-0.24754667 2.3315639 0.3720302
0.011302594 2.4029171 0.36160955
-0.075856216 2.3774376 0.33412775
-0.16858435 2.454262 0.32177469
-0.25432166 2.4158556 0.29456842
0.011652882 2.3887503 0.27009773
-0.076628923 2.402971 0.24849153
-0.16686322 2.4435527 0.22979662
-0.25917864 2.4736028 0.21007538
0.012059647 2.3950121 0.18269071
-0.076802291 2.4323947 0.16210927
-0.1662492 2.4433446 0.140136
-0.25742939 2.4647942 0.11782268
0.012956872 2.4220781 0.09563081
-0.075436689 2.4267411 0.072652563
-0.16518013 2.4459107 0.050409518
-0.25118816 2.4148266 0.026484849
0.013382209 2.4379537 0.0069358251
-0.075070128 2.4437904 -0.016685132
-0.16595295 2.4721153 -0.039874099
-0.25085405 2.4202344 -0.062398214
0.014464089 2.4055769 -0.081483975
-0.073712714 2.4286058 -0.10519183
-0.16284294 2.4481642 -0.12970285
-0.24934587 2.4114294 -0.15124884
0.015968911 2.3919938 -0.16886252
-0.072931238 2.4450767 -0.19595432
-0.21083786 3.1772513 -0.28536218
-0.24942495 2.41921 -0.24154899
0.016762342 2.4100275 -0.25935087
-0.068862326 2.342967 -0.27452478
-0.21002918 3.1776564 -0.40309784
-0.11982411 1.1649822 -0.15994571
0.018637329 2.3968997 -0.34728813
-0.071690395 2.4864788 -0.38415369
-0.071299255 1.0850598 -0.17878966
-0.10255194 0.99859583 -0.17507312
0.012832792 1.5020366 -0.27468279
-0.028059945 0.98940325 -0.19067731
-0.058637839 0.90078318 -0.1827357
-0.093138479 0.90974486 -0.19471668
0 0 -0
-0 0 -0
-0 0 -0
-0.091256954 0.88830614 -0.225445
0.012106445 1.1589355 -0.30319297
-0 0 -0
-0 0 -0
-0 0 -0
0.027400386 2.3569195 0.72819543
-0.063093804 2.3669291 0.70325375
-0.15548573 2.4031405 0.68975711
-0.24343911 2.3801107 0.66040492
0.026188847 2.3814301 0.63586938
-0.063084207 2.390059 0.61209768
-0.15387531 2.4062772 0.59282571
-0.24198453 2.393955 0.56675136
0.025984356 2.3665917 0.53749168
-0.061387107 2.3135142 0.50130582
-0.1548069 2.4355288 0.50428116
-0.24740265 2.4651854 0.48711258
0.025940038 2.4124134 0.45454842
-0.06140862 2.3374031 0.41641435
-0.15265805 2.421078 0.4082613
-0.24256918 2.4263999 0.38691768
0.025917782 2.3909371 0.35982385
-0.061598696 2.3907275 0.3359361
-0.15191326 2.4295201 0.31840262
-0.24027646 2.4252741 0.29553148
0.026167484 2.3757169 0.26863712
-0.061831921 2.4014072 0.24828592
-0.15285447 2.4604301 0.23129123
-0.2471242 2.5068793 0.21276866
0.02667697 2.3879139 0.18215831
-0.061393932 2.4138682 0.16084643
-0.15433703 2.4941416 0.14299242
-0.24200785 2.4633451 0.11768021
0.027864126 2.4259501 0.09578862
-0.060096398 2.4091718 0.07211417
-0.15010796 2.4458804 0.050388962
-0.23782657 2.4312503 0.026648469
0.028108466 2.4178271 0.0068789274
-0.059729919 2.4302096 -0.016589593
-0.14944255 2.4511306 -0.039520089
-0.2382291 2.444612 -0.062987842
0.029394137 2.4194338 -0.081957914
-0.058761314 2.4270146 -0.10510531
-0.14781822 2.4491174 -0.12970285
-0.236283 2.4307947 -0.15236966
0.030620052 2.3898561 -0.16872171
-0.057738312 2.4375057 -0.1953155
-0.19097954 3.1725199 -0.28482664
-0.23246472 2.3989048 -0.23937467
0.031705864 2.4218094 -0.26063478
-0.055246718 2.3761127 -0.27836347
-0.19082427 3.1838369 -0.40372574
-0.16395828 1.6962744 -0.23274671
0.033385381 2.399709 -0.34771833
-0.057732686 2.5441773 -0.39300582
-0.13098128 2.1995189 -0.36228433
-0.097274356 1.0080314 -0.1766194
0.034250118 2.3330564 -0.42668477
-0.022272136 1.002319 -0.19313644
-0.053455621 0.90699655 -0.18392615
-0.088210121 0.91711432 -0.19617444
0 0 -0
-0 0 -0
-0 0 -0
-0.086177349 0.89270973 -0.22642413
0 0 -0
-0 0 -0
-0 0 -0
-0 0 -0
0.042218 2.3767684 0.73439413
-0.048490759 2.3634381 0.70211488
-0.14062504 2.4021299 0.68920636
-0.23454659 2.4410508 0.6769017
0.040519152 2.3648026 0.63148403
-0.048300181 2.3845897 0.61060959
-0.14017223 2.4255958 0.59736204
-0.22664732 2.3886118 0.56514651
0.040655207 2.3751631 0.53948486
-0.048824627 2.3939722 0.51866519
-0.14030884 2.4442542 0.50590003
-0.22739649 2.4148817 0.47688806
0.040094618 2.3738887 0.44732749
-0.047362685 2.3525007 0.41904435
-0.1384159 2.4327991 0.41008687
-0.22730765 2.4239094 0.38629085
0.040487092 2.3848007 0.35893098
-0.047025464 2.3960109 0.3366316
-0.13677992 2.4264467 0.31788385
-0.22438082 2.4158294 0.29420727
0.040846363 2.3814728 0.26931125
-0.046842482 2.3888128 0.24694939
-0.13658634 2.4404461 0.22932956
-0.22788754 2.4666748 0.20923373
0.041431963 2.3936868 0.18261464
-0.046331327 2.4012306 0.15998237
-0.13875264 2.4900577 0.14270678
-0.22514883 2.4458847 0.1167779
0.042854588 2.4317274 0.096025325
-0.044974573 2.3915067 0.071575783
-0.13592428 2.4617293 0.050697338
-0.22345167 2.4386384 0.026713917
0.041966651 2.362618 0.0067224586
-0.044872612 2.4335296 -0.016610065
-0.13379793 2.4410195 -0.039343089
-0.22358818 2.4500103 -0.063090391
0.043745581 2.3922279 -0.081043884
-0.043922484 2.4303262 -0.10523508
-0.13608468 2.5108042 -0.13292299
-0.22100163 2.4282229 -0.15212059
0.045226656 2.3866313 -0.16851045
-0.042623557 2.4288442 -0.19459684
-0.16962855 3.1388226 -0.28170255
-0.21998845 2.4250619 -0.24184549
0.046393171 2.4126225 -0.25967184
-0.041158944 2.4052057 -0.28173685
-0.17016621 3.1641443 -0.40108865
-0.17077647 1.8876957 -0.25886306
0.047593281 2.3737328 -0.34399021
-0.04266062 2.5770926 -0.39804241
-0.11664103 2.1845155 -0.35968846
-0.090467118 1.0017413 -0.17541674
0.049445227 2.3750918 -0.43441975
-0.016121604 1.0024368 -0.19313644
-0.049129244 0.93079764 -0.188688
-0.081967495 0.91081935 -0.19471668
0 0 -0
-0 0 -0
-0 0 -0
-0 0 -0
0 0 -0
-0 0 -0
-0 0 -0
-0.069958724 0.77404886 -0.22815406
0.056275696 2.3544955 0.7276051
-0.033629712 2.3387699 0.69471222
-0.12442472 2.375107 0.68122125
-0.2148173 2.3896394 0.66226745
0.055253334 2.3741684 0.63406366
-0.033722404 2.3887157 0.61160165
-0.12373411 2.3963468 0.58996069
-0.21534076 2.4277701 0.57408798
0.054729391 2.353421 0.53461266
-0.033451878 2.3463421 0.5082919
-0.12270213 2.3942118 0.49537733
-0.21171485 2.4064569 0.4749589
0.05529324 2.4011064 0.45251173
-0.033147555 2.3684976 0.4218497
-0.1229362 2.4227691 0.4082613
-0.21389557 2.4419844 0.38895491
0.054776408 2.3696783 0.35669881
-0.032229438 2.389323 0.33565789
-0.12124245 2.4143662 0.31619778
-0.2112682 2.4369411 0.29661489
0.055481169 2.3821707 0.2694236
-0.032237716 2.3930337 0.24736063
-0.12032154 2.4153841 0.22690082
-0.21240571 2.4640558 0.20889707
0.056095198 2.3923907 0.18253858
-0.03129486 2.3785226 0.15845367
-0.12307589 2.4828849 0.14224975
-0.20988056 2.4442346 0.11663543
0.056848865 2.3924603 0.094486721
-0.030337702 2.3947361 0.071665518
-0.11978798 2.4415467 0.05026561
-0.20754784 2.4290042 0.026593929
0.056653764 2.3703134 0.0067452174
-0.030026017 2.4407587 -0.016657835
-0.11915778 2.4487853 -0.039455727
-0.20253427 2.3806148 -0.06127023
0.05871604 2.4039042 -0.081450127
-0.029033303 2.432548 -0.10532159
-0.11847153 2.465709 -0.1304947
-0.20373602 2.4016879 -0.15037709
0.059169371 2.358387 -0.16653873
-0.027537655 2.4131122 -0.19331922
-0.14731666 3.0761328 -0.27598995
-0.20476913 2.4223998 -0.24145016
0.060893297 2.4003654 -0.25838795
-0.026138499 2.3815773 -0.27894506
-0.14994583 3.1482823 -0.39895386
-0.12906669 1.5313048 -0.209878
0.062390525 2.3823001 -0.34528071
-0.025982369 2.4942946 -0.38522205
-0.082559988 1.7475609 -0.28765345
-0.088448085 1.0513608 -0.18400718
0.064415209 2.3894935 -0.43711799
-0.0098239826 0.98778838 -0.19029899
-0.042321354 0.90758425 -0.18392615
-0.077357516 0.92300099 -0.19721571
0.0325584 1.1662014 -0.25872681
-0 0 -0
-0 0 -0
-0.074971989 0.89080155 -0.22568978
0 0 -0
-0 0 -0
-0 0 -0
-0 0 -0
0.070864998 2.358881 0.72908098
-0.019310262 2.3427663 0.69585109
-0.11095902 2.3998334 0.68810499
-0.2052168 2.4514298 0.6790303
0.068882547 2.3419154 0.62555099
-0.018902533 2.3685346 0.60639334
-0.11004291 2.4193728 0.59545201
-0.19963971 2.4193451 0.57179528
0.068853498 2.3423188 0.53217655
-0.019101979 2.3523672 0.50956213
-0.10875927 2.411551 0.49881744
-0.19830501 2.424336 0.47823846
0.068134092 2.3358905 0.44029167
-0.018706942 2.3804703 0.42395368
-0.10859522 2.4352996 0.41025284
-0.19706459 2.42061 0.38535058
0.068939522 2.3564477 0.35476425
-0.017495412 2.3795733 0.33426684
-0.10721164 2.4328952 0.31853229
-0.19447899 2.4154325 0.29384616
0.069453761 2.3599343 0.26695183
-0.017546434 2.3921919 0.24725783
-0.10606339 2.4290078 0.22811519
-0.19712357 2.463326 0.20872873
0.070921026 2.3969851 0.18291888
-0.016517801 2.3527279 0.15672557
-0.10601991 2.4417017 0.13985036
-0.19337144 2.4265578 0.11573312
0.070751153 2.3660984 0.093460977
-0.015747771 2.4108696 0.072144084
-0.10450462 2.4352436 0.050121702
-0.19414112 2.4491713 0.02680118
0.070806302 2.3569272 0.0067082341
-0.014956759 2.4258976 -0.016555471
-0.10289851 2.4205003 -0.038989078
-0.19287692 2.4445968 -0.062885299
0.072762728 2.3805225 -0.080671512
-0.013927327 2.4017098 -0.10398073
-0.10250392 2.4464347 -0.12943892
-0.1907174 2.4247823 -0.15174699
0.074604303 2.3888876 -0.16872171
-0.012720042 2.4112422 -0.19315952
-0.10393099 2.489845 -0.22332692
-0.19161186 2.445436 -0.24362449
0.074837692 2.3751023 -0.25571311
-0.011693136 2.416455 -0.28301641
-0.10336561 2.4919567 -0.31569719
-0.18795106 2.4062653 -0.32963431
0.076687068 2.3719807 -0.3438468
-0.010930991 2.5537035 -0.39437947
-0.07151147 1.7401471 -0.2863555
-0.086512402 1.1098305 -0.19414388
0.078652613 2.3762722 -0.4347795
-0.0038825348 1.0192522 -0.19635224
-0.036791373 0.90880615 -0.18412456
-0.072525389 0.93418485 -0.19950649
0.074541673 2.188529 -0.48562694
-0 0 -0
-0 0 -0
-0.069504723 0.89124483 -0.22568978
0 0 -0
-0 0 -0
-0 0 -0
-0.061275672 0.78537166 -0.23125245
0.08523383 2.3555372 0.72819543
-0.0049813953 2.3648889 0.70239961
-0.094653003 2.3610859 0.67681557
-0.19173613 2.4728253 0.684618
0.083834589 2.3578627 0.62993628
-0.0043941406 2.3821683 0.60986555
-0.093783543 2.3841 0.58661807
-0.18538389 2.4282887 0.57362944
0.083224401 2.3418522 0.53217655
-0.0047143097 2.3758962 0.51464295
-0.092587985 2.3769445 0.4915325
-0.18349981 2.4264853 0.47843134
0.082777672 2.3442676 0.44195807
-0.0040935152 2.3766019 0.42325231
-0.092476048 2.4053726 0.40510809
-0.18302338 2.4326069 0.38707438
0.083467081 2.3579569 0.35506189
-0.0029183852 2.3994415 0.33704892
-0.091455027 2.4117086 0.31567898
-0.1795809 2.4155903 0.29372576
0.083932742 2.3594637 0.26695183
-0.0028822005 2.4041908 0.24849153
-0.090933308 2.4236434 0.22755471
-0.18112451 2.4525642 0.20771877
0.085591704 2.3955081 0.18284281
-0.0021114363 2.3867099 0.15898541
-0.090552479 2.4293363 0.13910769
-0.17855197 2.428695 0.11578061
0.084907994 2.355634 0.093066461
-0.00095544767 2.4129198 0.072203904
-0.089560285 2.4358389 0.050121702
-0.17983861 2.4602892 0.026910262
0.085230641 2.355449 0.0067053894
-7.1302675e-05 2.4209437 -0.01652135
-0.088190012 2.4250827 -0.039053444
-0.17627825 2.4237995 -0.062321313
0.087404631 2.3810298 -0.08070536
0.00081594836 2.4207323 -0.10480254
-0.08656323 2.4210706 -0.12806639
-0.17821665 2.4587567 -0.15380183
0.087509893 2.3415344 -0.16541205
0.0020667224 2.4013069 -0.19236101
-0.085887909 2.4127963 -0.21636468
-0.18090199 2.5061171 -0.2495545
0.08862403 2.3537338 -0.25346628
0.0031187141 2.4045625 -0.28162053
-0.085060455 2.4072781 -0.3048977
-0.17360951 2.4133027 -0.33044621
0.091049582 2.3665209 -0.34312987
0.0045844093 2.4707067 -0.38155904
-0.040187545 1.1498498 -0.18917309
-0.079630449 1.109358 -0.19397208
0.09280736 2.3649328 -0.4328008
0.0034705079 1.4915712 -0.28734013
-0.032593433 0.94917601 -0.19225937
-0.065397561 0.91510051 -0.19534142
0.087655082 2.1802266 -0.48389488
0 0 -0
-0 0 -0
-0 0 -0
0 0 -0
0 0 -0
-0.027773468 0.81754684 -0.2309671
-0.055767924 0.77616245 -0.22843572
0.09847331 2.3263323 0.71934021
0.0095409714 2.3677506 0.70325375
-0.08062046 2.3750732 0.6806705
-0.17450096 2.4451101 0.67663568
0.098139569 2.3534427 0.62890446
0.010197709 2.376338 0.60837746
-0.079185441 2.3856013 0.58685684
-0.1710258 2.4371486 0.57546359
0.09726727 2.333503 0.53040487
0.0098802336 2.3797896 0.51548976
-0.077262998 2.3549557 0.48687822
-0.16989948 2.4461639 0.48209676
0.096793935 2.3348787 0.44029167
0.010493463 2.3775671 0.42342767
-0.077237651 2.3911104 0.40261868
-0.16897844 2.4464929 0.38911161
0.097276941 2.3415921 0.35268092
0.011789749 2.3964434 0.3366316
-0.076403394 2.4042962 0.31464145
-0.16637629 2.4404171 0.29661489
0.098201461 2.35394 0.26639006
0.011889334 2.4081419 0.24890277
-0.075030021 2.3913159 0.22447206
-0.16667807 2.4625771 0.20847626
0.098786823 2.3590734 0.18010473
0.012585577 2.3966556 0.15965006
-0.075427189 2.4228611 0.1387078
-0.16431765 2.4397109 0.11625551
0.099992082 2.3700435 0.093658231
0.013884392 2.4188774 0.072383367
-0.074337132 2.4273489 0.049936671
-0.16493951 2.4643395 0.026942987
0.099301174 2.3458898 0.006679785
0.014795543 2.4228985 -0.016534999
-0.0731875 2.4215806 -0.038989078
-0.16385934 2.4617417 -0.063269846
0.10090016 2.3544874 -0.079825185
0.015643401 2.4166856 -0.10462953
-0.07108549 2.4005947 -0.12695783
-0.16405126 2.4737463 -0.15467359
0.10300323 2.366864 -0.16724291
0.016786877 2.3992553 -0.19220132
-0.070876382 2.4063089 -0.21573988
-0.17338771 2.626333 -0.26141453
0.10363018 2.3660586 -0.25485718
0.017865391 2.4035051 -0.28150421
-0.070288077 2.4077547 -0.3048977
-0.15899359 2.4172885 -0.33085218
0.10561268 2.3669064 -0.34327325
0.019365204 2.4231961 -0.37423313
-0.06381923 2.2153242 -0.36439344
-0.068048961 1.0370824 -0.18125823
0.10718276 2.3613708 -0.43226114
0.019104177 2.257412 -0.43488804
-0.027321286 0.96895272 -0.19622757
-0.057614468 0.88230067 -0.18826082
0 0 -0
0.010145763 1.13784 -0.26351744
-0 0 -0
-0 0 -0
0.074408889 1.5732412 -0.41201848
0 0 -0
-0.023024295 0.82732189 -0.23368436
-0.052262247 0.79563898 -0.23406915
0.11297689 2.330456 0.72081614
0.024049548 2.3657305 0.70268434
-0.065003783 2.3380451 0.66993177
-0.15805222 2.424011 0.67051589
0.1103617 2.3064737 0.61652243
0.024768353 2.375262 0.60812944
-0.064309835 2.3773057 0.58470809
-0.15569544 2.4323237 0.57408798
0.11144377 2.3299401 0.52974051
0.024381619 2.3699114 0.51337272
-0.061741441 2.315248 0.47858143
-0.15339941 2.4236584 0.47746679
0.11027756 2.3165722 0.43695897
0.025227142 2.3912401 0.42588234
-0.061790943 2.3619654 0.39763987
-0.15290974 2.430727 0.38644755
0.11140731 2.3360124 0.35193685
0.026471933 2.3943455 0.33635342
-0.06109041 2.3829126 0.31178811
-0.15133759 2.4404011 0.29649448
0.11140789 2.3274875 0.26346886
0.026643164 2.4060345 0.24869716
-0.060029253 2.3787923 0.22325769
-0.14997393 2.4376945 0.20628797
0.11345129 2.362407 0.18040898
0.027086429 2.3785741 0.15845367
-0.060060531 2.4033172 0.13756523
-0.14983283 2.4486492 0.11663543
0.11448427 2.3683872 0.09361878
0.028548032 2.4037547 0.071934715
-0.059294969 2.4217622 0.049813319
-0.14951223 2.4603148 0.026888447
0.11311237 2.3332505 0.0066456469
0.029514987 2.4107633 -0.016453108
-0.05799057 2.40799 -0.038763802
-0.15092108 2.4986234 -0.064192742
0.11475813 2.3418455 -0.07941895
0.030534593 2.4215391 -0.10484579
-0.056940179 2.4259439 -0.12827756
-0.14850996 2.4687285 -0.15429997
0.1175241 2.3661873 -0.16724291
0.031403393 2.3911335 -0.1915625
-0.05594771 2.3997283 -0.21511506
-0.14513989 2.4247091 -0.2412525
0.11710449 2.3445246 -0.25261033
0.032760926 2.4142747 -0.28278378
-0.055650223 2.4140913 -0.30565113
-0.14492488 2.4310763 -0.33261129
0.12063557 2.3760977 -0.34470713
0.034079719 2.4121616 -0.3725543
-0.052505981 2.3162968 -0.38094205
-0.059053171 0.99322766 -0.17352684
0.12166984 2.3606687 -0.43226114
0.03311272 2.2680526 -0.43696886
-0.02178604 0.98771983 -0.19999737
-0.052488402 0.88751942 -0.18930209
0 0 -0
0 0 -0
-0 0 -0
-0 0 -0
0.074198559 1.3882365 -0.36367971
0 0 -0
-0 0 -0
-0.046010956 0.77295709 -0.22730905
0.12659663 2.3173165 0.71697885
0.038393058 2.354995 0.69955242
-0.050781507 2.3441668 0.67158389
-0.14175539 2.4008782 0.6638639
0.1242514 2.3009295 0.61523265
0.039374311 2.3770027 0.60862547
-0.049478114 2.3660049 0.58184302
-0.13975614 2.4157419 0.56996113
0.12531738 2.3214221 0.52796876
0.038858458 2.3658082 0.51252592
-0.048318047 2.3537683 0.48647347
-0.13975656 2.4461057 0.48171097
0.1255447 2.3354776 0.440662
0.039931897 2.3930092 0.42623302
-0.047237813 2.3593423 0.39714199
-0.13955903 2.4592292 0.39083546
0.12568556 2.3342974 0.35178804
0.040890485 2.3782959 0.33412775
-0.04664195 2.3921649 0.31295538
-0.13630536 2.4402926 0.29637411
0.12643737 2.3406513 0.26504183
0.041320227 2.4008527 0.2481831
-0.045660239 2.3910613 0.22437866
-0.13523403 2.4425485 0.20662463
0.12718946 2.3477271 0.17934416
0.041698061 2.3793609 0.15852015
-0.045482278 2.4126241 0.13807938
-0.13507982 2.4545093 0.11687288
0.12841623 2.3566651 0.093184814
0.043440674 2.4115293 0.072173998
-0.044397522 2.4200811 0.049772203
-0.1347404 2.4671767 0.026953897
0.12791772 2.3414991 0.0066712503
0.043865554 2.3865414 -0.016289329
-0.043250203 2.4102998 -0.038795982
-0.13515379 2.4915166 -0.06398765
0.12945549 2.3470845 -0.07962206
0.044811793 2.3903406 -0.10350495
-0.041949958 2.4202566 -0.12796082
-0.13303643 2.4636137 -0.15392637
0.13176256 2.3604422 -0.16689083
0.046055313 2.389899 -0.19148265
-0.041393247 2.4099851 -0.21600765
-0.13282084 2.4732502 -0.24599649
0.13159941 2.3457475 -0.25282431
0.047358751 2.4031048 -0.28150421
-0.04065204 2.403476 -0.30426982
-0.1302698 2.4368665 -0.33328786
0.13521276 2.3753128 -0.34470713
0.0485394 2.3951097 -0.36995965
-0.040967066 2.4783804 -0.40754959
-0.056628071 1.0624328 -0.18555345
0.13581237 2.3539853 -0.43118182
0.046295691 2.2324643 -0.43015897
-0 0 -0
-0 0 -0
0 0 -0
0 0 -0
-0 0 -0
-0 0 -0
0 0 -0
0 0 -0
-0 0 -0
-0.042443462 0.79526222 -0.23378749
0.1404652 2.3107741 0.71520776
0.052885327 2.356632 0.70012188
-0.036591012 2.3569303 0.67516345
-0.12793759 2.4190295 0.66865325
0.13912149 2.3126609 0.61858606
0.053826656 2.3709052 0.60713738
-0.035103101 2.3759737 0.58423054
-0.12498105 2.4175262 0.57019043
0.14032002 2.3332639 0.53084779
0.053263824 2.3606398 0.5114674
-0.034283329 2.3824177 0.49234194
-0.12444516 2.4410374 0.48055345
0.14016642 2.3395684 0.44158778
0.054389708 2.3828764 0.42447963
-0.03286979 2.367476 0.39846966
-0.12341882 2.4393249 0.38754451
0.14036152 2.3394048 0.35268092
0.055413369 2.3750303 0.33371043
-0.031976268 2.3933976 0.31308508
-0.12098448 2.4341426 0.29553148
0.13990167 2.3249531 0.26335651
0.055632863 2.3826544 0.24633253
-0.031026807 2.3942831 0.22465891
-0.11882389 2.4144702 0.20418385
0.14183265 2.350884 0.1796484
0.056367569 2.3820527 0.15871952
-0.030690534 2.413856 0.13813652
-0.11913887 2.4373336 0.11601806
0.14214817 2.3438642 0.092711389
0.057802305 2.3932307 0.071635611
-0.029510735 2.417309 0.049710531
-0.11916393 2.4589679 0.026855722
0.14282857 2.3496535 0.0066968543
0.058165114 2.372232 -0.01619379
-0.028648937 2.4265168 -0.039053444
-0.11832688 2.4603467 -0.063167304
0.14330405 2.3372681 -0.079317391
0.059104975 2.3750393 -0.10285614
-0.027188189 2.428457 -0.12838313
-0.11925311 2.4922972 -0.15566987
0.14618179 2.3585937 -0.16682042
0.060541347 2.382596 -0.19092369
-0.026671043 2.4161694 -0.21654321
-0.11579943 2.4352531 -0.24214199
0.14666976 2.3558114 -0.25400123
0.061820749 2.3918474 -0.28022465
-0.025657935 2.3808637 -0.30138156
-0.11597048 2.4514759 -0.33518234
0.14791566 2.3448074 -0.34040546
0.062947653 2.3838995 -0.36828083
-0.02536957 2.4410908 -0.40138444
-0.046860296 0.99387753 -0.17352684
0.15037897 2.3550711 -0.43154162
0.058911294 2.1918929 -0.42240322
-0.0095868623 0.9800722 -0.19841008
-0 0 -0
0.1412604 2.1793671 -0.48432788
0.045460813 1.663341 -0.38534912
-0 0 -0
-0 0 -0
0.15763468 2.3969874 -0.62840414
0 0 -0
-0 0 -0
-0 0 -0
0.15451354 2.3079619 0.71461743
0.066741839 2.3351822 0.69385809
-0.022146521 2.3590331 0.67571419
-0.11187722 2.3937707 0.66146916
0.15343696 2.3136919 0.619102
0.068289451 2.3676252 0.60639334
-0.020456644 2.3683763 0.58232051
-0.1110308 2.4376945 0.57477582
0.15360183 2.3167903 0.52730435
0.067270733 2.3436608 0.50786853
-0.019535124 2.3669145 0.48910415
-0.10761924 2.4005854 0.47245097
0.15432474 2.3357224 0.44103232
0.067869559 2.3431339 0.41746634
-0.018334972 2.366647 0.39830372
-0.10849293 2.4410231 0.38770124
0.15392983 2.326659 0.3508952
0.069285087 2.350889 0.33037192
-0.017376004 2.405447 0.31464145
-0.10634895 2.4417815 0.29637411
0.15455931 2.3299999 0.26403064
0.069928989 2.3713312 0.24520163
-0.016321592 2.3924372 0.22447206
-0.10400674 2.4151537 0.20418385
0.15572549 2.34201 0.17903993
0.070833892 2.3766754 0.15838721
-0.015872246 2.4130006 0.13807938
-0.10456524 2.4470005 0.11644547
0.15572788 2.3309836 0.092237964
0.071729161 2.3678536 0.070887849
-0.01466571 2.4154451 0.049669411
-0.10377784 2.4526596 0.026779367
0.15664189 2.3397529 0.0066712503
0.072413318 2.3618352 -0.016125549
-0.013708548 2.4176483 -0.038908623
-0.10188761 2.429065 -0.062346946
0.15831538 2.3463166 -0.079655923
0.073645853 2.3736334 -0.10281289
-0.012236423 2.4185922 -0.12785524
-0.10229509 2.4530945 -0.15317915
0.15983732 2.3457096 -0.16597539
0.074845202 2.3722167 -0.19012518
-0.011767082 2.4003515 -0.21511506
-0.1005255 2.427964 -0.24135134
0.16091837 2.3518913 -0.25368023
0.076368667 2.3874524 -0.27975935
-0.011117802 2.3958573 -0.30326521
-0.10190421 2.4759004 -0.33842996
0.16168505 2.3349698 -0.33911496
0.077380903 2.3775418 -0.36736506
-0.010651241 2.5023782 -0.41144335
-0.044110771 1.0758436 -0.18778697
0.16448306 2.3491974 -0.43064219
0.057842143 1.7518182 -0.33765775
-0.0036481062 1.000695 -0.2025767
-0 0 -0
0.15380062 2.1667736 -0.48172984
0.072059482 2.1527877 -0.49883312
-0 0 -0
-0 0 -0
0.13256873 1.8430579 -0.4833878
0 0 -0
-0 0 -0
-0.031066801 0.75641638 -0.22223894
0.16846302 2.304112 0.71373194
0.080969192 2.3318546 0.69300389
-0.0077088615 2.3706605 0.67901838
-0.09714812 2.3934491 0.66120315
0.16763061 2.3127069 0.619102
0.082646281 2.3623207 0.60515326
-0.0059484644 2.3781679 0.58470809
-0.094615094 2.4013708 0.56606358
0.16753258 2.311914 0.52641851
0.081445694 2.3373435 0.50659829
-0.0050489646 2.3846176 0.49274665
-0.091825493 2.3737469 0.4670493
0.1675207 2.3190491 0.43806988
0.082176395 2.3407056 0.41711572
-0.0038560508 2.3933406 0.40278462
-0.092530295 2.415983 0.38362679
0.16798905 2.3227119 0.35044876
0.083884798 2.3553679 0.33106744
-0.0026085831 2.3985674 0.31373358
-0.091030471 2.4334598 0.29529071
0.16777521 2.3141418 0.26234534
0.084088258 2.3599226 0.24407071
-0.0016442996 2.3964746 0.22484572
-0.08822985 2.3898563 0.20199555
0.17002061 2.3400159 0.17896387
0.084447786 2.3492732 0.15659264
-0.001066054 2.4130526 0.13807938
-0.08830706 2.4136572 0.11483081
0.16879131 2.3130426 0.091567293
0.086293079 2.3683677 0.070917755
0.00015500811 2.4084909 0.049525503
-0.087967679 2.432265 0.026550295
0.17092247 2.3377504 0.0066684056
0.0869039 2.3613465 -0.016125549
0.001120533 2.4056883 -0.03871553
-0.086838178 2.4256482 -0.062244404
0.17234212 2.3403172 -0.079486653
0.087577946 2.3561645 -0.10207759
0.0026373395 2.4495783 -0.1294917
-0.086283728 2.4267454 -0.15149792
0.17393164 2.3407056 -0.16569373
0.089136608 2.3647401 -0.18956622
0.0029626484 2.4013746 -0.21520431
-0.085415512 2.4225681 -0.24075833
0.1717225 2.3022759 -0.24843758
0.090789296 2.3809838 -0.27906141
0.0035816275 2.3948882 -0.30313963
-0.085878372 2.4527144 -0.33518234
0.17586029 2.3319602 -0.33882821
0.091853142 2.3740594 -0.36690718
0.0046309344 2.4639134 -0.40511599
-0.037028246 1.0623105 -0.18538164
0.17934272 2.3540292 -0.43172148
0.09037742 2.3077669 -0.44491372
0.0054138135 2.1738975 -0.44007358
-0 0 -0
0.16686749 2.1628687 -0.48108029
0 0 -0
0 0 -0
-0 0 -0
0 0 -0
0 0 -0
0 0 -0
-0.026223984 0.75083923 -0.22054893
0.18237107 2.3001776 0.7128464
0.094571076 2.3140733 0.68787903
0.0068484731 2.3745084 0.68011975
-0.081962608 2.3795493 0.65721196
0.18022707 2.2914081 0.61368489
0.096383236 2.3433783 0.60044098
0.0086402828 2.3771887 0.58446932
-0.079264075 2.3834224 0.56170744
0.18102702 2.3020928 0.52442533
0.095785826 2.3367996 0.50659829
0.0095631909 2.3797071 0.49173483
-0.077131078 2.3703427 0.46627766
0.18174696 2.3179774 0.43806988
0.096699461 2.3440921 0.41781703
0.010762353 2.3785274 0.40029526
-0.077672616 2.4155178 0.38347006
0.18316638 2.3334675 0.35223448
0.097550452 2.33601 0.32842448
0.012063748 2.3896143 0.31256631
-0.075104624 2.4022207 0.29143855
0.18080239 2.2982097 0.26066005
0.098234735 2.3514118 0.24324824
0.013049372 2.3944485 0.22465891
-0.073104538 2.3754132 0.2007331
0.18382697 2.3319707 0.17843148
0.099280678 2.3586798 0.1572573
0.013671961 2.4010336 0.13739385
-0.073161125 2.4031708 0.11430842
0.1840844 2.3259089 0.092119612
0.10099358 2.371788 0.071037397
0.014908433 2.4044456 0.049443271
-0.073131956 2.4357574 0.02658302
0.18581669 2.3436358 0.0066883196
0.10074759 2.345783 -0.016023185
0.015894741 2.4076359 -0.038747713
-0.072012305 2.4281337 -0.062295672
0.18630123 2.3342345 -0.079317391
0.10099582 2.3316276 -0.10103951
0.017393928 2.4115703 -0.12748572
-0.071274504 2.4232385 -0.15124884
0.18949097 2.3545089 -0.16674998
0.10355739 2.3621571 -0.18940654
0.01769715 2.4013112 -0.21520431
-0.069622546 2.3912168 -0.23759565
0.18344466 2.2714479 -0.2452278
0.10407902 2.3506148 -0.2755717
0.018329315 2.4017656 -0.30401865
-0.070169516 2.4304161 -0.33207002
0.13994837 1.7153305 -0.24935345
0.10615277 2.3675275 -0.36599144
0.019432768 2.4243698 -0.39862633
-0.029915551 1.0418385 -0.18177366
0.17295168 2.0999494 -0.38531145
0.10649152 2.3503304 -0.45323697
0.018684858 2.1659827 -0.43848628
-0 0 -0
0.1989435 2.3875194 -0.53131014
0.0988729 2.1604998 -0.50086361
0.0098444084 1.1274937 -0.27250904
-0 0 -0
0.18450497 2.189306 -0.5747506
0.10044064 2.1592715 -0.58741695
0 0 -0
-0 0 -0
0.19656262 2.2999671 0.71314156
0.10890324 2.3163221 0.68873316
0.021470083 2.3801897 0.68177187
-0.066460475 2.3482096 0.64843136
0.19526348 2.3018112 0.61678034
0.11085162 2.3446782 0.60093707
0.023188323 2.3732066 0.58351427
-0.065139458 2.4023509 0.56606358
0.19481936 2.2970521 0.52353948
0.10957013 2.3244529 0.50405788
0.024144731 2.3776453 0.49133015
-0.063129254 2.3913701 0.47032893
0.19422702 2.2962551 0.43418166
0.11098749 2.3414876 0.41746634
0.025324984 2.3754585 0.39979735
-0.062721394 2.4110126 0.38268653
0.19706367 2.327373 0.35149044
0.11178734 2.3333893 0.32814628
0.026759189 2.3924699 0.31295538
-0.059765063 2.3788183 0.28854945
0.19632868 2.3138888 0.26257005
0.1130418 2.3587132 0.24407071
0.027833465 2.4022877 0.2254062
-0.058356114 2.3688438 0.20014392
0.19754103 2.3238442 0.17789908
0.11360716 2.3550363 0.1570579
0.028120715 2.3769453 0.13602275
-0.058365632 2.4015775 0.11421344
0.19852234 2.3267269 0.092198521
0.11539876 2.368129 0.070947669
0.029538222 2.3943119 0.049237683
-0.0580418 2.4301627 0.026517574
0.19883102 2.3265097 0.0066428017
0.11528626 2.3481169 -0.016043657
0.030565532 2.3994946 -0.038618982
-0.056759663 2.4135392 -0.061911132
0.19967842 2.322094 -0.078945003
0.11678126 2.3608994 -0.10233711
0.032084078 2.4034297 -0.12706341
-0.056149017 2.4126546 -0.15056391
0.20221199 2.333426 -0.16534163
0.11770099 2.3545079 -0.18884756
0.032525145 2.408129 -0.21582915
-0.05634331 2.4522843 -0.24362449
0.14123073 1.6244584 -0.17546842
0.11804996 2.3410044 -0.27452478
0.033065926 2.4016078 -0.30401865
-0.055368025 2.4357536 -0.3327466
0.13030995 1.4847301 -0.21594381
0.12037571 2.3609097 -0.36507574
0.034070678 2.4074318 -0.39586821
-0.050068442 2.2179484 -0.3869133
0.15095717 1.7049471 -0.31299809
0.12080994 2.3476713 -0.45285863
0.02526148 1.7111015 -0.34642401
-0 0 -0
0 0 -0
0.11243066 2.1656899 -0.50221729
0.021083046 1.4180123 -0.34275061
-0 0 -0
0 0 -0
0 0 -0
0 0 -0
-0 0 -0
0.20997368 2.2911062 0.7107802
0.12280852 2.3098667 0.68702483
0.035913981 2.3694396 0.67874306
-0.052478049 2.3678477 0.65375292
0.21078458 2.3159647 0.62090772
0.12353056 2.3120306 0.59275258
0.037703272 2.3701069 0.58279806
-0.050622214 2.4134099 0.56858552
0.2089985 2.2967846 0.52376091
0.12320656 2.3120255 0.50151753
0.038557753 2.3666811 0.48910415
-0.048514519 2.3946555 0.47090769
0.2082241 2.2940414 0.43399653
0.12524721 2.3387966 0.41711572
0.039866917 2.3732862 0.39946541
-0.047671381 2.3985152 0.38064927
0.21107203 2.3231657 0.35104403
0.12556808 2.3227711 0.32675526
0.041387085 2.3892865 0.31256631
-0.045940366 2.4198349 0.29348502
0.2113335 2.3215468 0.26358125
0.12557884 2.3222179 0.24036954
0.042573102 2.4020717 0.2254062
-0.043930624 2.3751349 0.20064892
0.21197724 2.324574 0.17805117
0.1277301 2.3483169 0.15665911
0.042686913 2.3757298 0.13596563
-0.04366501 2.4038877 0.11430842
0.2100635 2.2956131 0.091014974
0.12899595 2.3504093 0.070439182
0.044228885 2.3940854 0.049237683
-0.043306924 2.4404707 0.026626654
0.21273743 2.3212626 0.0066314223
0.12891957 2.3333871 -0.015948121
0.044872839 2.3772686 -0.038264971
-0.042053614 2.4198389 -0.062064946
0.21520706 2.334758 -0.07941895
0.13076594 2.3511608 -0.10194783
0.046480436 2.3852162 -0.12611321
-0.041224498 2.4059682 -0.15012802
0.21385151 2.3033371 -0.1632995
0.13225752 2.3557322 -0.18900727
0.047007106 2.3929467 -0.21449025
-0.040491186 2.4048254 -0.23888049
0.14400455 1.546343 -0.16712296
0.13218746 2.3362694 -0.27405947
0.047761805 2.3993762 -0.3037675
-0.03953382 2.3825517 -0.32543945
0.13312256 1.4169005 -0.20619337
0.13485971 2.3601265 -0.36507574
0.048721656 2.401258 -0.39489478
-0.039323941 2.3925586 -0.41732347
0.13720334 1.4483904 -0.26604837
0.13532567 2.3488464 -0.45323697
0.040491279 1.9372724 -0.39225674
-0 0 -0
0.13466698 1.4072258 -0.31350327
0.081552252 1.4044032 -0.32578698
0 0 -0
-0 0 -0
0.15346898 1.5879173 -0.41733322
0.065165296 1.1078384 -0.30157569
0 0 -0
-0 0 -0
0.22374858 2.286922 0.70989466
0.13686574 2.3071558 0.68645537
0.050185841 2.3566799 0.67516345
-0.037531208 2.3421018 0.64656883
0.22377595 2.3021266 0.61755425
0.13771459 2.311229 0.59275258
0.052031234 2.3601224 0.58041054
-0.035148583 2.3689055 0.55803913
0.22195545 2.2838118 0.52110344
0.13785452 2.3190308 0.50321114
0.052881066 2.3575885 0.48728296
-0.034180503 2.4204168 0.47592345
0.22239098 2.2936988 0.43418166
0.13900866 2.3281565 0.41536239
0.054450992 2.3739829 0.39963141
-0.032980606 2.4007378 0.3809627
0.22408102 2.3090317 0.34910947
0.14029415 2.3298647 0.32786807
0.05555832 2.3681707 0.30984271
-0.03077285 2.3952551 0.29047555
0.22538194 2.3182285 0.26335651
0.13952631 2.3164394 0.23985551
0.056978624 2.3878307 0.22409841
-0.029540952 2.3903055 0.20191139
0.2263332 2.3242221 0.17812723
0.14237791 2.3514729 0.15692496
0.057503916 2.3854039 0.13653691
-0.028974274 2.4091046 0.11454587
0.22832298 2.3370438 0.092711389
0.14213651 2.3286219 0.069811068
0.058598083 2.3807757 0.048970424
-0.028331662 2.4406905 0.026626654
0.22775541 2.3278756 0.0066541815
0.14384744 2.3425331 -0.016016362
0.059533652 2.3799472 -0.038313247
-0.027216209 2.4210513 -0.062090583
0.22982232 2.3363776 -0.079520509
0.14389636 2.3293736 -0.10103951
0.06103823 2.3818913 -0.12595484
-0.02663658 2.4221439 -0.15112431
0.22699741 2.2920549 -0.16259532
0.14658555 2.3528864 -0.18884756
0.061432347 2.3826563 -0.21359766
-0.025713397 2.4030387 -0.23868284
0.14838025 1.493982 -0.16155934
0.14838575 2.3651521 -0.27754921
0.062199071 2.3881288 -0.30238619
-0.024882935 2.3797772 -0.32503352
0.14635046 1.4613551 -0.21278927
0.14746566 2.3296654 -0.36049703
0.063219957 2.3920364 -0.39343461
