# .PCD v0.7 - Point Cloud Data file format
VERSION 0.7
FIELDS x y z
SIZE 4 4 4
TYPE F F F
COUNT 1 1 1
WIDTH 1541
HEIGHT 1
VIEWPOINT 0 0 0 1 0 0 0
POINTS 1541
DATA ascii
1.3117216 0.64819348 -0.13112201
1.3578281 0.73376155 -0.1532907
1.3292922 0.53981012 -0.15439081
1.3509135 0.60665703 -0.17343916
1.38678 0.68483233 -0.19577244
2.1227939 1.146474 -0.32949898
1.3428535 0.54403448 -0.20992149
1.3842273 0.62068856 -0.23427728
1.3866663 0.68411398 -0.25423175
1.4684725 0.79279155 -0.29104403
1.3634281 0.55115134 -0.26892653
1.3747431 0.61565787 -0.29017758
1.4305153 0.70466077 -0.32281321
1.4642283 0.78990626 -0.35423857
1.3645519 0.55008233 -0.32627723
1.4033293 0.62769544 -0.35601929
1.4466636 0.71242702 -0.38973489
1.4333179 0.77387708 -0.41123518
1.4406813 0.57919401 -0.40619758
1.4513254 0.64785695 -0.43190882
1.5257565 0.75088102 -0.48013988
1.4200976 0.76680321 -0.47377175
5.6877236 2.278836 1.892954
5.8311739 2.5994916 1.8962228
5.9447575 2.9254329 1.8977269
6.0644975 3.2708504 1.9019235
0 0 0
0 0 0
0 0 0
7.0431681 3.7879069 1.8836689
0 0 0
0 0 0
0 0 0
7.0465226 3.7832124 1.5724572
1.2930695 0.51938957 0.26254568
1.260902 0.56151998 0.24581598
1.2857665 0.6301114 0.24097374
7.0689168 3.7917397 1.2728009
1.3076385 0.52510899 0.21205498
1.3129126 0.58388579 0.20183986
1.2815887 0.62723202 0.1866319
7.0789313 3.7890012 0.9736287
1.3343688 0.53557271 0.16257545
1.2751608 0.56706995 0.1442423
1.2575898 0.61486089 0.13133904
7.0721931 3.7809496 0.67735845
1.3131547 0.52681851 0.10792594
1.277474 0.56761801 0.093118116
1.2567155 0.61405301 0.080036908
7.0597878 3.7713077 0.38053733
1.3096175 0.52492189 0.055705737
1.26996 0.56353635 0.041575573
1.2552224 0.61253661 0.028720269
1.2412298 0.66239136 0.015347686
1.3162755 0.52737725 0.0040340442
1.2697912 0.56290448 -0.0094787925
1.2474821 0.60813951 -0.022334643
1.2384919 0.66034716 -0.035993055
1.3055949 0.52230477 -0.047631059
1.2843678 0.56880319 -0.060814019
1.2597432 0.61316466 -0.074063137
1.2366561 0.65898031 -0.087424196
1.3219743 0.52784055 -0.10048658
1.3054655 0.57732922 -0.1143466
1.3264216 0.64536184 -0.13219312
1.3517647 0.71980369 -0.15210471
1.3233446 0.52795929 -0.15332088
1.3455251 0.59434348 -0.17227592
1.3757885 0.66893554 -0.19363765
2.1227911 1.1297033 -0.32841644
1.3461665 0.53578466 -0.20992149
1.3871055 0.61178458 -0.23412465
1.3801869 0.67041904 -0.25228488
1.4680909 0.78099018 -0.29001316
1.3695269 0.54386431 -0.26946616
1.3829879 0.60919023 -0.29112339
1.4101197 0.6838944 -0.31725773
1.456093 0.77402073 -0.35111478
1.3397628 0.53055614 -0.31956547
1.4018039 0.61671901 -0.35466558
1.4475093 0.70184082 -0.38879523
1.4200639 0.75550449 -0.40609473
1.4271116 0.56359154 -0.40138903
1.4535061 0.63816369 -0.43138435
1.515612 0.73437113 -0.47552055
1.4222348 0.75672317 -0.47292677
5.7167139 2.2498422 1.897972
5.8443804 2.5625083 1.8953687
5.9617305 2.8884823 1.8974516
6.1048822 3.2444348 1.9083095
0 0 0
0 0 0
0 0 0
7.0378957 3.729579 1.876103
1.3181517 0.51974875 0.32178634
1.3310517 0.58341479 0.31479806
1.2891932 0.62281436 0.29585034
0 0 0
1.2989744 0.5125277 0.26310116
0 0 0
1.2549703 0.60549796 0.23450132
7.0981617 3.7515247 1.2738979
1.3108358 0.5170756 0.21205498
1.2956029 0.56669152 0.19864048
1.2764806 0.61505246 0.18533495
7.127512 3.7589242 0.97711974
1.3404032 0.52846849 0.16291252
1.291375 0.5648154 0.14568163
1.2747957 0.61361021 0.13274024
7.190474 3.7876391 0.68644822
1.3210008 0.52057916 0.10830622
1.2882472 0.56296527 0.093649842
1.2604597 0.60633039 0.080036908
1.2401301 0.65272307 0.066628464
1.3221112 0.52053696 0.056100253
1.2715616 0.55493379 0.041515749
1.2652655 0.60785377 0.028864177
1.2381903 0.65103996 0.015260421
1.3166951 0.51819217 0.0040255096
1.2704713 0.5539037 -0.0094583202
1.2484858 0.59917587 -0.02228637
1.2363255 0.64948118 -0.035813604
1.3152865 0.5168426 -0.047868028
1.2832539 0.55891705 -0.060597755
1.2697858 0.60844409 -0.074432656
1.2459782 0.6541636 -0.087797806
1.3391179 0.52518219 -0.10154285
1.3108114 0.57010329 -0.1145063
1.3330513 0.6385017 -0.13246089
1.3358885 0.70086277 -0.14983153
1.3247077 0.51910394 -0.1531069
1.3363931 0.58053607 -0.1706474
1.3798671 0.66048127 -0.19363765
2.122663 1.1129761 -0.3273339
1.3411329 0.52427167 -0.20863098
1.3790464 0.59814954 -0.23214053
1.3833842 0.66151208 -0.25212264
1.4737279 0.77242482 -0.290185
1.3737546 0.53580827 -0.26964605
1.3659759 0.59171569 -0.28677264
1.4151738 0.67565143 -0.31745613
1.465147 0.76734066 -0.35215604
1.3702896 0.53294188 -0.32606071
1.3993027 0.6053983 -0.35308629
1.4333669 0.68415314 -0.38386187
1.416944 0.74272567 -0.40389168
1.428739 0.55412471 -0.40088287
1.4547366 0.62808561 -0.43059763
1.5930537 0.75986046 -0.49834552
1.4557451 0.763129 -0.48250356
5.725955 2.2130005 1.8964961
5.8925638 2.5406425 1.9059032
5.9003806 2.814187 1.8723946
6.1238208 3.2064679 1.9080434
0 0 0
0 0 0
0 0 0
0 0 0
1.3322284 0.51587653 0.32444388
0 0 0
0 0 0
0 0 0
1.3176723 0.51058376 0.26624873
1.2749316 0.54912007 0.24721864
1.2853851 0.61047804 0.23948011
1.3026198 0.67826891 0.23302819
1.3176723 0.51045156 0.21265022
1.3026944 0.56029624 0.19919689
1.2963564 0.61485708 0.18766947
7.2614374 3.7727892 0.99228752
1.3399141 0.51879883 0.16246311
1.2957302 0.55727404 0.14578445
1.2677397 0.60066098 0.13161929
7.2436509 3.7590535 0.68930984
1.3251001 0.5128237 0.10838228
1.2925941 0.55544412 0.093716308
1.2650586 0.59901226 0.080094039
1.2476587 0.64694071 0.066818424
1.3290083 0.51385623 0.056258064
1.2749428 0.54712117 0.041515749
1.2626446 0.59708703 0.028720269
1.2474891 0.64618987 0.015325869
1.3413032 0.51839477 0.004090942
1.2784414 0.54806781 -0.0094924411
1.2539469 0.59235817 -0.022318553
1.2402874 0.64188296 -0.035813604
1.3230951 0.51056147 -0.048037291
1.2930881 0.55378586 -0.060900532
1.2771078 0.60234529 -0.074643813
1.2402171 0.64146245 -0.087112859
1.3339374 0.51372916 -0.1009091
1.3097023 0.56008983 -0.11410705
1.3261333 0.62521338 -0.13138978
1.3781763 0.71229917 -0.15408137
1.3306516 0.5120371 -0.15342787
1.3280561 0.56725347 -0.16913518
1.3820988 0.65115649 -0.19338651
2.1012824 1.0853802 -0.32300371
1.3415527 0.51496881 -0.20820081
1.3781453 0.58773816 -0.23137741
1.3829532 0.65091026 -0.25131142
1.4644344 0.75613618 -0.28743604
1.3751792 0.52666533 -0.26928627
1.3632569 0.58062965 -0.28544849
1.4104223 0.6627869 -0.31547204
1.4602665 0.75340319 -0.34986526
1.3434365 0.51303035 -0.31891596
1.4029911 0.59680092 -0.35308629
1.4199425 0.66707915 -0.37916344
1.4249206 0.73579693 -0.40487081
1.447482 0.55120051 -0.40518525
1.4558982 0.61801648 -0.42981088
1.6151091 0.75825095 -0.50378001
1.4893864 0.76915151 -0.49208042
5.7697978 2.1893499 1.9065319
5.8859773 2.4950855 1.8987852
5.924499 2.7811983 1.8745973
6.1159658 3.1546917 1.8995289
0 0 0
0 0 0
0 0 0
0 0 0
1.3016428 0.49487019 0.31624976
0 0 0
0 0 0
1.2560956 0.64488739 0.27760592
1.3437424 0.51122499 0.27087754
1.3245124 0.56086534 0.25616059
1.2140652 0.5675022 0.22553948
1.2874237 0.66034693 0.22958055
1.3170825 0.50095069 0.21205498
1.317053 0.55692065 0.20086615
1.2866275 0.6006 0.18572403
7.2685437 3.720022 0.99012071
1.3393568 0.50915515 0.16201369
1.3046222 0.55163741 0.1464013
1.2695967 0.59202939 0.13143246
1.2439249 0.63587058 0.11799907
1.3356785 0.50751674 0.10899075
1.297816 0.54827905 0.093849242
1.2614709 0.587865 0.079637013
1.2596108 0.64336216 0.067245834
1.3302678 0.50498265 0.056179155
1.2810386 0.54045355 0.04160548
1.265378 0.58890647 0.028699709
1.2451957 0.635342 0.015249513
1.3453937 0.51050967 0.0040937862
1.2827018 0.54060155 -0.0094992649
1.2620914 0.58676058 -0.022399008
1.2442026 0.63426065 -0.035813604
1.3308759 0.50420386 -0.048206557
1.3056694 0.5497179 -0.06133306
1.2834971 0.59575909 -0.074802175
1.2450191 0.63429362 -0.087175131
1.3454618 0.50870961 -0.10154285
1.3048441 0.54856628 -0.1133884
1.3254271 0.6149686 -0.13094349
1.3532566 0.68893117 -0.15081987
1.3346986 0.50421411 -0.15353486
1.3260171 0.55678684 -0.16843723
1.383368 0.6414119 -0.19300978
1.9560137 0.99518782 -0.29972905
1.3502438 0.50882143 -0.20906115
1.3525599 0.5670436 -0.22649346
1.3806535 0.63950926 -0.25017574
1.4664121 0.74579656 -0.28692061
1.3848302 0.52064067 -0.27054545
1.3649825 0.57149547 -0.28507015
1.4117938 0.65288609 -0.31487682
1.4395754 0.73157871 -0.34382591
1.3520441 0.50683367 -0.32021502
1.4102218 0.58968443 -0.35398877
1.417833 0.65549868 -0.37751901
1.4380506 0.73143554 -0.40731865
1.4481182 0.54129237 -0.40442601
1.4623346 0.61018646 -0.43059763
1.6258467 0.75115198 -0.50568211
1.5051959 0.76565373 -0.49574214
5.7875996 2.1555731 1.9080079
5.8994064 2.4581854 1.8982158
0 0 0
6.1377854 3.1184154 1.900327
0 0 0
0 0 0
0 0 0
0 0 0
1.3357178 0.49846634 0.32377949
1.2630739 0.52612102 0.29638013
0 0 0
1.2398895 0.62698394 0.27316886
1.3026646 0.4864682 0.26199022
1.2833918 0.53419 0.24756931
1.2551521 0.57735026 0.23250979
1.2517822 0.63239437 0.22252861
1.3219843 0.49355152 0.2123526
1.3113009 0.54502809 0.19947509
1.2614553 0.57944953 0.18157379
7.7326956 3.8978851 1.0500697
1.33687 0.49884313 0.16133958
1.312575 0.5455308 0.14691535
1.2741104 0.58464342 0.13152587
1.2175424 0.61299086 0.11513747
1.3509126 0.50384128 0.1099795
1.2983913 0.53915751 0.093649842
1.2759442 0.58510751 0.080322549
1.2528267 0.6302346 0.066675954
1.3305324 0.49576414 0.056060806
1.2981803 0.53832626 0.042054139
1.2689677 0.58113116 0.028699709
1.2580054 0.63217956 0.015358594
1.3475637 0.50189584 0.004090942
1.2943093 0.53616512 -0.0095606828
1.2629402 0.5777576 -0.022350734
1.2489643 0.62706298 -0.035839241
1.3498696 0.50194997 -0.048782058
1.2896318 0.53367382 -0.060424745
1.2925786 0.59036177 -0.075118914
1.2524557 0.62843275 -0.087424196
1.3401412 0.49732101 -0.1009091
1.3017368 0.53788489 -0.11282944
1.3255512 0.60516971 -0.13058645
1.3556792 0.67972279 -0.1506222
1.3312416 0.49359551 -0.15278591
1.3257363 0.54712451 -0.16797194
1.3863751 0.63249981 -0.19288419
1.3783302 0.69065833 -0.21055458
1.3514841 0.49984032 -0.20877437
1.3614964 0.56099284 -0.22740921
1.3854494 0.63143498 -0.25033799
1.4366088 0.71957844 -0.28022006
1.3889216 0.51247424 -0.27072537
1.3602908 0.55974633 -0.28336766
1.3961469 0.63528073 -0.31051177
1.439664 0.72054309 -0.34278464
1.3624585 0.5012247 -0.32194707
1.4030004 0.57657659 -0.35128137
1.4076719 0.640347 -0.37376025
1.4338427 0.71825558 -0.40487081
1.4386965 0.52773243 -0.40088287
1.4598012 0.59863925 -0.42876196
1.9055212 0.86621547 -0.59100413
1.5253073 0.76413959 -0.50081223
5.7944355 2.1177247 1.9059417
5.8877649 2.4110427 1.8896742
0 0 0
6.1990452 3.1018319 1.9133649
0 0 0
0 0 0
0 0 0
0 0 0
0 0 0
0 0 0
0 0 0
0 0 0
1.3711369 0.50247389 0.27513602
1.3212719 0.54046917 0.25423193
1.2721472 0.57573682 0.23499918
1.3281476 0.66077602 0.23537885
1.3342729 0.48883244 0.21384071
1.3091201 0.53472513 0.19864048
1.2948045 0.58517426 0.18585375
7.8925142 3.9178996 1.0684878
1.3389726 0.49028918 0.16122723
1.3205018 0.53934729 0.14742939
1.2676919 0.57230824 0.13049832
1.2757385 0.63250864 0.12027152
1.3464878 0.49280116 0.10937104
1.3035227 0.53193456 0.093782768
1.2767802 0.57603574 0.08015117
1.2584603 0.62342232 0.066770934
1.3316723 0.48690453 0.055981897
1.3051617 0.53185952 0.042173781
1.2661288 0.57045907 0.028555799
1.259172 0.62311816 0.015325869
1.3393472 0.48949873 0.0040568034
1.3059105 0.53160655 -0.0096221007
1.2664614 0.56999749 -0.022350734
1.257269 0.62160295 -0.035967421
1.3444741 0.49057463 -0.048477381
1.3067641 0.53139585 -0.061073542
1.2979984 0.58323807 -0.075224489
1.2643414 0.62471509 -0.087984614
1.3487912 0.49113649 -0.1013316
1.3142484 0.53363758 -0.11362795
1.323788 0.59457642 -0.13005088
1.3535784 0.6683079 -0.14993037
1.3435886 0.48881716 -0.15385585
1.3235459 0.53674012 -0.16727398
1.3721279 0.61585653 -0.19037269
1.3878732 0.68481857 -0.21136649
1.349874 0.48985037 -0.20805743
1.3621649 0.55151564 -0.22695135
1.3865966 0.62171096 -0.24985126
1.4489485 0.71467203 -0.28176636
1.3827906 0.5005939 -0.26892653
1.3664308 0.55249351 -0.28393516
1.3955457 0.62469989 -0.30951974
1.4221252 0.70088649 -0.33757833
1.3544887 0.48887804 -0.31934896
1.3794113 0.55701381 -0.34451294
1.405364 0.62891829 -0.37211579
1.4460487 0.71330452 -0.40707389
1.4300737 0.51463622 -0.39759278
1.4562863 0.58678561 -0.42666402
2.1567883 0.96451265 -0.66708738
1.5402932 0.7598601 -0.50419229
5.8244085 2.0882578 1.91155
5.9148989 2.3798804 1.8936603
0 0 0
6.1608915 3.0356176 1.8958038
0 0 0
0 0 0
0 0 0
0 0 0
1.982316 0.71217579 0.47836095
1.3047979 0.52480483 0.30463642
1.2584963 0.56104422 0.28472054
0 0 0
1.3640218 0.49039409 0.27309933
1.307207 0.5253762 0.25090063
1.2765568 0.56832135 0.23516515
1.250579 0.6126405 0.2209615
1.328872 0.47762606 0.21250142
1.3169715 0.5285266 0.19933599
1.2947464 0.57560724 0.18533495
1.2887794 0.62993246 0.17394826
1.3382151 0.48072046 0.16077781
1.3357872 0.53605062 0.14876592
1.2857386 0.5709846 0.13199294
1.2437775 0.60718352 0.11690493
1.3607475 0.48857334 0.11028372
1.3132451 0.5265255 0.094248034
1.2839409 0.56981063 0.08037968
1.2667507 0.61787832 0.067008384
1.336516 0.47939914 0.056060806
1.3130403 0.52569872 0.042323332
1.2723473 0.56389481 0.028617475
1.2620727 0.61494231 0.015314961
1.3404428 0.48059639 0.004051113
1.3175039 0.52692562 -0.0096835177
1.269935 0.56221586 -0.022350734
1.2619582 0.61431426 -0.035993055
1.3474588 0.48231587 -0.048477381
1.3174223 0.52633297 -0.061419569
1.3042928 0.57647383 -0.075382859
1.2681507 0.61694551 -0.087984614
1.3470825 0.48117349 -0.10097951
1.3249049 0.52851814 -0.11426676
1.3137455 0.58040512 -0.128712
1.3576536 0.65998989 -0.14993037
1.3521812 0.48256898 -0.1544978
1.3175875 0.52493286 -0.16611075
1.3631749 0.6018163 -0.18861464
1.3893753 0.67499095 -0.21096054
1.3519219 0.48122659 -0.20791404
1.3563402 0.53949451 -0.22542511
1.3741339 0.60602409 -0.24693093
1.4081122 0.68382037 -0.27300411
1.384909 0.49177065 -0.26874661
1.3624943 0.54119891 -0.28242186
1.380515 0.60783124 -0.30535311
1.4193594 0.68873137 -0.33591229
1.3602239 0.48153526 -0.3199985
1.3728418 0.54458791 -0.34203118
1.4056379 0.61871696 -0.37117609
1.4477818 0.70314753 -0.40633953
1.4067482 0.49651393 -0.39025339
1.458962 0.57748377 -0.42640176
2.1415236 0.94196117 -0.66056597
1.5483789 0.75207156 -0.50531894
5.8127761 2.0439231 1.9035803
5.9302816 2.3438947 1.8939451
0 0 0
6.1637907 2.9901845 1.8910143
6.7614727 2.3822844 1.914057
0 0 0
0 0 0
0 0 0
2.0317161 0.71587878 0.48921266
1.3598043 0.53725934 0.31670332
1.2251428 0.53718811 0.27642378
0 0 0
1.3744195 0.48462972 0.27458057
1.2756083 0.50360739 0.24423797
1.28002 0.56047785 0.23516515
1.2667687 0.61096215 0.22315544
1.3317776 0.46946326 0.21250142
1.3174258 0.5193463 0.19891869
1.2955285 0.56646031 0.18494588
1.2997767 0.62545645 0.17491129
1.3392651 0.47183987 0.1605531
1.333499 0.52565563 0.14814907
1.2837435 0.56069362 0.13143246
1.258257 0.60472 0.1179149
1.3806486 0.48617604 0.11165277
1.3183078 0.51918894 0.09438096
1.2974781 0.56631494 0.081008092
1.2606133 0.60533792 0.066485994
1.3422601 0.47218415 0.056179155
1.3190318 0.51872963 0.042413067
1.2794495 0.55767512 0.028699709
1.264019 0.60632187 0.015293145
1.3433664 0.47236255 0.004051113
1.325366 0.5206598 -0.0097176386
1.268777 0.5524174 -0.022270279
1.2720143 0.60958362 -0.036172505
1.343792 0.47172171 -0.048240412
1.3234171 0.51933438 -0.061549328
1.3078054 0.56845999 -0.075382859
1.2773132 0.61173928 -0.088358216
1.3490682 0.47256914 -0.1009091
1.3318353 0.5218333 -0.11458616
1.3108876 0.56955487 -0.12808719
1.3535992 0.64778095 -0.14904086
1.3523014 0.47327775 -0.15417683
1.3244833 0.51828617 -0.16657604
1.3440917 0.58356315 -0.18547525
1.3934909 0.66645318 -0.21096054
1.3464398 0.46998695 -0.20662354
1.3485785 0.52684653 -0.22359361
1.3687738 0.59365487 -0.24530852
1.3909506 0.6649698 -0.2688807
1.3795395 0.48035249 -0.26712766
1.3685338 0.53389925 -0.28298935
1.3815203 0.59818077 -0.30475789
1.4173808 0.67705834 -0.33445451
1.360386 0.47221956 -0.31934896
1.3688955 0.53332478 -0.34022626
1.4040557 0.60776371 -0.36976659
1.44857 0.69257802 -0.4053604
1.4262247 0.49356794 -0.39480889
1.4588802 0.56712234 -0.42535284
2.1401968 0.92574674 -0.65839213
1.5971122 0.76366621 -0.5196842
5.8179817 2.0057271 1.9012189
5.9543815 2.3112788 1.8970768
0 0 0
0 0 0
6.7549591 2.3334961 1.908124
0 0 0
0 0 0
0 0 0
2.0489743 0.70785683 0.49231315
1.3138733 0.50981408 0.30527154
1.2796749 0.55176222 0.28795832
1.2079328 0.57404506 0.26294434
1.3838686 0.47843501 0.27587664
1.3328321 0.51676911 0.25458258
1.276189 0.54949331 0.23383747
1.342762 0.63748795 0.23584898
1.3458486 0.46515912 0.21428713
1.3187407 0.51053792 0.19864048
1.3099109 0.56320029 0.18650222
1.2937211 0.61279482 0.17358711
1.3449527 0.4645867 0.16089016
1.3506135 0.52285004 0.14969122
1.2999673 0.55830675 0.13274024
1.2673484 0.59954482 0.11841989
1.3675832 0.47216353 0.11035979
1.3177462 0.50965047 0.094115093
1.3045982 0.55991811 0.081236608
1.2679161 0.59929889 0.066675954
1.3602459 0.46915209 0.056810383
1.3277844 0.51278704 0.042592525
1.2846851 0.55060184 0.028740827
1.2704282 0.5998354 0.015325869
1.3471849 0.46443686 0.0040539582
1.321072 0.50963843 -0.0096630454
1.2794962 0.54777002 -0.022399008
1.2757307 0.60176724 -0.036172505
1.3532761 0.46574417 -0.048477381
1.3303076 0.51264125 -0.061722338
1.308514 0.55924737 -0.075224489
1.283751 0.60516703 -0.088545024
1.3491122 0.46331054 -0.10069785
1.3378031 0.51472533 -0.11482571
1.322601 0.56502235 -0.12889053
1.348546 0.63522279 -0.14805253
1.3570608 0.46561661 -0.15439081
1.3248571 0.50908077 -0.16622707
1.3330482 0.56907284 -0.18346603
1.3930718 0.65578038 -0.21028394
1.3492982 0.46171647 -0.20662354
1.3508631 0.51820797 -0.223441
1.366037 0.58253562 -0.24417283
1.3878735 0.65306705 -0.26750621
1.3545325 0.46234587 -0.26173115
1.3782027 0.52795088 -0.2843135
1.3779504 0.5866214 -0.30317062
1.4046912 0.66044176 -0.33049771
1.3641821 0.464178 -0.31956547
1.3630431 0.52143449 -0.33797014
1.3943425 0.59342742 -0.36624274
1.4475286 0.68119961 -0.40389168
1.3815854 0.46864724 -0.38164857
1.4695451 0.56091309 -0.42745075
1.8730683 0.79659235 -0.57470047
1.606977 0.75630373 -0.52137429
5.8401356 1.9733551 1.9044658
5.9720345 2.2760653 1.8982158
0 0 0
0 0 0
6.7481027 2.284878 1.9021909
0 0 0
0 0 0
0 0 0
2.0255694 0.68588835 0.48566926
1.3525953 0.51531273 0.31352782
1.2514788 0.53052217 0.28087568
1.314533 0.61484575 0.28532258
1.4100462 0.47781956 0.28050545
1.3295373 0.50612944 0.25335526
1.2740879 0.53934592 0.23284172
1.2849082 0.60038817 0.22503597
1.3477407 0.45657507 0.21413831
1.3274025 0.50454772 0.19947509
1.313342 0.55515224 0.18650222
1.3028554 0.60736185 0.1743094
1.3534251 0.4582375 0.16156428
1.3500769 0.51313937 0.14927997
1.2941962 0.54644704 0.13180611
1.2845534 0.59806591 0.11968236
1.3638431 0.46152601 0.10982738
1.3348405 0.50686842 0.095112085
1.3080093 0.55190271 0.081236608
1.2634184 0.58771616 0.066248544
1.3896037 0.4697569 0.057915028
1.3178211 0.49966905 0.042173781
1.2917247 0.54426157 0.028823061
1.2713643 0.59076476 0.015293145
1.351904 0.45680216 0.0040596481
1.334461 0.5054189 -0.0097381119
1.2855979 0.54107249 -0.022447282
1.2821193 0.59519094 -0.036249414
1.3466384 0.45423749 -0.048138849
1.3381002 0.50623655 -0.061938606
1.3100796 0.55043435 -0.075118914
1.2928724 0.59979886 -0.088918634
1.3377485 0.45025083 -0.099641569
1.3409362 0.50650704 -0.11482571
1.3104316 0.55034012 -0.12737311
1.3424875 0.62233263 -0.14696537
1.3589497 0.45696416 -0.15428381
1.3223802 0.49883869 -0.16552913
1.3264521 0.55665976 -0.18208469
1.3934733 0.64555436 -0.20974268
1.3417845 0.44996735 -0.20504625
1.3382944 0.50398833 -0.22084638
1.3686756 0.57376128 -0.24401058
1.384703 0.64122725 -0.26613176
1.340552 0.44840908 -0.25849324
1.3777399 0.51810193 -0.28355685
1.3770032 0.57626355 -0.30217856
1.3998405 0.64770305 -0.32841516
1.3688569 0.4564164 -0.3199985
1.3552725 0.50895119 -0.33526278
1.4024411 0.5867365 -0.36741737
1.4420031 0.66782284 -0.40119907
1.398206 0.4647384 -0.38544482
1.454886 0.54511398 -0.42220595
1.8548353 0.77543324 -0.5676356
1.6307418 0.75530094 -0.52757108
5.8303657 1.9302766 1.8973817
5.9903769 2.2410583 1.8996394
6.0269246 2.5194256 1.8710179
0 0 0
6.7647462 2.2443419 1.9029647
0 0 0
0 0 0
1.2065349 0.55638134 0.3129513
2.0204844 0.67037588 0.48345461
1.3035531 0.48749036 0.30146092
1.2791177 0.53300363 0.28633943
1.2131037 0.55835813 0.26255852
1.9706711 0.65434474 0.39122641
1.3621291 0.50898963 0.25896591
1.2974033 0.53985268 0.23649283
1.3154879 0.6048708 0.22973727
1.3514553 0.44860846 0.21428713
1.3249066 0.49431652 0.19864048
1.3213019 0.54898548 0.1871507
1.276781 0.58569688 0.17033687
1.3486663 0.44742134 0.16066545
1.3457445 0.50206429 0.14845751
1.3012031 0.54002225 0.13217977
1.2827634 0.5876826 0.11917737
1.3562385 0.44969693 0.10899075
1.3397955 0.49936542 0.095245011
1.315982 0.54577887 0.081522249
1.2670008 0.5799529 0.066248544
1.3839231 0.45839399 0.057559967
1.3217989 0.49192223 0.042203691
1.3052008 0.54053342 0.029049205
1.2749653 0.58295268 0.015293145
1.3660733 0.45226997 0.0040937862
1.3365998 0.49687287 -0.0097312881
1.2944372 0.53546721 -0.022543829
1.288475 0.58855885 -0.036326323
1.3494003 0.44596612 -0.048138849
1.343991 0.49905992 -0.062068366
1.3171242 0.54391009 -0.075330071
1.2965283 0.59185469 -0.088918634
1.337644 0.4410969 -0.099430315
1.3449534 0.49861613 -0.11490556
1.3101012 0.54076904 -0.12701608
1.3345109 0.608715 -0.14568053
1.3522847 0.44550616 -0.15321387
1.327279 0.49140501 -0.16576178
1.3234229 0.54586232 -0.18120568
1.4046205 0.64027977 -0.21082522
1.3445202 0.44172585 -0.20504625
1.3469236 0.49782294 -0.22176214
1.3694334 0.56422478 -0.24352385
1.3787506 0.62822568 -0.26424187
1.3386042 0.4386436 -0.25759381
1.3882626 0.51235843 -0.28507015
1.3714488 0.56407535 -0.30019447
1.4073491 0.64072269 -0.32924819
1.3660635 0.44618997 -0.31869948
1.3510571 0.49793068 -0.33345786
1.390732 0.57183629 -0.36342368
1.449603 0.66057056 -0.40217823
1.3881524 0.45195729 -0.38190165
1.4491462 0.53284633 -0.41958353
1.8301829 0.75196809 -0.55866867
1.6362185 0.74567854 -0.52785271
5.840282 1.8938763 1.8967912
6.0157137 2.2085547 1.9033407
5.9613504 2.4491529 1.8459609
0 0 0
6.7829843 2.2042851 1.9042546
2.0290799 0.74433535 0.55331844
1.3190066 0.54074216 0.35049057
1.2152444 0.55138081 0.31432691
2.033834 0.66097987 0.48566926
1.3211998 0.48487017 0.30484813
1.3521464 0.5537219 0.30192116
1.2460033 0.56426191 0.26892474
1.9737142 0.6419366 0.39104122
1.3624536 0.49960533 0.25843993
1.3399403 0.54793155 0.2436291
1.2930789 0.58498222 0.22519267
1.3570038 0.44122493 0.21473357
1.3260549 0.48549682 0.19836228
1.3283174 0.54236704 0.18766947
1.2930185 0.58356893 0.17202218
1.3504412 0.43883055 0.1605531
1.3487997 0.49379751 0.14845751
1.3100237 0.53428406 0.13274024
1.2799861 0.5769344 0.11858822
1.3608689 0.44198275 0.10914286
1.3568904 0.49627617 0.096241996
1.3109853 0.53430271 0.081008092
1.2896618 0.58078104 0.067245834
1.4066691 0.45636925 0.058388449
1.3304259 0.48585987 0.042383153
1.314049 0.53477591 0.029172555
1.2785182 0.57511866 0.015293145
1.3745301 0.44573018 0.004110856
1.3358656 0.48729154 -0.009703991
1.3014035 0.52902073 -0.022608195
1.2829438 0.57654417 -0.036069963
1.3549638 0.43860134 -0.048240412
1.3442118 0.48977789 -0.061938606
1.3139596 0.53318971 -0.074960545
1.311061 0.58879477 -0.089665845
1.3374776 0.43196124 -0.099219061
1.3517346 0.49171734 -0.11522496
1.3198555 0.53534073 -0.12764089
1.3300499 0.59684849 -0.14479102
1.351208 0.43597907 -0.15278591
1.3386707 0.48630384 -0.16680868
1.3184723 0.53437781 -0.18007548
1.3994823 0.62759489 -0.20947205
1.3443789 0.43255833 -0.20461608
1.3425201 0.48685363 -0.22054113
1.3628087 0.55173826 -0.24173921
1.3807813 0.61894804 -0.26389822
1.3497003 0.43312702 -0.25921279
1.3913803 0.50383055 -0.28507015
1.3667055 0.55234444 -0.29840878
1.3996497 0.62687796 -0.32654092
1.3743547 0.43958405 -0.3199985
1.3577515 0.49095652 -0.33436033
1.3888072 0.56110752 -0.36201417
1.4368187 0.64412755 -0.39752734
1.3899776 0.44313738 -0.38164857
1.4551116 0.52492696 -0.42037025
1.5599051 0.62975961 -0.47497708
2.1389458 0.95898163 -0.68812388
5.8681841 1.8632098 1.9021044
6.0237403 2.1696525 1.9016324
5.987855 2.4172068 1.8495404
0 0 0
6.7945399 2.1620378 1.9037386
2.0554855 0.73974419 0.55927074
0 0 0
0 0 0
2.0341344 0.64730525 0.48478341
1.3673688 0.49231505 0.31479806
1.3328055 0.53627586 0.29686216
1.3068053 0.58216029 0.28127134
1.9935344 0.63488364 0.39418885
1.3701253 0.4929024 0.25931656
1.3341267 0.53602308 0.24196951
1.3182999 0.58667439 0.22895372
1.3502629 0.4298903 0.21324547
1.3327367 0.47869015 0.19891869
1.3316203 0.53420645 0.18766947
1.3056481 0.57965231 0.17322597
1.3540554 0.43083745 0.16066545
1.3480595 0.48416719 0.14804626
1.3280643 0.53216106 0.13423486
1.2816802 0.56826192 0.11841989
1.357854 0.43181121 0.10868651
1.3674233 0.49063691 0.096773721
1.3198 0.52847528 0.081350863
1.2904613 0.57164323 0.067103364
1.4237279 0.45226732 0.058980227
1.3427919 0.48105848 0.04268226
1.315449 0.52596062 0.029131439
1.2856807 0.56888145 0.015336777
1.3800985 0.43819571 0.0041193906
1.3322399 0.47672731 -0.0096562216
1.3074107 0.52213806 -0.022656469
1.2873716 0.56906551 -0.036095601
1.3538187 0.4290714 -0.048105001
1.3471917 0.48152074 -0.061938606
1.3311206 0.53066438 -0.075752385
1.3128232 0.57993263 -0.089541309
1.3362985 0.42254356 -0.098937392
1.3481545 0.48106894 -0.11466601
1.3231153 0.52723217 -0.12764089
1.3300456 0.58706892 -0.14439569
1.3519615 0.42708102 -0.15257193
1.3425652 0.47841415 -0.16692501
1.3180395 0.52480978 -0.17957319
1.4005871 0.61779636 -0.20906609
1.3498396 0.42519325 -0.20504625
1.3398954 0.4766196 -0.2196254
1.3707528 0.5451892 -0.24255042
1.372835 0.60529739 -0.26166475
1.3635942 0.4283751 -0.26137137
1.3833418 0.49133986 -0.2828002
1.3691579 0.54358643 -0.29821035
1.40526 0.61906666 -0.3269574
1.3779578 0.4314346 -0.32021502
1.3634928 0.4835932 -0.33503714
1.3868032 0.55042386 -0.36060464
1.4345338 0.63256091 -0.39581385
1.4914874 0.46543735 -0.40872845
1.4528468 0.51405734 -0.41879684
1.5297455 0.60669428 -0.46465147
2.1526911 0.94932371 -0.69065893
5.8749442 1.8257506 1.9006284
6.0342278 2.1316926 1.9007782
6.0258088 2.3896346 1.8566996
0 0 0
6.8510337 2.13381 1.9158628
2.0709479 0.73098749 0.56224692
1.3264461 0.52487254 0.35072935
1.071296 0.47030231 0.27558056
2.0268953 0.6313318 0.48212582
1.8551058 0.65509242 0.42615226
1.2695861 0.50180942 0.28208986
1.3256311 0.58082515 0.28455091
1.9861343 0.61913007 0.391967
1.3591977 0.47957253 0.2566866
1.3263834 0.52348268 0.239978
1.2883981 0.56392193 0.22315544
1.3717569 0.42748126 0.21622168
1.3328468 0.46951655 0.19850136
1.3293381 0.5238446 0.1868913
1.3073606 0.57083559 0.17298523
1.3614171 0.42399836 0.16122723
1.3434994 0.47324273 0.14722377
1.3137021 0.51707387 0.13246001
1.2897099 0.56237841 0.11884072
1.3547658 0.42169344 0.10823017
1.3741729 0.48356211 0.09703958
1.323947 0.52073264 0.081407994
1.2893659 0.5617196 0.066865914
1.4283844 0.44411629 0.059059128
1.3391171 0.4704909 0.042472888
1.3260962 0.52080309 0.029295906
1.2937315 0.5629769 0.015391317
1.4075898 0.43743527 0.0041933577
1.3304222 0.46688822 -0.0096221007
1.3161747 0.51629686 -0.022753015
1.2954232 0.56314838 -0.03622378
1.3678806 0.42430961 -0.048511233
1.3406926 0.46994066 -0.061506074
1.3390009 0.52430731 -0.076016329
1.3126951 0.5702756 -0.089292236
1.3483952 0.41728523 -0.099641569
1.3482584 0.47180006 -0.11442646
1.3263254 0.51910377 -0.12764089
1.3336227 0.57889688 -0.14439569
1.3431578 0.4152534 -0.151288
1.3501635 0.47180554 -0.16750664
1.3221589 0.51707393 -0.17969877
1.3743556 0.59617907 -0.2046006
1.3458029 0.41486201 -0.20404254
1.3315969 0.46448323 -0.21779391
1.3575282 0.53030539 -0.23963009
1.3701963 0.59411913 -0.26046208
1.3671372 0.42028925 -0.26155129
1.3826213 0.48155069 -0.28204352
1.3697282 0.53410697 -0.29761514
1.4027498 0.60771084 -0.32549962
1.3852464 0.42440143 -0.32129756
1.3599933 0.47297779 -0.33345786
1.3820037 0.53872693 -0.35849032
1.4259346 0.61834645 -0.39238688
1.4508274 0.44299832 -0.39683354
1.4669138 0.50892878 -0.42194372
1.552271 0.60463178 -0.47035775
2.1241443 0.9212082 -0.67967373
5.8887787 1.7905021 1.9015141
6.0589695 2.098706 1.9044795
1.904464 0.74175614 0.58539867
0 0 0
6.868618 2.0931408 1.9171525
2.0836334 0.72111809 0.56447899
1.2843848 0.49913612 0.33879164
0 0 0
2.0363276 0.62058884 0.48345461
2.0160925 0.69805831 0.46214131
1.2881612 0.50003445 0.28552997
1.3003339 0.56025606 0.27837762
1.9955356 0.60865194 0.39307791
1.3844445 0.47894856 0.26089457
1.3516378 0.52388757 0.24396102
1.3036275 0.56108177 0.22519267
1.3658413 0.4164606 0.21488239
1.3357027 0.46132949 0.19850136
1.3316026 0.51532018 0.1867616
1.3199607 0.56671953 0.17418902
1.3734982 0.4185333 0.16235076
1.3463778 0.46499026 0.14722377
1.3317087 0.51474673 0.13395461
1.2940521 0.554847 0.11892489
1.3697277 0.41714922 0.10921893
1.380887 0.476423 0.097305447
1.3233919 0.51116037 0.081179485
1.3065609 0.55969745 0.067578264
1.4234349 0.43301705 0.058743514
1.3646601 0.47007832 0.04319074
1.3311324 0.513376 0.029337024
1.2990003 0.55581486 0.015413134
1.4045068 0.42704481 0.0041762884
1.3332618 0.45871612 -0.0096221007
1.3249161 0.51036775 -0.022849564
1.2970157 0.55440336 -0.036172505
1.3924545 0.42258391 -0.049289852
1.3407165 0.46073142 -0.061376311
1.3403287 0.51536471 -0.075910755
1.3216766 0.56456268 -0.089665845
1.3423377 0.40640232 -0.099007808
1.3445278 0.46125421 -0.11386751
1.3369234 0.51381433 -0.12835497
1.3289125 0.56718737 -0.14350618
1.3551972 0.40988252 -0.15235794
1.3567914 0.46479976 -0.16797194
1.3280851 0.51001853 -0.18007548
1.3470013 0.57451868 -0.19999979
1.346428 0.40602505 -0.20375577
1.3316164 0.45534468 -0.21733604
1.3635204 0.52302593 -0.24011679
1.3720037 0.58492792 -0.26011845
1.3725163 0.41274256 -0.26209092
1.3781158 0.47051981 -0.28053021
1.3812175 0.52884656 -0.29940081
1.3839562 0.5895099 -0.32029331
1.3878244 0.41589373 -0.32129756
1.3610257 0.4639954 -0.33300662
1.3752975 0.52641487 -0.35590622
1.4145397 0.60312068 -0.38822559
1.5619758 0.46647835 -0.4264442
1.4809723 0.50364679 -0.42509058
1.546963 0.59165794 -0.46764046
1.9435244 0.82874537 -0.62024105
5.9042335 1.7556971 1.90299
6.0735488 2.0621059 1.9050491
6.1561441 2.3543122 1.8878143
0 0 0
6.8720732 2.0481968 1.914573
2.0760925 0.70427382 0.56125486
0 0 0
1.3063616 0.55447721 0.33427325
2.0335555 0.60613263 0.48190439
2.0018282 0.6793927 0.45790729
1.2994411 0.49526 0.28735122
1.3480185 0.57102019 0.2878305
1.9992326 0.59639609 0.39307791
1.3808306 0.46823168 0.25966725
1.3511404 0.51418126 0.24329719
1.2861257 0.54422009 0.22158833
1.3645804 0.40694171 0.21428713
1.3431981 0.45471278 0.19919689
1.3347394 0.50713992 0.1867616
1.3270715 0.56015396 0.17467053
1.3788973 0.4109492 0.16268782
1.346379 0.45576346 0.14691535
1.3506666 0.51257116 0.13554265
1.3020233 0.54883164 0.11934571
1.3770396 0.41016006 0.10959921
1.3828391 0.46762142 0.09723898
1.3377055 0.50727856 0.08186502
1.3062881 0.55011928 0.067388304
1.4212763 0.42285016 0.058546256
1.3864595 0.46809077 0.043788947
1.3323874 0.50449061 0.029295906
1.3033079 0.54822153 0.015424042
1.4253125 0.42383438 0.0042303409
1.347422 0.45436102 -0.009703991
1.3242818 0.50081384 -0.022785198
1.3022363 0.54720914 -0.03622378
1.4036442 0.41659126 -0.049594525
1.3340502 0.44930744 -0.060943779
1.3509398 0.50995225 -0.076333068
1.3195945 0.55412388 -0.089292236
1.3658487 0.40438834 -0.10055701
1.3435533 0.45172495 -0.11354809
1.3437784 0.50700784 -0.128712
1.3277797 0.55709761 -0.14301202
1.347199 0.39845756 -0.15118103
1.3605593 0.45678198 -0.16808826
1.3293329 0.50116003 -0.17982434
1.3422775 0.5627948 -0.19878194
1.3488941 0.39775589 -0.20375577
1.3353224 0.44747949 -0.21748868
1.358393 0.51152009 -0.23865663
1.3701154 0.57421374 -0.25908759
1.3778542 0.40514567 -0.26263055
1.3753897 0.46018562 -0.27939525
1.3743443 0.51656842 -0.29721829
1.3776233 0.57685155 -0.31800252
1.3931608 0.40819389 -0.32194707
1.3656951 0.45625293 -0.33345786
1.3721323 0.51557297 -0.35426173
1.4208964 0.59555429 -0.38895994
1.5202326 0.44387034 -0.41429624
1.516993 0.50553346 -0.43453121
1.7938253 0.67348647 -0.54100651
1.8653911 0.78193635 -0.59376389
5.9286571 1.723437 1.9074175
6.0833583 2.0238924 1.9041948
6.1704741 2.3164945 1.8878143
0 0 0
6.8900766 2.0076137 1.9161208
2.1382909 0.71077329 0.57687974
1.3940829 0.52216762 0.36600959
1.3079426 0.5457015 0.33381474
2.0419173 0.5950076 0.48301166
2.0078139 0.66771382 0.45833072
1.3859227 0.51850438 0.30576599
1.2826537 0.53407317 0.27316886
2.0075712 0.58549345 0.39400366
1.923695 0.63918006 0.36100933
1.3237849 0.49449363 0.23782051
1.2940003 0.53821474 0.22237188
1.3784437 0.40188247 0.21607286
1.3431431 0.44552717 0.19877957
1.335968 0.49824759 0.18650222
1.3359852 0.5542832 0.17539281
1.3813928 0.40248072 0.16268782
1.3482062 0.44718054 0.14681254
1.3565853 0.50531656 0.13582289
1.3053664 0.54083222 0.11934571
1.3852743 0.40337557 0.11005555
1.3799994 0.45724469 0.09684018
1.3464067 0.50115055 0.082207784
1.3207142 0.54667801 0.067958184
1.4161683 0.41188896 0.058230642
1.3949994 0.46145827 0.043968409
1.3317091 0.49491265 0.029213674
1.3177361 0.54479885 0.015554939
1.4250056 0.41424343 0.0042218063
1.3511341 0.44639856 -0.0097108148
1.3282672 0.49302673 -0.022801289
1.3009496 0.53730047 -0.036095601
1.4157724 0.4107556 -0.049933054
1.3386794 0.44173953 -0.061030287
1.3484249 0.49957186 -0.076016329
1.3220472 0.54563582 -0.089229971
1.3711789 0.39683199 -0.10076826
1.341566 0.44191325 -0.11314884
1.340326 0.4963319 -0.12808719
1.3302531 0.54856068 -0.14291319
1.3543942 0.39156449 -0.15171598
1.3586191 0.44687352 -0.16750664
1.3323829 0.49299395 -0.17982434
1.3429573 0.55341566 -0.19837599
1.3532112 0.39001989 -0.20404254
1.3361651 0.43866116 -0.21718343
1.3476225 0.49804455 -0.23622301
1.3672367 0.56316972 -0.25788495
1.3755871 0.39532518 -0.26173115
1.3697895 0.44898507 -0.27769276
1.3866836 0.51151788 -0.29920241
1.3684742 0.56317663 -0.31508699
1.4059633 0.40259421 -0.32432866
1.3638395 0.4463495 -0.33232978
1.37527 0.50714403 -0.35426173
1.404801 0.57869989 -0.38357469
1.4289654 0.40772402 -0.38873488
1.5503392 0.50609821 -0.44318512
1.8051481 0.66512895 -0.54318029
1.6820741 0.69298965 -0.53404951
5.963016 1.6938148 1.9150921
6.1065993 1.9900919 1.9076115
6.2062211 2.286566 1.8944227
1.3469844 0.55417985 0.40204343
6.9189916 1.9700618 1.920764
2.0928693 0.68144333 0.56348699
2.0462167 0.75214654 0.53600228
1.3139682 0.53877372 0.33450255
2.1233747 0.60463381 0.5013932
2.0230243 0.65901405 0.4608711
1.3743691 0.50459051 0.30252823
1.3122423 0.53696948 0.27876344
2.0196319 0.57558835 0.39567006
1.9528575 0.63559127 0.36574334
1.3508673 0.49518618 0.24213548
1.2972783 0.53026479 0.22237188
1.3723245 0.39097843 0.21473357
1.3439679 0.43666542 0.19850136
1.339 0.49004087 0.18650222
1.3430382 0.54757452 0.17587434
1.3876591 0.39508545 0.16313723
1.3603849 0.44197318 0.14784063
1.3521794 0.49424878 0.13507558
1.311429 0.53393972 0.11959821
1.3953956 0.39705119 0.11066402
1.3742375 0.44599649 0.096241996
1.359772 0.49664739 0.082836203
1.3175669 0.53592944 0.067625754
1.4273194 0.40565023 0.058585707
1.4092152 0.45658711 0.044327337
1.3403565 0.48878726 0.029337024
1.318275 0.53557402 0.015522216
1.4361778 0.40795115 0.0042474102
1.380487 0.44672012 -0.0099018924
1.3246909 0.48247212 -0.022688651
1.301443 0.52818006 -0.036018692
1.4278815 0.40478668 -0.050271586
1.3394634 0.43290275 -0.060943779
1.3420796 0.48787695 -0.075488441
1.3299947 0.53938913 -0.089541309
1.3870262 0.39221108 -0.10175411
1.3385602 0.4318369 -0.11266973
1.3461545 0.48911887 -0.12835497
1.3345162 0.54076177 -0.14301202
1.3663396 0.38594943 -0.15278591
1.3622808 0.43883333 -0.16762297
1.339113 0.48616356 -0.18032664
1.3398992 0.54256189 -0.19742876
1.3546262 0.38144118 -0.20389915
1.3360089 0.42954683 -0.21672556
1.3423042 0.48673889 -0.23476283
1.3688402 0.55403072 -0.25754133
1.3628337 0.38262299 -0.25885299
1.3706487 0.43997151 -0.27731442
1.3851881 0.50133193 -0.29821035
1.3573961 0.54890251 -0.31175494
1.4131081 0.39527476 -0.32541117
1.3563474 0.43470207 -0.32984802
1.3737857 0.49704251 -0.35308713
1.4038317 0.56825036 -0.3823508
1.4985391 0.41764909 -0.40695682
1.5929402 0.50921077 -0.45446143
1.8173409 0.65698493 -0.54562587
1.5840139 0.64124978 -0.50165725
5.951201 1.6510643 1.9080079
6.1159558 1.9517108 1.9067574
6.2309837 2.2523639 1.8977269
0 0 0
6.9393268 1.9299003 1.9230856
2.1191626 0.67565143 0.56943929
2.0562742 0.74155366 0.53743482
1.3353062 0.53797609 0.3390879
1.8170072 0.50536311 0.42831025
2.0214431 0.64480656 0.45960087
1.4317998 0.51572841 0.31446746
1.2872903 0.51756078 0.27278304
2.014605 0.56081337 0.39400366
1.9679768 0.62718409 0.36784729
1.3613039 0.4895578 0.24346316
1.3069232 0.52487141 0.22346887
1.393751 0.38785279 0.21770978
1.3560586 0.43141294 0.1998924
1.3373156 0.48014039 0.18585375
1.3463727 0.53932351 0.17587434
1.3929292 0.38736218 0.16347429
1.3697064 0.43572849 0.1485603
1.3570609 0.48661476 0.1352624
1.3183812 0.52736324 0.11993486
1.399727 0.38901573 0.11081613
1.3636352 0.43332541 0.095311478
1.3721923 0.49166217 0.083407484
1.3263958 0.53005898 0.067910694
1.4211162 0.39447939 0.058230642
1.4253289 0.45216319 0.044746082
1.3442718 0.48089054 0.029357582
1.3308233 0.53118193 0.015631296
1.4762344 0.40955731 0.0043583605
1.3660431 0.4328047 -0.0097790565
1.3276265 0.4743349 -0.022688651
1.3158022 0.52462745 -0.036326323
1.4505653 0.401618 -0.050982498
1.3420944 0.42467582 -0.060943779
1.3459885 0.47996834 -0.075541228
1.3379152 0.53306532 -0.089852653
1.4201756 0.39219007 -0.1040075
1.3392837 0.42301509 -0.11251003
1.3444394 0.47917789 -0.12790866
1.33596 0.53182709 -0.14281435
1.3514297 0.37279934 -0.15086004
1.3507395 0.42598537 -0.1658781
1.339267 0.47693929 -0.17994991
1.3413616 0.53359777 -0.19715811
1.3521699 0.3718102 -0.20318221
1.3376766 0.42104444 -0.21657293
1.3424766 0.47750148 -0.23427613
1.3777065 0.54780519 -0.25857219
1.3803347 0.37841487 -0.26173115
1.3639548 0.42860934 -0.27542278
1.3928564 0.49446264 -0.29920241
1.3661923 0.54272991 -0.31300443
1.4079727 0.38453895 -0.32367915
1.3627075 0.42753804 -0.3307505
1.3703974 0.48632815 -0.35144269
1.409094 0.56034249 -0.38284037
1.5048076 0.40946242 -0.40796918
1.6476088 0.51556551 -0.46914685
1.8195237 0.64517826 -0.54508239
1.5781113 0.62761796 -0.49855888
5.9151087 1.6020288 1.8932493
6.1058559 1.9072875 1.8999242
6.2165985 2.2041302 1.8891912
0 0 0
6.9398489 1.8842472 1.9199901
7.143837 2.2294693 1.9159054
2.074518 0.73377991 0.5410161
1.3367718 0.52905625 0.33862936
8.5742979 2.3281791 2.0177531
2.0281603 0.63326496 0.46023598
1.4838766 0.52422261 0.32519257
1.2959175 0.51181501 0.27394053
2.0511992 0.55746186 0.400484
1.9821265 0.61832201 0.36977598
1.3335927 0.47037131 0.23798646
1.3220625 0.52155411 0.22550608
1.394196 0.37877509 0.21741216
1.3577348 0.42278981 0.19975331
1.3449128 0.47357237 0.18650222
1.3422663 0.52814424 0.17491129
1.3991157 0.37984946 0.16392371
1.3714045 0.42702022 0.14845751
1.3572035 0.47728792 0.13498217
1.3225197 0.51962829 0.12001903
1.4068991 0.38172531 0.11119642
1.371985 0.42672819 0.09571027
1.3827184 0.48588118 0.08386451
1.3277637 0.52118045 0.067815714
1.4215811 0.38522947 0.058151741
1.4194851 0.44074148 0.044476889
1.3471972 0.47263321 0.029357582
1.3387123 0.52483106 0.015685836
1.4825804 0.40153727 0.0043697399
1.3973262 0.43329984 -0.0099837827
1.3257937 0.46452668 -0.022608195
1.3301666 0.52091837 -0.036633957
1.4703689 0.39740369 -0.051591847
1.3589901 0.42086616 -0.061592579
1.3432524 0.46972269 -0.075224489
1.350455 0.52848321 -0.090475328
1.4379654 0.38762265 -0.10513417
1.3428065 0.41508383 -0.11258989
1.3341908 0.46631879 -0.12665904
1.3364178 0.52253264 -0.14251785
1.3536917 0.36450011 -0.15086004
1.3533279 0.41768935 -0.1658781
1.3459147 0.47002104 -0.18045221
1.3492248 0.52716011 -0.1978347
1.3582492 0.36453259 -0.20375577
1.338346 0.41224682 -0.21626768
1.3397909 0.46730539 -0.23330267
1.3727831 0.53611612 -0.2570259
1.3541229 0.36231059 -0.25633463
1.3712518 0.42167532 -0.27636862
1.3866076 0.48268473 -0.29721829
1.3658521 0.53291488 -0.31217143
1.4197391 0.37840688 -0.32584423
1.3876567 0.42603084 -0.33616525
1.3724377 0.47759098 -0.35120779
1.4052806 0.54886395 -0.38088211
1.5129019 0.40171102 -0.40948766
1.5999918 0.48990715 -0.45472369
1.8189033 0.63242155 -0.54372376
1.5926574 0.62211233 -0.50193894
5.9433022 1.5705864 1.8991528
6.1064429 1.8664243 1.8965075
6.2182012 2.1618404 1.8856115
1.9146473 0.74682426 0.56727773
6.9176583 1.8327222 1.9107035
7.1712799 2.1898375 1.9196255
2.0633843 0.71562779 0.53695732
1.389891 0.54023904 0.35123911
8.5912495 2.2762737 2.0184176
2.034812 0.62166512 0.4608711
1.924764 0.66672325 0.42090884
1.2990335 0.50385374 0.27394053
2.0612302 0.54662877 0.40178007
1.9717587 0.6018371 0.36714599
1.3728008 0.47474945 0.2444589
1.3224751 0.51236188 0.22503597
1.4108317 0.37401429 0.21964432
1.3565142 0.41329646 0.19919689
1.3449814 0.46434048 0.18611313
1.3464078 0.52025616 0.17503168
1.4148675 0.3748199 0.16549665
1.3701928 0.41743785 0.14804626
1.3525765 0.466355 0.13423486
1.3303314 0.51329714 0.12043986
1.4140345 0.37436154 0.11157671
1.3812594 0.42033523 0.096175529
1.3894495 0.47868863 0.084093027
1.3337326 0.51410145 0.067958184
1.4326123 0.37879837 0.058506802
1.4393779 0.437253 0.045015279
1.3557444 0.46630913 0.029480932
1.3437737 0.51732546 0.015707653
1.5043526 0.3975426 0.0044266381
1.3970879 0.42384693 -0.0099633094
1.3286191 0.45638302 -0.022608195
1.3305387 0.51167041 -0.036557049
1.4727796 0.38837418 -0.051591847
1.3701522 0.41512686 -0.061981861
1.3366629 0.45823342 -0.0746966
1.3452877 0.51696491 -0.089914918
1.4586464 0.38361272 -0.10647213
1.3510528 0.40856791 -0.11306898
1.3389117 0.45876929 -0.12683757
1.3395988 0.5143227 -0.14251785
1.3751354 0.36123943 -0.15299989
1.3549144 0.40909052 -0.16576178
1.3459575 0.4607898 -0.18007548
1.3441086 0.51567739 -0.19661684
1.3633325 0.35694361 -0.20418592
1.3342265 0.40203124 -0.21519932
1.3482351 0.46099129 -0.23427613
1.3668486 0.5241555 -0.25530779
1.373453 0.35846654 -0.25957254
1.3738134 0.41325355 -0.27636862
1.3793397 0.47068572 -0.29503581
1.3608763 0.52137488 -0.31029716
1.4248688 0.37042528 -0.32649371
1.3743827 0.41274479 -0.33232978
1.3652227 0.46570882 -0.34862363
1.4050007 0.5388422 -0.37990296
1.5172114 0.39290556 -0.40999386
1.5900255 0.47620445 -0.45105231
1.8236604 0.6215595 -0.5439955
1.6940948 0.64978266 -0.53264111
5.9870596 1.5429114 1.9100741
6.095737 1.8223311 1.8896742
6.2395382 2.1264365 1.8880897
0 0 0
6.9399986 1.793142 1.913799
7.1799402 2.1444077 1.9183854
2.0548649 0.69857776 0.53361475
1.3004223 0.49630019 0.32785374
8.6088314 2.2244916 2.0193033
2.0432703 0.61056721 0.46192962
1.9844576 0.67379194 0.43305045
1.2975159 0.49412751 0.27297598
2.0740595 0.53643173 0.40363157
1.9839047 0.59226197 0.36872399
1.652133 0.56002378 0.29358304
1.3237476 0.50353539 0.22472253
1.3882079 0.35891482 0.21577524
1.3637698 0.40637925 0.1998924
1.3515621 0.45735037 0.1866319
1.3440055 0.5098722 0.1743094
1.4123304 0.36488858 0.16493489
1.3813078 0.41157904 0.14897156
1.34881 0.4558157 0.13358097
1.3446379 0.50936055 0.12144983
1.429821 0.36916789 0.11264152
1.3828562 0.41156745 0.09610907
1.3980359 0.47207049 0.084435798
1.3303224 0.50343335 0.067625754
1.4658719 0.37798476 0.059769258
1.4401174 0.42784357 0.044955455
1.3898445 0.468521 0.030159365
1.3497288 0.51013106 0.015740376
1.4903014 0.38406214 0.004378275
1.4054143 0.41697314 -0.010004255
1.33708 0.45013624 -0.022704741
1.3364589 0.50455594 -0.036633957
1.5235318 0.39177531 -0.053284496
1.3927896 0.41267216 -0.062890179
1.3375562 0.4493871 -0.074591026
1.3559048 0.51151896 -0.090413056
1.4793314 0.37936336 -0.10781007
1.3468431 0.39829159 -0.11251003
1.3407571 0.45022815 -0.12674829
1.3427293 0.50609338 -0.14251785
1.4091104 0.36093637 -0.15653066
1.3545414 0.3999255 -0.1654128
1.3534623 0.45410034 -0.18070336
1.3481747 0.50776964 -0.19675218
1.387552 0.35420167 -0.20748387
1.3376161 0.39411631 -0.21535194
1.3416821 0.44957486 -0.23265369
1.3755709 0.51784128 -0.25633866
1.3965994 0.35536903 -0.26352999
1.3772651 0.40509325 -0.27655777
1.3831313 0.46252421 -0.2952342
1.3658807 0.51370353 -0.31071368
1.464023 0.37102917 -0.33493754
1.3834326 0.40622529 -0.33390906
1.3726639 0.45886406 -0.34979823
1.4073732 0.52986956 -0.37965819
1.5299119 0.38619334 -0.41277772
1.5929176 0.46643928 -0.45105231
1.8247014 0.60944337 -0.54318029
1.7932341 0.67521584 -0.56249833
5.9713945 1.4998622 1.9021044
6.1095648 1.7857008 1.8905284
6.2670579 2.0929837 1.8924953
1.8343416 0.68968695 0.54093599
6.9536815 1.7512331 1.914573
7.1929626 2.1003122 1.9183854
2.0996499 0.69946045 0.54411989
1.343549 0.50333661 0.33794156
8.618536 2.1706743 2.0184176
2.0572975 0.60103315 0.46425828
2.0062101 0.66747689 0.43689528
1.3336109 0.49852547 0.27992094
2.1163807 0.53354478 0.41122285
1.9922267 0.58145696 0.36960062
1.9325531 0.64188457 0.34270716
1.339766 0.50024015 0.22691649
1.4968204 0.37721318 0.23229322
1.3586315 0.39578792 0.19877957
1.3505783 0.44780052 0.18611313
1.3471087 0.50161594 0.1743094
1.4183971 0.35718647 0.16538431
1.3857173 0.40365213 0.14917716
1.354417 0.44846988 0.1338612
1.3533418 0.50318402 0.12195482
1.4368941 0.36160442 0.11302181
1.3834395 0.40251717 0.095976137
1.3952191 0.46160191 0.084093027
1.3502409 0.50152147 0.068480574
1.4662255 0.36849612 0.059690356
1.4302369 0.41537505 0.04456662
1.3926932 0.45998427 0.030159365
1.3453333 0.49905747 0.015653111
1.5091177 0.37905192 0.0044266381
1.4367584 0.4166981 -0.01020898
1.3559593 0.44724801 -0.022978295
1.3414044 0.49704081 -0.036685232
1.543357 0.38679302 -0.053893849
1.4260035 0.4130123 -0.064274281
1.3402884 0.44117156 -0.074591026
1.3524662 0.50076377 -0.089977182
1.4767926 0.36906993 -0.10745797
1.3540497 0.39140406 -0.11290929
1.3302487 0.43763527 -0.12549867
1.3504759 0.49957129 -0.14301202
1.3881466 0.34650436 -0.15396282
1.3560156 0.39133129 -0.16529648
1.3552808 0.44547734 -0.1805778
1.3596289 0.50257957 -0.19797002
1.3628081 0.33899209 -0.20346898
1.3419087 0.38644844 -0.21565719
1.3425403 0.44071847 -0.23232922
1.3611649 0.5029043 -0.25307429
1.4092562 0.34939688 -0.26550871
1.3853872 0.39826268 -0.27769276
1.383149 0.45311338 -0.29463896
1.3680894 0.50497425 -0.31050542
1.4729067 0.36367729 -0.33645308
1.4093096 0.40444747 -0.33954945
1.3699111 0.44861785 -0.3483887
1.4115074 0.52156013 -0.37990296
2.5966566 0.6385479 -0.69952035
1.6393545 0.46913496 -0.46337759
1.8274919 0.59793651 -0.54290861
1.8018435 0.66586304 -0.56390667
5.9786291 1.4627401 1.9015141
6.1867723 1.7671359 1.9110281
6.2843504 2.055985 1.893872
6.2589912 2.3095601 1.8415239
6.9605422 1.7076123 1.9135411
7.1973305 2.053745 1.9161533
2.0614364 0.67270625 0.53313726
1.6106359 0.59215182 0.40420014
8.6316929 2.1177511 2.0184176
2.0957186 0.59832591 0.4720912
2.02051 0.65849245 0.43912125
1.3587531 0.49844345 0.28455091
2.098619 0.51539254 0.40714949
2.0052245 0.57192218 0.37135395
1.9495836 0.63428587 0.34503058
1.3279725 0.48657349 0.22440912
2.097405 0.51490033 0.32500216
1.3848455 0.39422232 0.20225719
1.3580159 0.44103649 0.1867616
1.3557558 0.49538505 0.17503168
1.438898 0.35297459 0.16751902
1.3919947 0.3962312 0.14958841
1.356196 0.43984371 0.13376778
1.3667009 0.49862736 0.12288063
1.4507068 0.35562983 0.11393449
1.3935612 0.39620388 0.096507855
1.3923267 0.4511857 0.083750255
1.3654932 0.49767369 0.069097944
1.4713705 0.36020538 0.059808709
1.4269892 0.4049542 0.044387158
1.3992944 0.45266107 0.030241599
1.3361549 0.48634705 0.015511307
1.5774667 0.38594529 0.0046200901
1.4546816 0.41223675 -0.010318168
1.3558236 0.43799749 -0.02293002
1.344429 0.48880073 -0.036685232
1.5631778 0.38158199 -0.054503202
1.407362 0.39826983 -0.063322708
1.3401189 0.43202019 -0.074432656
1.350823 0.4907518 -0.089665845
1.4848447 0.36141706 -0.10788049
1.3900007 0.39257079 -0.11570407
1.335753 0.43038115 -0.12576644
1.3479035 0.48923847 -0.14241903
1.4143997 0.34385213 -0.15663767
1.3526555 0.38138637 -0.16459854
1.3532668 0.43563309 -0.17994991
