# .PCD v0.7 - Point Cloud Data file format
VERSION 0.7
FIELDS x y z
SIZE 4 4 4
TYPE F F F
COUNT 1 1 1
WIDTH 1519
HEIGHT 1
VIEWPOINT 0 0 0 1 0 0 0
POINTS 1519
DATA ascii
-0.46587548 2.261826 0.71343672
-0.57064492 2.3177266 0.70894814
-0.63674384 2.2196212 0.66139585
-0.76128328 2.3230207 0.67477304
-0 0 0
-0.56427199 2.2944298 0.60490525
-0.65246004 2.2808628 0.58327556
-0.75505888 2.3133008 0.57317084
-0.49277192 2.384614 0.55299413
-0.57566363 2.3393416 0.52184075
-0.65979695 2.3098648 0.49638912
-0.74003828 2.2727942 0.46994308
-0.48657602 2.351938 0.45251173
-0.57504261 2.3394575 0.42903829
-0.65943021 2.3130131 0.40477616
-0.75103354 2.3095746 0.38535058
-0 0 0
-0.58288217 2.3765402 0.34372592
-0.65803868 2.3127244 0.31451175
-0.74732167 2.3051348 0.29384616
-0.48735824 2.3588316 0.2723448
-0.57952088 2.3630135 0.25147301
-0.65627265 2.31004 0.2253128
-0.73641372 2.2752786 0.20199555
-0.48766327 2.3621805 0.18398368
-0.57654005 2.3540559 0.16144462
-0.6605109 2.3271215 0.13842215
-0.74820018 2.3143141 0.11563814
-0.48735031 2.3644156 0.095315196
-0.58376306 2.3885994 0.073579788
-0.65700191 2.3192267 0.049566615
-0.7581678 2.3485062 0.026921172
-0.48699415 2.3643575 0.0068675471
-0.5686751 2.3305669 -0.01637122
-0.65340322 2.3100591 -0.038635071
-0.75311512 2.335783 -0.062936574
-0.49010518 2.385783 -0.082499564
-0.56588382 2.322824 -0.10350495
-0.66418511 2.3536665 -0.12928055
-0.74245572 2.304651 -0.15106204
-0.48358795 2.3620043 -0.17020047
-0.56339163 2.3178711 -0.1910834
-0.63802767 2.2623322 -0.2106521
-0.67006874 2.0820713 -0.21723597
-0.42060968 2.0573208 -0.22596906
-0 0 -0
-0.47135022 1.6730002 -0.22000855
-0.51015985 1.5865237 -0.22760463
-0.23751649 1.1666361 -0.17249696
-0.28058505 1.1593901 -0.18421671
-0.31185114 1.1085081 -0.18933535
-0.36592618 1.1385914 -0.20857583
-0.19804536 0.97659719 -0.18222244
-0 0 -0
-0 0 -0
-0.27505293 0.8567602 -0.19159287
-0.17148449 0.84980804 -0.19225891
-0.20819122 0.86374956 -0.2057602
-0.23657022 0.84322816 -0.21166435
-0 0 -0
-0.16685298 0.83089417 -0.22170037
-0.19363293 0.80600464 -0.22526391
-0.21141011 0.75430697 -0.22118497
-0.23198098 0.72164357 -0.22252062
-0.46021658 2.3058686 0.72642446
-0.57875884 2.4144049 0.73741996
-0.69522959 2.4808254 0.73794371
-0.72786856 2.2679884 0.65747803
-0 0 0
-0.56529665 2.3609715 0.62152219
-0.64341813 2.302593 0.58781189
-0.71862501 2.2483537 0.55597579
-0.47813091 2.3875926 0.55299413
-0.55993259 2.3371272 0.52057052
-0.64113718 2.2978339 0.49294901
-0.73144388 2.2941196 0.47341558
-0.48314703 2.409801 0.46306542
-0.5700714 2.3821983 0.43622693
-0.6531617 2.3455153 0.40975493
-0.7350502 2.3084929 0.38441032
-0.47352624 2.3628852 0.3626512
-0.56345934 2.3598444 0.34080473
-0.64383566 2.3167183 0.31451175
-0.740372 2.3323858 0.29673526
-0.47248539 2.3598289 0.27212009
-0.56524175 2.3674924 0.25157583
-0.65140331 2.3476017 0.22858225
-0.72605121 2.2911532 0.20300554
-0.47316 2.3651283 0.18398368
-0.55676264 2.3352256 0.15991591
-0.64621955 2.3311305 0.13842215
-0.73911005 2.3350506 0.11644547
-0.47224623 2.3644218 0.095196843
-0.56261843 2.3649089 0.072742298
-0.63796037 2.3058698 0.049196564
-0.73681217 2.3311849 0.026670286
-0.47228184 2.3663204 0.0068647028
-0.55575079 2.3398499 -0.016412165
-0.64773601 2.3448656 -0.039149992
-0.74057442 2.3460801 -0.063090391
-0.47116491 2.3671811 -0.081754804
-0.56107163 2.3661089 -0.10527832
-0.64071047 2.3249652 -0.12748572
-0.73160297 2.3196335 -0.15174699
-0.46675697 2.3531857 -0.16935547
-0.54663455 2.3106141 -0.19020505
-0.61963838 2.2498801 -0.2091347
-0.62976944 1.9988256 -0.20814329
-0.42111397 2.1261845 -0.2332446
-0.45282024 1.9177976 -0.23078692
-0.44949648 1.633773 -0.21448322
-0.50190306 1.5943494 -0.22828121
-0.22633253 1.1476812 -0.16948579
-0.27346587 1.1610899 -0.18421671
-0.2982474 1.0856616 -0.18511707
-0.33528009 1.0656379 -0.19483113
-0.19792646 1.0077167 -0.18779884
-0.22174235 0.94347268 -0.18670487
-0.2417002 0.88193077 -0.1851166
-0.27008405 0.85936493 -0.19180113
-0 0 -0
-0.20466714 0.87259847 -0.2075651
-0.23241909 0.84841377 -0.21260403
-0.26919913 0.85550517 -0.22642413
-0.16655242 0.85659349 -0.22828053
-0.19725029 0.8438248 -0.23549128
-0.21592274 0.78900671 -0.2309671
-0.23100513 0.73403651 -0.22590068
-0 0 0
-0.5582723 2.3936381 0.7300173
-0.62772626 2.2940302 0.68122125
-0.71191627 2.2659745 0.65561551
-0.45712432 2.3579621 0.64128649
-0.54772228 2.3511868 0.61804998
-0.63438946 2.3252344 0.59258693
-0.72051072 2.3028846 0.56835628
-0.46347192 2.3904815 0.55299413
-0.54047865 2.3186271 0.51570141
-0.61595768 2.2610948 0.48424754
-0.73723137 2.3622572 0.48653382
-0.48295841 2.487967 0.47750729
-0.54182559 2.3271608 0.42553166
-0.63410085 2.3323503 0.4067677
-0.73056954 2.3440757 0.38958174
-0.46448123 2.3938982 0.36696672
-0.54515982 2.3468592 0.33843997
-0.64103222 2.3627315 0.32021835
-0.71397054 2.2980154 0.29179969
-0.45629498 2.353904 0.2711089
-0.53855163 2.3185952 0.2460241
-0.63386273 2.3400226 0.22746129
-0.72053963 2.3231652 0.20544632
-0.47001484 2.4267216 0.18854715
-0.54242349 2.338598 0.15991591
-0.62147206 2.2965035 0.13613701
-0.71767455 2.3166425 0.11530571
-0.45431504 2.3496161 0.094486721
-0.54651946 2.3614998 0.072532922
-0.63631231 2.356071 0.050183378
-0.71924388 2.3251536 0.026550295
-0.45756379 2.368192 0.0068618581
-0.54273385 2.3490615 -0.016453108
-0.63125354 2.3410728 -0.039021265
-0.72350955 2.3419836 -0.062859669
-0.45568585 2.3651204 -0.081585534
-0.54789019 2.3753481 -0.10553785
-0.63369566 2.3558538 -0.12896381
-0.71382391 2.3126349 -0.15099978
-0.46077245 2.4000883 -0.17252427
-0.53222299 2.3129532 -0.19012518
-0.6097002 2.2680676 -0.21047357
-0.69020826 2.238482 -0.23265398
-0.42116284 2.1970818 -0.2407341
-0.43659833 1.9011797 -0.22846045
-0.4461531 1.6614119 -0.21774818
-0.49502793 1.6068679 -0.22963439
-0.22633605 1.185989 -0.17493457
-0.25155222 1.0982026 -0.17399095
-0.26934761 1.0045527 -0.17100209
-0.32467666 1.0544939 -0.1924258
-0.18402587 0.96832377 -0.18024373
-0 0 -0
-0 0 -0
-0.26135576 0.84978759 -0.18930209
-0.1623126 0.85856342 -0.19377446
-0.20039234 0.87858707 -0.20869318
-0.22620471 0.84606779 -0.21166435
-0.25937927 0.8423146 -0.2225076
-0.16022041 0.85189462 -0.22676201
-0.18886067 0.83090419 -0.23155767
-0.20784917 0.77822953 -0.22743466
-0.2242375 0.72810405 -0.22364731
-0.43399125 2.3226128 0.72996652
-0.54166669 2.3886046 0.72745484
-0.60917389 2.2811203 0.67626488
-0.70338136 2.2878063 0.66067094
-0.44585255 2.3778157 0.64592975
-0.52493942 2.3176551 0.60837746
-0.60936695 2.2887325 0.58232051
-0.69981331 2.2858555 0.56308305
-0.43675327 2.3290632 0.53815609
-0.52991414 2.3381033 0.51930034
-0.61515534 2.3140466 0.49477026
-0.68002445 2.2269094 0.45778939
-0.447373 2.38271 0.45677021
-0.53079665 2.3448448 0.42816165
-0.62281227 2.347635 0.40875918
-0.70637804 2.3163946 0.38425362
-0.44321761 2.3617148 0.36160955
-0.53140396 2.3530581 0.33885729
-0.62220889 2.3503251 0.31801352
-0.70418757 2.3166003 0.29360539
-0.44111067 2.3527529 0.27065951
-0.5322026 2.3567858 0.24972525
-0.62687063 2.3717825 0.23017028
-0.7106114 2.3418453 0.20670879
-0.44575292 2.3795772 0.18466821
-0.52960026 2.3486955 0.16038117
-0.61934847 2.3456421 0.13882205
-0.7080819 2.3362973 0.11606555
-0.44282821 2.3680744 0.095117934
-0.53004473 2.3560321 0.072263725
-0.62464601 2.3705657 0.050409518
-0.70814949 2.3400509 0.026670286
-0.44339156 2.3729208 0.0068675471
-0.52896744 2.3552744 -0.016473582
-0.61865777 2.351671 -0.039133903
-0.70739055 2.3406372 -0.062705852
-0.44244656 2.3747494 -0.081822507
-0.5339607 2.3815897 -0.10566761
-0.61137092 2.3297551 -0.12732735
-0.70192838 2.3246148 -0.15149792
-0.44603711 2.4028704 -0.17252427
-0.51997906 2.3249302 -0.19084385
-0.59653008 2.2746563 -0.21074136
-0.60892916 2.0187886 -0.20942813
-0.40405011 2.1800725 -0.23859423
-0.44656038 2.0007589 -0.24009284
-0.43444198 1.6583599 -0.21699473
-0.48658851 1.6146184 -0.23031098
-0.22156845 1.2009809 -0.17694202
-0.24502377 1.10069 -0.17414355
-0.30063304 1.149382 -0.19533826
-0.32274604 1.0715586 -0.19517474
-0.18785577 1.0226471 -0.19013734
-0 0 -0
-0 0 -0
-0.25782728 0.85699487 -0.19055161
-0 0 -0
-0.19457603 0.8778978 -0.20824195
-0.21978261 0.84273702 -0.21048974
-0.25532463 0.84760374 -0.22348674
-0.15429835 0.84905428 -0.22574969
-0.18022098 0.81602836 -0.2270996
-0.20331277 0.78042156 -0.2277064
-0 0 -0
-0.41684648 2.3092477 0.72494853
-0 0 0
-0.59855837 2.2978392 0.68011975
-0.67600465 2.2477701 0.64789927
-0.42178172 2.3282189 0.631742
-0.51279062 2.3302937 0.61085761
-0.59775287 2.3018274 0.58470809
-0.69247574 2.3124852 0.56858552
-0.42749584 2.3595259 0.54457855
-0.52018166 2.3623092 0.52395773
-0.60389441 2.3291531 0.49719855
-0.68965429 2.3090746 0.47380137
-0.41976398 2.3138578 0.44306898
-0.51745623 2.3528652 0.42903829
-0.60296142 2.3304093 0.40510809
-0.69243383 2.3216317 0.38441032
-0.4248367 2.3429842 0.35833573
-0.51228714 2.3349943 0.33579698
-0.60777581 2.3540988 0.31801352
-0.69561768 2.3399091 0.296013
-0.42365524 2.3387935 0.26874951
-0.51496071 2.3473761 0.24838872
-0.6021173 2.3360553 0.22634032
-0.69396091 2.3385193 0.20603548
-0.42315298 2.338115 0.18124561
-0.52756208 2.4084325 0.16423617
-0.60618895 2.3542323 0.13910769
-0.68550169 2.3128252 0.11468834
-0.43006605 2.3805802 0.09551245
-0.51451141 2.3543575 0.07211417
-0.59938979 2.3327153 0.049525503
-0.68696773 2.3213398 0.02640849
-0.42882323 2.3755968 0.0068675471
-0.50598043 2.319396 -0.016200615
-0.59924763 2.3360524 -0.038812079
-0.68989879 2.3343883 -0.062423855
-0.42114016 2.3400421 -0.080536097
-0.51891237 2.382869 -0.1055811
-0.60028231 2.3460391 -0.12801361
-0.68765157 2.3288782 -0.15149792
-0.43339741 2.4173446 -0.17336929
-0.50104874 2.3066471 -0.18908712
-0.58157486 2.2744138 -0.21038432
-0.66240513 2.2458289 -0.23255515
-0.40433037 2.2588496 -0.24693969
-0.41470787 1.9131889 -0.22927471
-0.4267135 1.6706066 -0.21825048
-0.47891277 1.6251768 -0.23139353
-0.36902672 2.0714164 -0.30484501
-0.23889193 1.1050706 -0.17460144
-0.26309574 1.0316862 -0.17505811
-0.30030107 1.0196538 -0.18538164
-0.18106203 1.0208747 -0.18959768
-0 0 -0
-0 0 -0
-0.25477222 0.86606729 -0.19221763
-0 0 -0
-0.18672606 0.86764628 -0.20553458
-0.21532609 0.84689587 -0.21119452
-0.24765347 0.84078377 -0.22128369
-0.14574303 0.83092707 -0.22068805
-0.17703141 0.82561082 -0.22945976
-0.19946796 0.78538543 -0.22879331
-0.21799706 0.74000496 -0.22646402
-0 0 0
-0 0 0
-0 0 0
-0.66927058 2.2759204 0.65481728
-0.415142 2.3745422 0.64360815
-0.50151843 2.3476069 0.61457783
-0 0 0
-0.66186374 2.2606418 0.55482942
-0.40780333 2.3323264 0.53771317
-0.49443972 2.3128908 0.5123142
-0.58695203 2.3223708 0.49497262
-0.66502202 2.2774713 0.4664706
-0.413185 2.3599494 0.45140085
-0 0 0
-0.59082127 2.3426707 0.4066017
-0.66822273 2.2917027 0.37876874
-0.41011149 2.3435986 0.3580381
-0.50867659 2.3884587 0.34303039
-0.58823848 2.3375907 0.31528991
-0.68069303 2.3422265 0.29577222
-0.40912554 2.3403699 0.26863712
-0.50054777 2.3504918 0.24838872
-0.58413351 2.3252215 0.22493914
-0.67710042 2.3341203 0.20527798
-0.41222957 2.360312 0.18276677
-0.4997007 2.3501379 0.16004886
-0.58517098 2.3317623 0.13756523
-0.67880273 2.3428919 0.11597057
-0.40893009 2.345768 0.094013296
-0.49984825 2.3564923 0.072084263
-0.5874939 2.3460476 0.049731087
-0.67549002 2.3351171 0.026517574
-0.41320923 2.3722725 0.0068504787
-0 0 -0
-0.59169251 2.3668456 -0.03926263
-0.67472994 2.3356962 -0.062346946
-0 0 -0
-0 0 -0
-0 0 -0
-0.67667001 2.3445606 -0.15224513
-0.41753665 2.4140606 -0.17294678
-0.48997018 2.3243086 -0.19028489
-0.56616348 2.2721407 -0.20984876
-0 0 -0
-0.39418465 2.2828429 -0.24929355
-0 0 -0
-0.42412257 1.7040002 -0.22226891
-0.46865767 1.6271328 -0.23125821
-0.33569545 1.9536707 -0.28720814
-0.23271552 1.1094173 -0.1750593
-0.28412607 1.1434083 -0.19371584
-0.30466688 1.0583981 -0.19208218
-0.18209158 1.0646293 -0.19751258
-0 0 -0
-0 0 -0
-0.24783176 0.8619743 -0.19096813
-0 0 -0
-0.17881021 0.8563782 -0.2026016
-0.2152677 0.86895806 -0.21636279
-0.24141689 0.83856058 -0.22030455
-0.14499654 0.85756117 -0.22752127
-0.1717657 0.8257367 -0.2291975
-0.19695687 0.79593652 -0.23151056
-0.21451433 0.74501687 -0.22759071
-0.39164054 2.3330343 0.73085201
-0.47521123 2.2902291 0.69471222
-0.58116746 2.3488722 0.69306135
-0.65023404 2.2623816 0.6497618
-0 0 0
-0.49398431 2.383841 0.62325823
-0.57666922 2.338217 0.59210944
-0.64503485 2.2543664 0.55230749
-0.39818451 2.3626711 0.54413557
-0.48381084 2.3331068 0.51612484
-0.57222289 2.3240266 0.49456787
-0.66261274 2.3220818 0.47476599
-0.39330021 2.3304629 0.44529083
-0.48315346 2.3330085 0.42430434
-0.57667112 2.3472095 0.4067677
-0.66145593 2.3214054 0.3829999
-0.39703947 2.3538713 0.35922858
-0.49020544 2.3731086 0.3403874
-0.56963497 2.3238211 0.31295538
-0.66685098 2.348269 0.296013
-0.39739925 2.3585141 0.2704348
-0.48671964 2.3564413 0.24869716
-0.56417555 2.3055515 0.22269721
-0.66602665 2.3497353 0.20628797
-0.39691162 2.3578806 0.18238646
-0.48486805 2.3512053 0.15991591
-0.57369727 2.3469467 0.13825077
-0.663598 2.3441296 0.1158281
-0.39519125 2.3521745 0.094171099
-0.48316428 2.3487456 0.071755253
-0.57403535 2.3534935 0.049813319
-0.65951753 2.3334444 0.026452124
-0.39930764 2.3787079 0.0068618581
-0.48311141 2.3528578 -0.016391693
-0.56414902 2.3170002 -0.038377613
-0.66282958 2.3484511 -0.062577672
-0.39338219 2.3509483 -0.080739215
-0.48381478 2.3606744 -0.10432676
-0.56673461 2.3338208 -0.12695783
-0.65604138 2.3265748 -0.15081297
-0.40337226 2.4205129 -0.17322844
-0.47549966 2.3262947 -0.19020505
-0.55925769 2.3046093 -0.21252654
-0.59378874 2.1081975 -0.21753247
-0.39077559 2.3489695 -0.25624809
-0.44300148 2.1721334 -0.2596353
-0.39987043 1.6496849 -0.21485995
-0.45866492 1.6299777 -0.23125821
-0.37040645 2.2378683 -0.32864755
-0.26864246 1.3209803 -0.20817864
-0.27617657 1.1412939 -0.19306688
-0.29603335 1.0526608 -0.19070771
-0.16308455 0.99001926 -0.18348165
-0.19816375 0.97677624 -0.19200148
-0.22074178 0.91465455 -0.19047368
-0.24438955 0.87007016 -0.19242589
-0 0 -0
-0.17567812 0.8679626 -0.20508336
-0.20514509 0.8504194 -0.21142943
-0.2386297 0.84842634 -0.2225076
-0.13879934 0.85270548 -0.22600278
-0.17127331 0.8494783 -0.23549128
-0.19004048 0.78870964 -0.22906503
-0 0 -0
-0.37747037 2.3363369 0.73114723
-0.46341768 2.3043795 0.69812888
-0.5685454 2.3598707 0.69526416
-0.6332131 2.2551918 0.64656883
-0 0 0
-0.44673026 2.2244127 0.58084792
-0.5421316 2.2576742 0.57086033
-0.65057915 2.327652 0.56927329
-0.38040063 2.3448555 0.53948486
-0.47391516 2.3580694 0.52099395
-0.56000686 2.3360651 0.49638912
-0.6478253 2.3242133 0.47438014
-0.37867817 2.3308921 0.44492051
-0.47231647 2.3533039 0.42746034
-0.55698186 2.328645 0.40295061
-0.63872564 2.2949731 0.37798521
-0.38037011 2.3425982 0.35714522
-0.47135887 2.3547096 0.33732715
-0.55191314 2.3128054 0.31100994
-0.64791924 2.3360541 0.29396653
-0.37910214 2.3373675 0.26773831
-0.47166595 2.3564572 0.24838872
-0.55140263 2.3147812 0.22325769
-0.6428234 2.3220868 0.20351054
-0.3805227 2.3484604 0.18147378
-0.46925905 2.3482654 0.15951712
-0.55836147 2.3465376 0.13802226
-0.63722426 2.3048332 0.11369105
-0.38059163 2.3535688 0.094131649
-0.46932971 2.3546066 0.07184498
-0.54942214 2.3141706 0.048908748
-0.65183872 2.3615444 0.026724825
-0.38454512 2.3801258 0.0068590124
-0.46729967 2.3489125 -0.016343923
-0.54992151 2.3204179 -0.038377613
-0.65212607 2.3659663 -0.062936574
-0.38085628 2.3651581 -0.08114545
-0.46387267 2.3361604 -0.10311566
-0.56182116 2.3770993 -0.12912218
-0.63565916 2.3084247 -0.14938082
-0.38645956 2.4101381 -0.17231302
-0.46528295 2.3497026 -0.19188191
-0.53686452 2.2731013 -0.2093132
-0.59905094 2.1780047 -0.22435199
-0.38704085 2.4180827 -0.26352361
-0.42928016 2.1728618 -0.25940263
-0.43985337 1.864535 -0.2424866
-0.44734234 1.6279844 -0.23058163
-0.34499711 2.1667972 -0.31789339
-0.23398218 1.1878223 -0.18696395
-0.25378749 1.0776547 -0.18203449
-0.26948157 0.98131037 -0.17747843
-0.16254823 1.0259777 -0.18995744
-0 0 -0
-0 0 -0
-0.24059856 0.87721282 -0.19367541
-0.13331862 0.84674346 -0.19009383
-0.16884987 0.86137599 -0.20327844
-0.20036744 0.85355473 -0.21189928
-0.23110828 0.84145999 -0.22030455
-0.13535944 0.8650108 -0.22903976
-0.16124986 0.8258881 -0.22867304
-0.18343997 0.78236514 -0.22689122
-0 0 -0
-0.36356753 2.3414412 0.73203272
-0.44670442 2.2940066 0.69414282
-0.53913373 2.299669 0.6765402
-0.62904912 2.2943614 0.65667981
-0.37419215 2.3999193 0.64850938
-0 0 0
-0.54859513 2.3479545 0.59282571
-0.6439724 2.3597708 0.57615137
-0.37306738 2.3924313 0.54989362
-0.45850396 2.3561361 0.51993543
-0.54388291 2.3318276 0.49477026
-0.63355201 2.3281446 0.47438014
-0.36421734 2.332201 0.44473538
-0.45505089 2.3416612 0.42483032
-0.54760027 2.3531487 0.4066017
-0.62722164 2.3083799 0.3795523
-0.36812398 2.3585665 0.35922858
-0.46029317 2.3750567 0.33983099
-0.54376602 2.342227 0.31451175
-0.63097882 2.3304036 0.29276276
-0.36643687 2.3504496 0.26897418
-0.45568424 2.3514948 0.24756625
-0.53786331 2.3210306 0.22353794
-0.61894494 2.290395 0.20039642
-0.36840722 2.3655293 0.18261464
-0 0 0
-0.54485345 2.3538101 0.13825077
-0.62827533 2.327987 0.11464085
-0.36982617 2.3795564 0.095078491
-0.45089644 2.3368316 0.071216859
-0.53993678 2.3379552 0.049340475
-0.62771124 2.3297758 0.026321227
-0.37146807 2.3923221 0.0068874615
-0.45344546 2.3546813 -0.016364394
-0.53926694 2.3393373 -0.038635071
-0.63266194 2.3515816 -0.062449489
-0.36480844 2.3575737 -0.080806918
-0 0 -0
-0.54767245 2.3824484 -0.12922776
-0.62510979 2.3257754 -0.15025257
-0.37075269 2.406549 -0.17189051
-0.45479676 2.3730721 -0.19355877
-0.52580577 2.2889721 -0.21047357
-0.56735718 2.1134031 -0.21733479
-0.37567213 2.4430144 -0.26598445
-0.41687226 2.1803329 -0.25998425
-0.43528208 1.8971745 -0.24637944
-0.43939805 1.6383545 -0.23166418
-0.30012673 1.9624536 -0.28763831
-0.21891724 1.1484619 -0.18055376
-0.26016772 1.1359406 -0.19160673
-0.27289173 1.0181526 -0.18383537
-0.15343858 1.0084784 -0.18653966
-0.18469499 0.97141713 -0.19048816
-0.21277438 0.93162721 -0.19344983
-0.23445281 0.8758381 -0.19305065
-0.13643822 0.90256852 -0.20243478
-0.16265371 0.85761011 -0.20215036
-0.19577533 0.857611 -0.21260403
-0.22619186 0.8437987 -0.22054933
-0.13048039 0.8686952 -0.22979902
-0.15868674 0.8401373 -0.23234439
-0.17585485 0.77127814 -0.22335878
-0.20250396 0.75532663 -0.22956242
-0 0 0
-0.4437995 2.3560531 0.71208006
-0 0 0
-0.621687 2.3233199 0.6638639
-0.35559896 2.3763711 0.64154446
-0.44142622 2.3468308 0.61135364
-0.53138125 2.3389661 0.58972186
-0.61319917 2.3025403 0.56124896
-0.35722601 2.3869598 0.54812193
-0.44006079 2.3377748 0.51527798
-0.52978146 2.3360758 0.49497262
-0.61698836 2.3234529 0.47264388
-0.35907757 2.3956184 0.45639995
-0.43667299 2.3231227 0.420973
-0.53075761 2.3458846 0.40477616
-0.62291735 2.3494167 0.38566402
-0.35921207 2.3979433 0.36488339
-0.44115037 2.3535032 0.33635342
-0.5330953 2.3619621 0.31671655
-0.61894995 2.3428695 0.29384616
-0.3645061 2.4361858 0.27852422
-0.44179684 2.3571794 0.24787466
-0.52689379 2.3388567 0.22493914
-0.59776652 2.2671711 0.19803981
-0.35580176 2.3805652 0.18360339
-0.4416914 2.3607125 0.15998237
-0.52996212 2.355161 0.13813652
-0.61550528 2.337594 0.11492579
-0.35462895 2.3778279 0.09492068
-0.43838289 2.3493803 0.071515962
-0.5242672 2.335371 0.049217124
-0.61950517 2.3567936 0.02658302
-0.36002421 2.416316 0.0069500492
-0.43825662 2.3534868 -0.016337099
-0.52249807 2.3318698 -0.038458068
-0.61517555 2.343816 -0.062141854
-0.35062933 2.3617451 -0.080874629
-0.43589959 2.3456059 -0.10328867
-0.530213 2.3730943 -0.1285415
-0.60956168 2.3247402 -0.14994122
-0.34897938 2.361412 -0.16851045
-0.43786633 2.3630764 -0.19252071
-0.50979781 2.2834067 -0.20967026
-0.57076573 2.1794162 -0.22375898
-0.35936931 2.4364212 -0.2650215
-0.40258348 2.1779661 -0.25940263
-0.41996241 1.8833485 -0.24424465
-0.43460339 1.661149 -0.23450583
-0.28621277 1.9515289 -0.28577426
-0.22637276 1.2285092 -0.19291626
-0.24225898 1.0883932 -0.18333241
-0.26065862 0.99693364 -0.17971195
-0.17678253 1.2118651 -0.22395551
-0 0 -0
-0 0 -0
-0.22289652 0.85360163 -0.18784432
-0.13131757 0.90628719 -0.20308429
-0.15651017 0.85380071 -0.2010223
-0.19598264 0.88346869 -0.218712
-0.2232178 0.85361302 -0.22275238
-0 0 -0
-0.15266235 0.83634859 -0.23103319
-0.17694794 0.79865116 -0.2309671
-0.19956501 0.76305294 -0.23153411
-0.36167264 2.5339522 0.79077244
-0.42504305 2.3351538 0.70496207
-0.51939762 2.344594 0.68782967
-0.60985422 2.3364179 0.66652471
-0 0 0
-0.43429378 2.3895273 0.6217702
-0.52036875 2.3573546 0.59354192
-0.59710181 2.2987225 0.5594148
-0.35087797 2.4470246 0.56140971
-0.43078032 2.3683162 0.52141732
-0.51501608 2.3373697 0.49456787
-0.60345834 2.3300445 0.47322264
-0.35540825 2.4746222 0.47102696
-0.42364189 2.3325393 0.42220035
-0.51508331 2.3433182 0.4037804
-0.60156679 2.3264213 0.3812761
-0.34477282 2.4020598 0.36518103
-0.42387775 2.340575 0.33412775
-0.51922959 2.3680942 0.31710565
-0.60629642 2.3533525 0.29468882
-0.35180715 2.4541142 0.2803219
-0.42413485 2.3422279 0.2460241
-0.51508701 2.3537169 0.22606009
-0.58434033 2.2727263 0.19820814
-0.34161219 2.3856647 0.18383156
-0.42240602 2.3368676 0.15818781
-0.51400876 2.3515408 0.1377366
-0.60512507 2.3568065 0.11568563
-0.33932555 2.3750131 0.094723418
-0.42839199 2.3766184 0.072263725
-0.51227087 2.3492892 0.049443271
-0.60155672 2.3469896 0.026430307
-0.33911538 2.3759112 0.006827719
-0.42486984 2.3620367 -0.016378043
-0.51583475 2.370204 -0.039037354
-0.59780848 2.3359251 -0.061834224
-0.33852321 2.3806732 -0.081450127
-0.42167556 2.3492198 -0.10333194
-0.51077145 2.3538575 -0.12732735
-0.60245496 2.3564782 -0.15174699
-0.33616078 2.3753612 -0.16935547
-0.42774841 2.3902493 -0.19451699
-0.49809912 2.297199 -0.2106521
-0.53571731 2.0980306 -0.21506162
-0.33467981 2.3696659 -0.257532
-0.38641959 2.1647513 -0.25754145
-0.46908087 2.1661069 -0.28053603
-0.41705576 1.6349826 -0.23044631
-0.16484253 1.174105 -0.17178002
-0.21657988 1.217226 -0.19093215
-0.2459999 1.1380831 -0.19144447
-0.26159361 1.0261978 -0.18469441
-0.14485998 1.037564 -0.19157641
-0.17224562 0.97070992 -0.18992066
-0.20483617 0.9504562 -0.19682281
-0.22489378 0.88338846 -0.19409192
-0 0 -0
-0.15432434 0.87201256 -0.20508336
-0.18462235 0.85709822 -0.21189928
-0.22180848 0.86999905 -0.22666891
-0 0 -0
-0.1443461 0.81921268 -0.22605065
-0.16900811 0.78560913 -0.22689122
-0.19274554 0.75589526 -0.22899906
-0 0 0
-0.40871632 2.3263881 0.70154554
-0.49752167 2.3129625 0.67764163
-0.59360498 2.3326426 0.66439611
-0.38310897 2.7940662 0.7529828
-0.4110873 2.3434834 0.6091215
-0 0 0
-0.58035767 2.2919636 0.55689287
-0.39693362 2.8945158 0.66350436
-0.41640952 2.3718777 0.52162904
-0.50312287 2.3519776 0.49699619
-0.60139906 2.3822234 0.48306137
-0.36883649 2.6850998 0.5106495
-0.4117015 2.348671 0.42465502
-0.4992547 2.3396835 0.40261868
-0.584867 2.3204916 0.37970901
-0.38072857 2.7734687 0.42128256
-0.40678045 2.3275239 0.33190209
-0.50468951 2.3712356 0.31710565
-0.58289969 2.3214033 0.29023477
-0.34025151 2.4818227 0.28324309
-0.41300863 2.3634036 0.2479775
-0.50373834 2.3714416 0.22746129
-0.58055663 2.316865 0.20174307
-0 0 0
-0.41234568 2.3639894 0.15984945
-0.49894875 2.3517208 0.13756523
-0.58847034 2.3517542 0.11525822
-0 0 0
-0.41243109 2.3713241 0.07202445
-0.49577618 2.342607 0.049237683
-0.58472133 2.3409352 0.026321227
-0 0 0
-0.41071063 2.36657 -0.016391693
-0 0 -0
-0.58515751 2.346339 -0.062013675
-0 0 -0
-0 0 -0
-0 0 -0
-0.58581311 2.3514147 -0.15118659
-0 0 -0
-0.41697419 2.4154212 -0.19635357
-0 0 -0
-0.5401336 2.1708057 -0.22217764
-0.28768125 2.1312559 -0.23142572
-0 0 -0
-0 0 -0
-0.41083986 1.6528956 -0.2326114
-0.15500362 1.1554768 -0.16891223
-0.19874363 1.1581411 -0.18146949
-0.22017473 1.0497575 -0.17635605
-0.24888007 1.0019695 -0.18005559
-0.13081861 0.98090512 -0.18096326
-0.16777682 0.98045933 -0.19162314
-0.19659315 0.94018269 -0.19444188
-0.21805629 0.87905598 -0.19284239
-0 0 -0
-0.15077358 0.88350672 -0.2075651
-0.17816672 0.85250616 -0.21048974
-0.21810244 0.87793046 -0.22838239
-0 0 -0
-0.14125623 0.8314994 -0.2291975
-0.1675272 0.80264664 -0.23151056
-0.19018616 0.76544446 -0.23153411
-0 0 0
-0.39235315 2.3165653 0.69784415
-0.50256658 2.4081964 0.70462608
-0.58647263 2.3652449 0.6726445
-0 0 0
-0.39960766 2.3631554 0.61358577
-0.49258721 2.3692672 0.59497446
-0.56768233 2.3011518 0.55826849
-0.31917757 2.4385762 0.55853069
-0.39662927 2.3435516 0.51485461
-0.47972804 2.3118706 0.48788998
-0.58184963 2.365859 0.47901011
-0.34072816 2.5986447 0.49380064
-0.39022925 2.3094106 0.41711572
-0.48868686 2.3610506 0.40577191
-0.57838923 2.3556888 0.38488045
-0.34700242 2.6482897 0.40193722
-0.39907128 2.3690367 0.33746624
-0.4897294 2.3723454 0.31684625
-0.57289022 2.3422937 0.29240161
-0.34306625 2.6218014 0.29897255
-0.38941243 2.3119445 0.24232294
-0.48254842 2.3423078 0.22437866
-0.56821984 2.3281279 0.20241639
-0.31644556 2.4213154 0.18626542
-0.39584771 2.3546669 0.15905187
-0.48632032 2.3635387 0.13807938
-0.5768674 2.3669662 0.1158281
-0.31441778 2.4116957 0.096025325
-0.39357719 2.3481793 0.071246773
-0.48300087 2.3534398 0.049402151
-0.57034659 2.3444788 0.026321227
-0.31522849 2.4205506 0.0069443597
-0.39618191 2.3690455 -0.016391693
-0.47828373 2.3352151 -0.03836152
-0.57145751 2.3527997 -0.062090583
-0.31236833 2.4084351 -0.082262591
-0.39182869 2.348305 -0.10307241
-0.47805187 2.3413582 -0.12632436
-0.57396263 2.365634 -0.15187153
-0.30443323 2.3595212 -0.16794711
-0.39658523 2.3845022 -0.19363864
-0.47086692 2.308018 -0.21109839
-0.54601973 2.2533827 -0.23028198
-0.30557516 2.3735945 -0.257532
-0.37997851 2.2908285 -0.27196562
-0.44444466 2.1814213 -0.28179178
-0.4016225 1.6592373 -0.23315266
-0.23002771 1.7984178 -0.26268864
-0.21693769 1.3124223 -0.2054314
-0.23201536 1.1410162 -0.19144447
-0.25245503 1.0436934 -0.18727154
-0.12417717 0.97681016 -0.18006384
-0 0 -0
-0.19023646 0.93848956 -0.19384666
-0.21633284 0.89558905 -0.19617444
-0.11265852 0.89305317 -0.19962017
-0.14629759 0.89018315 -0.20891879
-0.17775762 0.87739986 -0.21636279
-0.20929167 0.8651163 -0.22471064
-0 0 -0
-0.1375536 0.84092158 -0.23155767
-0.16069065 0.79422683 -0.22879331
-0.18232676 0.75354064 -0.22759071
-0.30850327 2.48803 0.77453786
-0.37921152 2.3255517 0.69983721
-0.48835257 2.4140615 0.70545214
-0.56561387 2.3425622 0.66519427
-0.32286322 2.5905111 0.69700569
-0.37949637 2.3311408 0.60465729
-0.48379529 2.4008036 0.60213709
-0.54082149 2.2515907 0.54542941
-0.31313476 2.5120971 0.57491904
-0.37705538 2.3141091 0.50786853
-0.4705539 2.3397329 0.49315134
-0.56343788 2.3531628 0.47573054
-0.32453322 2.5987363 0.49343038
-0.37636775 2.313705 0.41746634
-0.47186321 2.3524022 0.4037804
-0.55749506 2.3322971 0.38049257
-0.31360281 2.5129931 0.38110372
-0.38262561 2.3597107 0.33579698
-0.47633076 2.3811395 0.31762442
-0.55574822 2.3341758 0.29095703
-0.31161323 2.5006018 0.28492838
-0.38301975 2.3624024 0.24736063
-0.4757686 2.3833029 0.22802179
-0.55645758 2.3422348 0.2033422
-0.3037993 2.4410219 0.18763445
-0.37836409 2.3383369 0.15778902
-0.47532246 2.3841023 0.13910769
-0.55818301 2.352967 0.11497328
-0.3018297 2.4314287 0.096735463
-0.38107172 2.3623915 0.071605697
-0.46991622 2.3632233 0.049546059
-0.5497297 2.3216624 0.026026707
-0.29630959 2.3896902 0.0068504787
-0.38338596 2.3822916 -0.016466757
-0.46764368 2.35674 -0.038667254
-0.54942089 2.3241575 -0.061244596
-0.2970947 2.4063387 -0.082127184
-0.37709561 2.3486919 -0.1029859
-0.46735808 2.3628604 -0.12732735
-0.54842675 2.3224864 -0.14888266
-0.29347533 2.3900568 -0.16998921
-0.37848166 2.3652363 -0.19188191
-0.45457217 2.3001156 -0.21011654
-0.51276857 2.1743648 -0.22188114
-0.28532302 2.3290412 -0.25250334
-0.36184591 2.267616 -0.26894119
-0.43508524 2.2045467 -0.28442886
-0.38916224 1.6520263 -0.23179948
-0.21002336 1.7261137 -0.25193447
-0.18172313 1.1429243 -0.17872226
-0.2269167 1.1520998 -0.19306688
-0.24266034 1.030839 -0.18469441
-0 0 -0
-0 0 -0
-0.18126452 0.92328924 -0.19047368
-0.20098568 0.85500622 -0.18701132
-0.10624678 0.88597292 -0.19788811
-0.14144114 0.89491314 -0.20982125
-0.16769175 0.85462832 -0.21048974
-0.20086867 0.85317135 -0.22128369
-0.10365765 0.87132823 -0.22954594
-0.12789322 0.81315124 -0.22369048
-0.15784992 0.8055864 -0.23178229
-0 0 -0
-0 0 0
-0.36760747 2.3448815 0.70496207
-0.45708123 2.3330493 0.68094581
-0.55299348 2.3534958 0.66732293
-0.33831719 2.8572524 0.76820242
-0.3678818 2.3506532 0.6091215
-0.46868318 2.4018207 0.6016596
-0.54981232 2.3524923 0.56904405
-0.29243955 2.4694247 0.56473172
-0.3696554 2.3598292 0.51739502
-0.46124297 2.36853 0.49861512
-0.53919309 2.314528 0.46724227
-0 0 0
-0.36718354 2.3480694 0.42325231
-0.45836031 2.3600936 0.40461022
-0.54183155 2.3299019 0.3795523
-0.29549959 2.4922843 0.37768108
-0.36585197 2.347337 0.33371043
-0.45926049 2.3713622 0.31593838
-0.54679161 2.3607531 0.29384616
-0.28855363 2.4373393 0.27751306
-0.36958927 2.371588 0.2480803
-0.46000248 2.380312 0.22746129
-0.53713924 2.3242459 0.20149057
-0.29010355 2.4537325 0.18847109
-0.36508253 2.3475161 0.15825427
-0.46333361 2.4006977 0.13990749
-0.54463339 2.3602409 0.11516324
-0.28585199 2.4243038 0.09638039
-0.36718166 2.3686361 0.071725339
-0.45578486 2.3680258 0.049587179
-0.53816694 2.3366849 0.026157603
-0.28561783 2.4252295 0.0069472045
-0.36738586 2.375705 -0.01640534
-0.45336276 2.3605471 -0.038683344
-0.54276597 2.3606093 -0.062116221
-0.28430247 2.4249911 -0.082702681
-0.36557132 2.3697219 -0.10380772
-0.45022252 2.3519521 -0.1265883
-0.55762362 2.4279449 -0.1554208
-0.27938217 2.3967669 -0.17034131
-0.36502191 2.3744106 -0.19244087
-0.43895352 2.2950354 -0.20940247
-0.48918423 2.132854 -0.21733479
-0.27757293 2.3870416 -0.25860193
-0.33453193 2.1824183 -0.25858837
-0.4154084 2.1750174 -0.28028485
-0.35313085 1.5413867 -0.2159673
-0.14585383 1.2633297 -0.18425485
-0.16665037 1.0912622 -0.17048059
-0.20931296 1.0982202 -0.18381913
-0.23193382 1.0131028 -0.18125823
-0.11531878 1.0056244 -0.18510059
-0 0 -0
-0.17779087 0.93593889 -0.19285461
-0.21230128 0.92868763 -0.20283854
-0.10014679 0.88078797 -0.19658907
-0.13594739 0.89576417 -0.20982125
-0.16298859 0.85850608 -0.21119452
-0.19151823 0.83643055 -0.21663281
-0 0 -0
-0 0 -0
-0.15326247 0.80843085 -0.23232573
-0.16599765 0.72485644 -0.21829554
-0.26735556 2.3966732 0.74502045
-0.37446818 2.4883358 0.74738514
-0.45314142 2.3905923 0.69691628
-0.53940117 2.3606036 0.66838723
-0.31884012 2.8419921 0.7635591
-0.3649646 2.4295068 0.62896258
-0.44655156 2.3655279 0.59187067
-0.53709292 2.3634148 0.57087821
-0.27782562 2.476018 0.56583899
-0.36839321 2.4500017 0.53665972
-0.43981218 2.3347449 0.4909254
-0.52888286 2.3350184 0.47071472
-0.27823445 2.4745944 0.46917543
-0.37410483 2.4924245 0.44885087
-0.4587996 2.4423344 0.41821891
-0.53297043 2.3572659 0.38347006
-0.27457112 2.443934 0.37009177
-0.37693226 2.5199502 0.35791454
-0.44634444 2.3829072 0.31710565
-0.53643918 2.3824646 0.29613337
-0.27470061 2.4489388 0.27863657
-0.39372635 2.6325397 0.2751193
-0.44118157 2.36058 0.2253128
-0.52570713 2.340137 0.20258471
-0.2764852 2.4683483 0.18945985
-0.35553178 2.3822782 0.16044763
-0.44145069 2.3652201 0.13767947
-0.52992231 2.3625636 0.11511575
-0.27019492 2.4190607 0.096104234
-0.35543513 2.3896294 0.072293639
-0.4419781 2.3747094 0.049669411
-0.5244745 2.3428705 0.026190327
-0.26995546 2.4199798 0.0069272905
-0.35133433 2.3680232 -0.016337099
-0.43649694 2.3505044 -0.038474157
-0.52805334 2.3629196 -0.062090583
-0.27029991 2.4346366 -0.08297351
-0.34941527 2.3610492 -0.10333194
-0.43596449 2.3556526 -0.12664109
-0.54554218 2.4439838 -0.15623029
-0.2644518 2.3964529 -0.17020047
-0.35131842 2.3825226 -0.19291997
-0.42178443 2.2810354 -0.20788504
-0.49037719 2.199919 -0.22385781
-0.25465381 2.3135898 -0.25047046
-0.33283585 2.2640245 -0.26801062
-0.398092 2.1560621 -0.27752218
-0.34538907 1.5512614 -0.21704984
-0.12874952 1.1786091 -0.17178002
-0.16625203 1.1352898 -0.17719603
-0.19041267 1.0334954 -0.17278674
-0.22335976 1.003929 -0.17936833
-0 0 -0
-0 0 -0
-0 0 -0
-0.19875075 0.89464533 -0.19513318
-0.095783882 0.89109278 -0.19875415
-0.12932637 0.88886893 -0.20801634
-0.15982307 0.87096262 -0.21401358
-0.19101563 0.85841143 -0.22201805
-0.09264984 0.86964864 -0.22878668
-0.12246636 0.84617621 -0.23234439
-0 0 -0
-0.16258912 0.73054433 -0.2197039
-0 0 0
-0.35385641 2.4535837 0.7362811
-0.42425901 2.3157883 0.67433739
-0.51654828 2.3262277 0.65774411
-0 0 0
-0.34949845 2.427865 0.62797052
-0.4311572 2.363447 0.59067696
-0.5257293 2.380923 0.57431722
-0 0 0
-0.42026049 2.9165409 0.63827574
-0.43214273 2.374012 0.49861512
-0.51939571 2.3602602 0.47515178
-0.29958522 2.8202333 0.53434896
-0.36553213 2.5414479 0.45726681
-0.43112493 2.3752434 0.40626979
-0.5189203 2.362421 0.38378349
-0.26343197 2.4819562 0.37559775
-0.3652561 2.5486827 0.36167035
-0.42924282 2.3719411 0.31528991
-0.51650763 2.3614664 0.2931239
-0.25600436 2.4159937 0.27470422
-0.35202807 2.4566855 0.2565107
-0.42651206 2.3622627 0.22521937
-0.51176333 2.3452656 0.20275304
-0.25955099 2.4531417 0.18816687
-0.36336187 2.5414665 0.17101565
-0.42586675 2.361989 0.1373367
-0.5152033 2.3647947 0.11506826
-0.24863815 2.3570759 0.09357933
-0.34626445 2.4303582 0.073460147
-0.42757574 2.3783605 0.049689967
-0.50499028 2.3225937 0.025928535
-0.25101584 2.3828053 0.0068163397
-0.34129971 2.4018154 -0.016555471
-0.42277241 2.3570755 -0.038538527
-0.5154531 2.3749077 -0.062321313
-0.25535616 2.4362493 -0.08297351
-0.34080967 2.4046943 -0.10514858
-0.42255649 2.3641815 -0.12695783
-0.53074741 2.4482608 -0.15629256
-0.25046575 2.4049754 -0.1706934
-0.33906204 2.4014127 -0.19427744
-0.41320807 2.313976 -0.2106521
-0.48465943 2.2388718 -0.22751464
-0.24846478 2.392246 -0.25881591
-0.30135745 2.1411173 -0.25323746
-0.38973117 2.1858115 -0.28103831
-0.32895431 1.5213935 -0.21258436
-0.12242817 1.188237 -0.17307051
-0.1544811 1.1020335 -0.1718542
-0.18303068 1.0288154 -0.17181329
-0.22530919 1.0428343 -0.18606888
-0 0 -0
-0 0 -0
-0 0 -0
-0.19305132 0.89489192 -0.19492492
-0.09031444 0.89166373 -0.19875415
-0.12279515 0.88192648 -0.20621142
-0.15294984 0.8633129 -0.21189928
-0.18472096 0.85482877 -0.22079413
-0.087505192 0.87212592 -0.22929284
-0.11647785 0.84117645 -0.23077096
-0.14534189 0.82162267 -0.23558646
-0 0 -0
-0.2436747 2.4577711 0.76302606
-0.34390429 2.4927437 0.74738514
-0.40953931 2.3155079 0.67351133
-0.5105955 2.3679874 0.66865325
-0 0 0
-0.33115894 2.4050114 0.62152219
-0.41361582 2.3488333 0.58637935
-0.51233453 2.3898144 0.57569283
-0.25148734 2.5199955 0.57514048
-0.3437717 2.4940336 0.54533947
-0.41146711 2.3418956 0.49133015
-0.49998379 2.3403733 0.47052184
-0.23855461 2.3849285 0.45158598
-0.35409069 2.573878 0.46270213
-0.40684366 2.3224773 0.39681005
-0.5050329 2.3684585 0.38425362
-0 0 0
-0.34598023 2.5243859 0.35791454
-0.4073458 2.3325291 0.30971298
-0.50819314 2.3937237 0.29673526
-0.24147122 2.4204853 0.27504128
-0.34923699 2.5484791 0.26586643
-0.40893352 2.3471799 0.22353794
-0.49839571 2.3532357 0.20317386
-0.24350566 2.444766 0.18740629
-0.34546322 2.5268421 0.16988574
-0.4098258 2.3557055 0.13682257
-0.50027025 2.3659568 0.11497328
-0.23910686 2.4082737 0.095551908
-0.3285124 2.4116387 0.072832026
-0.41160744 2.3730588 0.049525503
-0.4985747 2.3628278 0.026343044
-0.23954764 2.4161446 0.006907376
-0.31497982 2.3186491 -0.015968593
-0.40796074 2.3576546 -0.038506344
-0.50437385 2.3946552 -0.062757127
-0.24010856 2.4347866 -0.082871951
-0.32376826 2.3899097 -0.10441326
-0.4070242 2.3608251 -0.12664109
-0.50975668 2.4231474 -0.15448679
-0.2359961 2.4094453 -0.17090465
-0.32125494 2.3807273 -0.19244087
-0.40086174 2.327265 -0.21163395
-0.445342 2.1200721 -0.21516044
-0.23639093 2.4204435 -0.26170471
-0.30608684 2.2758131 -0.26894119
-0.3739579 2.1744735 -0.27928028
-0.30659249 1.4613231 -0.20392402
-0.11742433 1.2126073 -0.17651185
-0.1422064 1.06182 -0.16544402
-0.17371088 1.0124133 -0.16889295
-0.22294882 1.0634805 -0.18950506
-0 0 -0
-0 0 -0
-0.15508297 0.90717149 -0.18630707
-0.18515216 0.88457167 -0.19242589
-0.084841594 0.89220107 -0.19875415
-0.11853728 0.89135474 -0.20824195
-0.14912298 0.87285835 -0.21401358
-0.17967133 0.85689503 -0.22103891
-0 0 -0
-0.11194676 0.84665865 -0.23208216
-0.13641411 0.7997309 -0.22906503
-0 0 -0
-0 0 0
-0.33085588 2.5119143 0.75251001
-0.40793034 2.3918946 0.69498885
-0.485989 2.3229561 0.65508336
-0.21957125 2.3462021 0.62916243
-0.33419785 2.5424278 0.65649211
-0.39757049 2.3417532 0.58399183
-0.50439978 2.4253139 0.58348793
-0.22411469 2.3943 0.54612875
-0.32756954 2.4893129 0.54385751
-0.39267397 2.318306 0.4858664
-0.4945738 2.3866332 0.47920305
-0.22382468 2.3853688 0.45140085
-0.32688218 2.4891269 0.44709754
-0.39143622 2.3181236 0.39564836
-0.49249119 2.3811846 0.38582072
-0.22520186 2.4022999 0.36309764
-0.33523676 2.5627921 0.36306137
-0.39779893 2.3633406 0.31347418
-0.49049291 2.3822119 0.29492956
-0.22365256 2.3902621 0.27144596
-0.32288623 2.4687109 0.25733319
-0.39106163 2.3290255 0.22157627
-0.48615241 2.3669865 0.20409968
-0.22775838 2.4382718 0.18679781
-0.3259505 2.4982426 0.1678253
-0.39486852 2.355222 0.13665117
-0.49055889 2.3924663 0.11611304
-0.22414023 2.4077055 0.095473006
-0.32337117 2.4879501 0.075075313
-0.3939074 2.3568037 0.049134888
-0.48687345 2.3795576 0.026495757
-0.22564347 2.427526 0.0069358251
-0.31295675 2.414748 -0.01661689
-0.39381564 2.3620861 -0.038538527
-0.48567042 2.3781159 -0.062244404
-0.22571635 2.4421852 -0.083075069
-0.30961016 2.3958147 -0.10458628
-0.39154905 2.3573675 -0.12632436
-0.4783231 2.3450618 -0.14931853
-0.2216633 2.4158149 -0.17125675
-0.3081679 2.3945174 -0.19339909
-0.38510701 2.3208377 -0.21083063
-0.44682196 2.1939461 -0.22237529
-0.21619128 2.363431 -0.25539213
-0.26368862 2.0559916 -0.2427683
-0.36174357 2.1835783 -0.28015929
-0.24271747 1.193261 -0.16630565
-0.10435307 1.1512105 -0.16747835
-0.13794163 1.0803183 -0.16819122
-0.17232254 1.0426666 -0.17376021
-0.22112827 1.0879979 -0.19362848
-0 0 -0
-0 0 -0
-0.15301673 0.92938209 -0.19067208
-0.18049906 0.88952523 -0.1932589
-0.080316558 0.90340173 -0.20113572
-0.11233081 0.88626641 -0.20688826
-0.14297538 0.86896127 -0.21283895
-0.17498957 0.86083174 -0.22177325
-0 0 -0
-0.10578468 0.83967012 -0.22998424
-0.13493639 0.82144511 -0.23504302
-0.15274693 0.75127846 -0.22505566
-0 0 0
-0.31328857 2.4967763 0.74738514
-0.38997439 2.3744311 0.68920636
-0.47249287 2.3296733 0.65614766
-0 0 0
-0.30655557 2.4483056 0.63169074
-0.38397759 2.3489404 0.58518559
-0.4660432 2.3119545 0.5555172
-0 0 0
-0.30839932 2.4602442 0.53708315
-0.38537696 2.3631997 0.49477026
-0.48011357 2.3905849 0.47939596
-0.21047112 2.4013815 0.45417809
-0.31930146 2.5526302 0.45814347
-0.37451532 2.3039346 0.39282703
-0.47554204 2.3725407 0.38394019
-0.21037114 2.4026513 0.36294883
-0.31265017 2.5097706 0.35527155
-0.37932575 2.3412673 0.3102318
-0.48091674 2.4104888 0.29805943
-0.21278793 2.4351449 0.27638951
-0.3119126 2.5042062 0.26082873
-0.37946388 2.3480899 0.22316429
-0.47006381 2.3621066 0.20342636
-0.21565233 2.4724033 0.18930772
-0.31652021 2.5477242 0.17101565
-0.3789784 2.3487298 0.13613701
-0.47372881 2.3846543 0.11559065
-0.20858398 2.4000764 0.095117934
-0.29864764 2.4135044 0.072772205
-0.38023272 2.3641119 0.049237683
-0.47031933 2.3726916 0.026386674
-0.21057132 2.426872 0.0069301347
-0.29286945 2.3739474 -0.016323451
-0.37915635 2.3634706 -0.038522433
-0.46874124 2.369283 -0.061936766
-0.21381848 2.4793701 -0.084293768
-0.29441601 2.3937027 -0.10441326
-0.37691957 2.3587396 -0.12627158
-0.47205055 2.3890762 -0.15193379
-0.20930235 2.4459522 -0.17329888
-0.29201558 2.3844903 -0.19244087
-0.37148741 2.3270912 -0.21118766
-0.43951499 2.2278876 -0.22553797
-0.20540318 2.4083023 -0.26009983
-0.2487826 2.0388386 -0.24055815
-0.35427168 2.222986 -0.28493115
-0.32177153 1.6331512 -0.22733399
-0.094372116 1.1173136 -0.16245972
-0.14203441 1.1694412 -0.18192737
-0.18187858 1.1440791 -0.19047102
-0.20188965 1.0255401 -0.18228909
-0 0 -0
-0.11250784 0.92999536 -0.18046246
-0.142406 0.89932567 -0.18432297
-0.17352869 0.88293827 -0.19159287
-0.074771874 0.90387756 -0.20113572
-0.10724036 0.8898406 -0.2075651
-0.13991965 0.88422322 -0.21636279
-0.17026624 0.86474323 -0.2225076
-0.071752779 0.87744582 -0.23030518
-0.10063057 0.84030342 -0.22998424
-0.12538858 0.79373997 -0.22689122
-0.1520277 0.77197158 -0.23097077
-0.19885437 2.4675541 0.76479709
-0.29137918 2.4434433 0.73087144
-0.37719756 2.3881743 0.69251066
-0.46878013 2.3864434 0.67131406
-0 0 0
-0.2780211 2.336628 0.60242516
-0.38146904 2.4270372 0.60404718
-0.45744303 2.3434305 0.56239527
-0.1964532 2.4182532 0.55100095
-0.29364458 2.4650016 0.53771824
-0.36510533 2.3287549 0.48708054
-0.46300131 2.3809645 0.47688806
-0.19549318 2.3996894 0.45362264
-0.29759035 2.5037045 0.4490262
-0.36630926 2.3441873 0.39929947
-0.4592821 2.3666883 0.38252982
-0.19610603 2.4098108 0.36384171
-0.29666269 2.5067246 0.35457602
-0.36647859 2.3533483 0.31152874
-0.4582105 2.3724561 0.2930035
-0.19760089 2.4334333 0.27605245
-0.30799609 2.6028783 0.27090409
-0.36703557 2.3631639 0.22437866
-0.45612678 2.3678818 0.20367885
-0.20144445 2.4856062 0.19022042
-0.29035729 2.4604361 0.16503374
-0.3637948 2.3460779 0.13585137
-0.45607013 2.3718219 0.11483081
-0.1966676 2.4361703 0.09649875
-0.29596564 2.5185344 0.075882897
-0.36556691 2.3654122 0.049217124
-0.45838958 2.389281 0.026539387
-0.1946321 2.4151604 0.0068931514
-0.28283516 2.414434 -0.016589593
-0.36464721 2.3657525 -0.038522433
-0.44498304 2.3240047 -0.060680598
-0.19389552 2.4218576 -0.082296453
-0.28030238 2.4004259 -0.10462953
-0.36077276 2.3501501 -0.12569088
-0.46619284 2.4380019 -0.15486039
-0.19271138 2.4273026 -0.17189051
-0.2757678 2.3723752 -0.19132295
-0.36052302 2.3509858 -0.21315135
-0.42900896 2.2471592 -0.22721814
-0.19077908 2.4114995 -0.26031381
-0 0 -0
-0.3374725 2.2045243 -0.28229406
-0.40897927 2.1450884 -0.29824054
-0.11060984 1.4128793 -0.20533304
-0.13202782 1.145746 -0.17811178
-0.15832293 1.0368991 -0.17246227
-0.19116889 1.0035341 -0.17816567
-0 0 -0
-0 0 -0
-0.13732721 0.90308946 -0.1849182
-0.16847327 0.88590813 -0.19200939
-0.068777293 0.89847875 -0.19983669
-0.10222089 0.89435351 -0.20846756
-0.13303126 0.87545532 -0.21401358
-0.16332383 0.85719967 -0.22030455
-0 0 -0
-0.095037222 0.83706963 -0.22893527
-0.12066025 0.79544586 -0.22716294
-0.14441417 0.7578091 -0.22646402
-0 0 0
-0 0 0
-0.36210445 2.3875923 0.6916846
-0.44098869 2.3201439 0.6518904
-0.18061405 2.4066896 0.644382
-0.29060006 2.5770283 0.6639325
-0.36294758 2.4053268 0.59807831
-0.44847393 2.374887 0.56927329
-0.18110041 2.4126062 0.54945076
-0.2865186 2.537652 0.55317235
-0.37048516 2.4616861 0.51439917
-0.44040236 2.3413312 0.46839976
-0.18246226 2.4233823 0.45788115
-0.28321412 2.5142884 0.4506042
-0.36464393 2.4312353 0.41373798
-0.44274747 2.358784 0.38080597
-0.18287332 2.4316761 0.36696672
-0.2798416 2.4957042 0.35276768
-0.35760099 2.3928177 0.31645715
-0.44619659 2.388885 0.29468882
-0.18504494 2.4663084 0.27964777
-0.27351186 2.4396381 0.25373486
-0.35238177 2.3643866 0.22428523
-0.44377887 2.3823912 0.20468883
-0.1862637 2.4877896 0.19029647
-0.27458975 2.4562218 0.16463497
-0.35424128 2.3808534 0.1377366
-0.43968239 2.3647552 0.11435591
-0.18008143 2.4154091 0.09563081
-0.27099794 2.4348691 0.073310599
-0.35221925 2.3755226 0.049381595
-0.44372058 2.3920488 0.026539387
-0.18010612 2.4202981 0.0069045308
-0.26360515 2.3763685 -0.016316624
-0.34880814 2.3590434 -0.038377613
-0.43617383 2.3561804 -0.06144968
-0.18227202 2.4668567 -0.083785981
-0.26589772 2.4050798 -0.10475929
-0.34605482 2.3503439 -0.12558532
-0.44342309 2.3986146 -0.15218286
-0.18699254 2.553791 -0.18076319
-0.26414946 2.400775 -0.19347893
-0.34927931 2.3748326 -0.21511506
-0.41665745 2.2575779 -0.22800881
-0.17764239 2.435432 -0.26277465
-0.25782514 2.3527379 -0.27720022
-0.32465994 2.2114611 -0.28292194
-0.42310679 2.295665 -0.31880888
-0.090904653 1.2605305 -0.18310775
-0.11567676 1.0610603 -0.16483352
-0.14809795 1.0114897 -0.16808175
-0.18500772 1.0046881 -0.17816567
-0 0 -0
-0.10119285 0.93228221 -0.18065162
-0.13135917 0.90100545 -0.18432297
-0.16321109 0.88788712 -0.19221763
-0.063605733 0.90375322 -0.20091923
-0.096417263 0.89205819 -0.20779072
-0.12849782 0.88202626 -0.21542309
-0.16051981 0.87153524 -0.22373152
-0 0 -0
-0.090414159 0.84243453 -0.23024647
-0 0 -0
-0.13837098 0.75113189 -0.22421066
-0.167713 2.4574168 0.7609598
-0.26483431 2.4792433 0.74055183
-0.35865119 2.4668279 0.71398813
-0.42778936 2.3284948 0.65348685
-0.16471484 2.3913667 0.63999671
-0.2694447 2.5286713 0.65103585
-0.34929389 2.4151971 0.59998828
-0.4382621 2.4015329 0.57500505
-0.16629353 2.413672 0.54945076
-0.26088452 2.4450958 0.53263742
-0.34586713 2.3980021 0.50063872
-0.43462569 2.391294 0.47785264
-0.16745371 2.4224956 0.45751086
-0.27132401 2.5492642 0.45656547
-0.35336658 2.4588056 0.41805294
-0.42685601 2.353682 0.3795523
-0.16883478 2.4455771 0.36890125
-0.25638705 2.4205625 0.34191757
-0.36076054 2.519623 0.33292851
-0.42765212 2.370085 0.29204047
-0.16827016 2.4436057 0.27695128
-0.2550804 2.408628 0.25034213
-0.35573894 2.4916799 0.23614873
-0.42562324 2.3654552 0.20300554
-0.17044866 2.4809277 0.18968803
-0.25857055 2.44893 0.16403678
-0.34089378 2.3918777 0.13825077
-0.42428142 2.3624928 0.11411846
-0.16771168 2.4523568 0.097051069
-0.25532147 2.4295273 0.073101215
-0.34930357 2.4597974 0.051087949
-0.42656615 2.3809466 0.026386674
-0.16579677 2.4293392 0.0069272905
-0.25360161 2.421701 -0.01661689
-0.33769104 2.3848991 -0.038763802
-0.42610666 2.383414 -0.062090583
-0.16652448 2.4589543 -0.083481297
-0.2510317 2.4056721 -0.10471603
-0.334833 2.3751659 -0.12679946
-0.92825907 5.1995211 -0.32952198
-0.16264316 2.4255035 -0.17160884
-0.24642846 2.3735976 -0.19116324
-0.45636004 3.240911 -0.29330626
-0.39948002 2.2414782 -0.22613098
-0.1679288 2.5148482 -0.27122709
-0.23490709 2.2722762 -0.26754534
-0.3098419 2.2045698 -0.28179178
-0.41769311 2.3469918 -0.32557476
-0.077111565 1.169225 -0.16977257
-0.11896859 1.1571109 -0.17963801
-0.14599754 1.0416955 -0.172949
-0.18366843 1.0329621 -0.18297632
-0 0 -0
-0.09547057 0.93288553 -0.18065162
-0.12637001 0.90567738 -0.1851166
-0.15639268 0.88116765 -0.19055161
-0.058121778 0.9051007 -0.20113572
-0.091139361 0.89457136 -0.20824195
-0.12523098 0.89820129 -0.21918184
-0.15601799 0.87727678 -0.22495542
-0 0 -0
-0.085437551 0.84489363 -0.23077096
-0.10863488 0.78066248 -0.22254361
-0.13796049 0.7755838 -0.23125245
-0.15132891 2.4374204 0.75446606
-0.24213134 2.4064255 0.71834379
-0.34470055 2.4775517 0.71646631
-0.41467243 2.3377197 0.65534937
-0.15167141 2.4183674 0.64696157
-0.2410585 2.402076 0.61804998
-0.34524867 2.4952102 0.61932737
-0.41372404 2.3485777 0.56170744
-0.152152 2.4253526 0.5518868
-0.2520335 2.5079141 0.54597455
-0.33797312 2.4495552 0.51095903
-0.4082467 2.3272302 0.46454147
-0.15240115 2.4205351 0.4569554
-0.24566193 2.4509616 0.43868157
-0.33330432 2.4247806 0.41191241
-0.41223577 2.3552837 0.37939557
-0.15252274 2.425842 0.36577624
-0.24103859 2.4171631 0.34122205
-0.33937505 2.478564 0.3272219
-0.40850392 2.3462579 0.28879023
-0.15507652 2.4733522 0.28020954
-0.24345444 2.4418211 0.25363201
-0.35040912 2.5668151 0.24306132
-0.40871486 2.3542774 0.20182721
-0.15671648 2.5058107 0.1915134
-0.24324329 2.4474916 0.16383737
-0.32917663 2.4156873 0.13950759
-0.40721953 2.3502884 0.11340611
-0.1552055 2.4942288 0.09866859
-0.24001589 2.4270694 0.072981574
-0.33487639 2.4668477 0.051190741
-0.41177863 2.3825338 0.026375767
-0.16129781 2.5979874 0.0074052303
-0.23893364 2.4252017 -0.016630538
-0.32506272 2.4017887 -0.039005168
-0.40773669 2.3643107 -0.061526589
-0.15560928 2.5277627 -0.085783303
-0.23626606 2.4071672 -0.10471603
-0.32425278 2.4068658 -0.12838313
-0.408535 2.372401 -0.15019029
-0.15345681 2.5200491 -0.17822814
-0.23215026 2.3780413 -0.19140279
-0.43367621 3.2229207 -0.29143181
-0.38959646 2.2664437 -0.22840413
-0.14762221 2.4354439 -0.26256067
-0 0 -0
-0.2635619 1.9625815 -0.25064901
