# .PCD v0.7 - Point Cloud Data file format
VERSION 0.7
FIELDS x y z
SIZE 4 4 4
TYPE F F F
COUNT 1 1 1
WIDTH 1628
HEIGHT 1
VIEWPOINT 0 0 0 1 0 0 0
POINTS 1628
DATA ascii
-0.99400508 2.2722955 0.28043425
-1.0615449 2.2025046 0.25270674
-0.88216776 1.6722779 0.17739178
-0.93497419 1.6267748 0.15848236
-0.97071803 2.2200108 0.18482031
-0.9753949 2.0253863 0.14974669
-0.87813234 1.6656142 0.10774419
-0.93720138 1.6319022 0.089471154
-0.93007755 2.1288888 0.091725096
-1.0783761 2.2420268 0.074447192
-0.89251328 1.6949705 0.039390147
-0.94896513 1.6539897 0.02080173
-0.98332942 2.2516358 0.0069898772
-1.016943 2.1162879 -0.016023185
-0.89097476 1.6936976 -0.030798636
-0.94313186 1.6452193 -0.048631642
-0.99597365 2.2838483 -0.084395327
-1.0225904 2.1300399 -0.10229385
-0.89020729 1.6947505 -0.10119674
-0.95510215 1.6670445 -0.1198658
-0.97902226 2.2490473 -0.17315803
-1.0325261 2.1536252 -0.19132295
-0.89503491 1.7045915 -0.17253835
-0.92013705 1.6071213 -0.18392909
-0.94981754 2.1836231 -0.25624809
-0.90646058 1.8927982 -0.24579273
-0.8855322 1.6875669 -0.24123083
-0.7947157 1.388846 -0.21853834
-0.78407347 1.8066289 -0.28534409
-0.76319563 1.5959312 -0.27319628
-0.87004793 1.6596068 -0.30809581
-0.80168855 1.4015424 -0.28159454
-0.84441632 1.9497669 -0.38854933
-0.71099961 1.4885851 -0.31779552
-0.70864564 1.353744 -0.30932131
-0.85084116 1.4885578 -0.36506775
-0.50597847 1.1713922 -0.28297567
-0.52225757 1.0947022 -0.28088972
-0.69182831 1.3219543 -0.36060464
-0.62731647 1.0966097 -0.31895205
-0 0 -0
-0.59449846 1.2485363 -0.37578952
-0 0 -0
-0.39880571 0.69709444 -0.23575918
-0.9594779 2.2343001 0.75121903
-1.0403244 2.1876471 0.71948272
-0.87631494 1.6756526 0.54161769
-0 0 0
-0.97165495 2.2587411 0.65650606
-1.0386971 2.1857002 0.61953807
-0.86369801 1.6545497 0.45888481
-0.58700216 1.0300353 0.27924886
-0.96727115 2.2484422 0.55587316
-1.0482025 2.2049079 0.52882683
-0 0 0
-0.58323079 1.025122 0.23188488
-0.97254539 2.2592902 0.46343571
-1.0278556 2.1635685 0.42658365
-0 0 0
-0.7262432 1.2776306 0.23318489
-0.96241206 2.2362871 0.36637148
-1.0068828 2.1221926 0.32995465
-0.8570959 1.6475759 0.24291979
-0.92378223 1.62852 0.22703558
-0.97572482 2.268311 0.27919835
-1.0561116 2.2260518 0.25466013
-0.86546242 1.6652912 0.176084
-0.92939591 1.6402836 0.15923983
-0.93856668 2.1828725 0.18124561
-0.9680779 2.0421526 0.15054429
-0.87894011 1.6922348 0.10911527
-0.93799746 1.6567451 0.090515934
-0.92804092 2.1602621 0.092829749
-1.0509119 2.219692 0.073490053
-0.88946241 1.7146146 0.039719082
-0.94618291 1.6728367 0.020965353
-0.96318185 2.2429254 0.0069443597
-1.0372891 2.1929965 -0.016555471
-0.8791855 1.6964695 -0.030750364
-0.93597025 1.6561972 -0.048785459
-0.98627418 2.3000205 -0.084767714
-1.0171849 2.1525335 -0.10307241
-0.87153083 1.6842167 -0.10024653
-0.93209368 1.6502788 -0.11824683
-0.95813864 2.2385054 -0.17189051
-1.0346072 2.192373 -0.1941976
-0.88135564 1.7038587 -0.17191353
-0.93080181 1.6491342 -0.18808009
-0.91841602 2.1473587 -0.25132641
-0.85417473 1.8120779 -0.23462562
-0.8742497 1.6912061 -0.24097969
-0.90495765 1.6042608 -0.25155589
-0.82929558 1.9433926 -0.30613548
-0.90322483 1.9189125 -0.32753032
-0.83585054 1.6184473 -0.29949704
-0.76887995 1.3635299 -0.27300411
-0 0 -0
-0.6997636 1.4884765 -0.31684971
-0.62351012 1.2091062 -0.27539319
-0.75238484 1.3352578 -0.32633263
-0 0 -0
-0.5134604 1.093477 -0.27976164
-0.60219395 1.1680702 -0.31761399
-0.68534827 1.2152958 -0.3522425
-0 0 -0
-0 0 -0
-0 0 -0
-0.39169282 0.6945138 -0.23406915
-0 0 0
-1.0240372 2.1879117 0.71748972
-0.86161411 1.6724521 0.53886414
-0.64250875 1.1405195 0.36133352
-0.98976594 2.3402977 0.67843258
-1.0457882 2.235908 0.63193876
-0.85086519 1.6546366 0.4574523
-0.58496165 1.0412552 0.28131229
-0.94471991 2.2336779 0.55077952
-1.0292692 2.19979 0.52607471
-0 0 0
-0.57692981 1.0286814 0.23188488
-0.96555853 2.2815051 0.46676847
-1.0049698 2.1493223 0.42255101
-0 0 0
-0.79660195 1.4216421 0.25857195
-0.95252562 2.2512572 0.3678596
-0.99803221 2.1373036 0.33134568
-0.84923142 1.6572161 0.24356827
-0.91958648 1.6445552 0.22848013
-0.9617883 2.2742553 0.27919835
-1.0457996 2.2397003 0.25548261
-0.86112624 1.6820914 0.17729837
-0.91639841 1.6407356 0.15873484
-0.95543724 2.260227 0.18717812
-0.99645042 2.1357634 0.15699144
-0.87399697 1.7082615 0.10980082
-0.93998384 1.684275 0.091703184
-0.91865599 2.1751208 0.093224265
-1.0279846 2.206166 0.072832026
-0.86573207 1.6942216 0.039122887
-0.92518806 1.6593969 0.020725375
-0.98246115 2.3271 0.0071861739
-0.95629084 2.0542698 -0.015463602
-0.87103266 1.7062849 -0.030830821
-0.91606063 1.6444428 -0.048272736
-0.96981353 2.3005033 -0.084564596
-1.0347129 2.2248642 -0.1062299
-0.86798263 1.702878 -0.10103837
-0.9224357 1.656839 -0.1183091
-0.94825423 2.2535365 -0.1725947
-1.013158 2.1815028 -0.19268042
-0.87811917 1.7234337 -0.17334169
-0.93759829 1.6852497 -0.19153926
-0.90291059 2.1474543 -0.25068444
-0.87814915 1.8929673 -0.24439684
-0.86565679 1.7000748 -0.24148199
-0.94854295 1.7059027 -0.26657617
-0.82654363 1.9703475 -0.30957684
-0.85654056 1.8490916 -0.3147099
-0.84737951 1.6657612 -0.30728459
-0.83563954 1.5034081 -0.29997808
-0.81472874 1.9463714 -0.38585111
-0.60856783 1.3153955 -0.27920607
-0.76033437 1.4969118 -0.33987647
-0.74750203 1.3458345 -0.32779044
-0.40919924 0.98020989 -0.23556046
-0.5753966 1.2451795 -0.31766486
-0 0 -0
-0.66892803 1.2033768 -0.34759164
-0 0 -0
-0 0 -0
-0 0 -0
-0 0 -0
-0 0 0
-1.0150044 2.2037315 0.72062159
-0.84481061 1.6648481 0.53473389
-0 0 0
-0 0 0
-0.99357009 2.1586812 0.60837746
-0.83762503 1.6537621 0.45578101
-0.57526088 1.0388641 0.2797074
-0 0 0
-1.0088034 2.1909723 0.52247584
-0.98071212 1.9381114 0.44883454
-0.54971963 0.99441767 0.2233966
-0.94663447 2.2755914 0.46436149
-1.0222155 2.2216322 0.43552563
-0.95275086 1.8852216 0.35548609
-0.86569536 1.5674244 0.28411573
-0.94173199 2.2643638 0.36905006
-1.0018517 2.18028 0.33704892
-0.85557765 1.6951478 0.248367
-0.91283262 1.6562527 0.22932279
-0 0 0
-1.027469 2.2361329 0.25435171
-0.86020231 1.7060127 0.17926006
-0.91159987 1.6559298 0.15966065
-0.92280388 2.2209284 0.18345128
-0.97916365 2.1327691 0.15632677
-0.86754227 1.7216163 0.11031497
-0.91326314 1.6602541 0.090088524
-0.90720791 2.1853306 0.093421519
-0.99568135 2.1715453 0.071486056
-0.8966704 1.7816637 0.041014269
-0.92076766 1.6755584 0.020856272
-0.97467965 2.3487864 0.0072345375
-0.95282996 2.0801001 -0.015613735
-0.868182 1.7267836 -0.031104371
-0.91028333 1.6579192 -0.048503462
-0.96294868 2.3239534 -0.085207805
-1.0322667 2.2556996 -0.10739774
-0.85706961 1.7072794 -0.10098558
-0.91081178 1.6598428 -0.11812229
-0.93745881 2.2666867 -0.17315803
-1.004311 2.1976511 -0.19355877
-0.86931467 1.7323501 -0.17369872
-0.91862798 1.6752653 -0.18976025
-0.83807319 2.0279851 -0.2361334
-0.9440546 2.0681839 -0.26626575
-0.85654324 1.7080148 -0.24185872
-0.90520203 1.6517382 -0.25723925
-0.73597455 1.785072 -0.27975193
-0.84066993 1.8444206 -0.31303108
-0.83758461 1.6718116 -0.30744684
-0.76534212 1.397054 -0.27781475
-0.62874341 1.5283173 -0.30220503
-0.80105388 1.7597002 -0.37246394
-0.6524747 1.3043227 -0.2952342
-0.72232264 1.31951 -0.32029331
-0 0 -0
-0 0 -0
-0.56172812 1.1232107 -0.30351868
-0.61494493 1.1224263 -0.32311335
-0 0 -0
-0.49645028 1.0940601 -0.32648844
-0 0 -0
-0 0 -0
-0 0 0
-1.0766425 2.3758147 0.77471805
-0.83414966 1.6691405 0.53445852
-0.90335983 1.6506017 0.51938373
-0 0 0
-0.99908876 2.2062137 0.6200341
-0.83222997 1.6684293 0.45840731
-0.55768472 1.0218687 0.27420497
-0.95596337 2.3398898 0.57403314
-1.0110694 2.2318406 0.53073215
-0.92206496 1.8503062 0.42718199
-0.80790049 1.4828718 0.33200821
-0.92670393 2.2668028 0.46139905
-0.98907536 2.1848121 0.42710966
-0.91172647 1.831882 0.34436676
-0.89241934 1.6395012 0.29618242
-0.94615233 2.3149521 0.37634179
-0.99702168 2.2053354 0.33997008
-0.84118831 1.6923743 0.24719974
-0.89459771 1.6469927 0.22727634
-0.93192834 2.2812872 0.27863657
-1.0190558 2.254178 0.25568825
-0.85813123 1.7282019 0.18103489
-0.89191842 1.643975 0.15797736
-0.95137548 2.3299377 0.19196975
-0.9648267 2.1360092 0.15612739
-0.85341197 1.7197524 0.10985795
-0.89972651 1.6596797 0.089756094
-0.87868422 2.1538484 0.091843449
-0.96713054 2.1439018 0.070379369
-0.85908318 1.7333837 0.039780758
-0.91523117 1.6899694 0.020965353
-0.92437696 2.2667563 0.0069642738
-0.93429673 2.073144 -0.015518197
-0.86111951 1.7392467 -0.0312331
-0.89961767 1.6625941 -0.048477825
-0.93208712 2.2890902 -0.08371827
-1.0138949 2.2519701 -0.10692195
-0.87888318 1.7778553 -0.10483918
-0.9044081 1.6724236 -0.11862044
-0.91677278 2.2557623 -0.17189051
-1.0010263 2.226501 -0.19555506
-0.84940261 1.7189 -0.17182428
-0.91211617 1.6878741 -0.19055092
-0.83197349 2.0487497 -0.23795231
-0.95860767 2.1346428 -0.27405947
-0.83813995 1.6972268 -0.23959835
-0.88940006 1.6467998 -0.25561541
-0.73206824 1.8069819 -0.28247634
-0.85319406 1.9027489 -0.32203585
-0.80504549 1.6317886 -0.29917255
-0.84754747 1.5698959 -0.31114566
-0 0 -0
-0 0 -0
-0.72631598 1.4744771 -0.33273372
-0.80290884 1.4883308 -0.36006966
-0 0 -0
-0.55450404 1.2396964 -0.31450626
-0.71328592 1.4484076 -0.39020476
-0.72090334 1.3352039 -0.38308513
-0 0 -0
-0 0 -0
-0 0 -0
-0 0 -0
-0 0 0
-1.0417482 2.3368473 0.75991273
-1.0705081 2.175374 0.6944381
-0.90145153 1.6713852 0.52417314
-0 0 0
-0.97883129 2.1972589 0.61581784
-1.0625765 2.163353 0.59258693
-0 0 0
-0 0 0
-0.99218434 2.2263973 0.52798003
-1.0668627 2.1741889 0.50043631
-0.81131834 1.5111424 0.33721694
-0.91497535 2.2779179 0.46250996
-1.020909 2.2924674 0.44692218
-1.068846 2.1810212 0.40875918
-0.88887858 1.6571308 0.29837638
-0.92234933 2.2968554 0.3724727
-0.98830009 2.2222695 0.34163937
-1.0413185 2.1276689 0.30984271
-0.87510562 1.634946 0.22486874
-0.91865337 2.2888069 0.27886128
-1.0052053 2.2603884 0.25568825
-1.0364299 2.1198349 0.22138943
-0.87805599 1.6423868 0.15730403
-0 0 0
-0.97317529 2.1902161 0.15965006
-0.97696233 1.9994426 0.12733924
-0.88811404 1.6625259 0.089613624
-0.88143748 2.1990814 0.093539871
-0.94990337 2.1406593 0.070080265
-0.95804763 1.9632505 0.044920392
-0.89919508 1.6849672 0.020834455
-0.90003729 2.2463939 0.0068846168
-0.94303727 2.1272888 -0.015879879
-1.0392703 2.1318643 -0.038168427
-0.89927626 1.6866072 -0.049016181
-0.91431183 2.2854869 -0.083379738
-1.0024853 2.2636299 -0.10718147
-0.98071384 2.0148709 -0.11845879
-0.90116966 1.6911535 -0.11955446
-0.90624338 2.2696824 -0.17252427
-0.97887945 2.2134569 -0.19387819
-0.94734406 1.9470901 -0.19404985
-0.92091846 1.7294508 -0.1946031
-0.74828005 1.8755847 -0.21730265
-0.88930798 2.0132909 -0.25777411
-0.87065744 1.7906665 -0.25203034
-0.8881228 1.6688446 -0.25818646
-0.56469649 1.418808 -0.22124922
-0.77131122 1.7488018 -0.29517409
-0.83037114 1.7094791 -0.31247631
-0.87121123 1.6376867 -0.32351589
-0.48541158 1.2223346 -0.24050483
-0.86133718 1.9554138 -0.41162089
-0.70057476 1.4445128 -0.32499573
-0.70148498 1.3196383 -0.31821078
-0 0 -0
-0.46842399 1.0647289 -0.2693834
-0.56020045 1.1553836 -0.31033143
-0.73000222 1.3721292 -0.39238688
-0 0 -0
-0 0 -0
-0.50818485 1.0488034 -0.32906023
-0 0 -0
-0 0 0
-0.99621022 2.272083 0.7368505
-1.0500143 2.1671941 0.68975711
-0.88801247 1.6709263 0.52231055
-0 0 0
-1.0228696 2.3345475 0.65252388
-1.0839485 2.2415187 0.61216474
-0.89057767 1.6805631 0.44799036
-0 0 0
-0.96948081 2.2118552 0.52311093
-1.0688381 2.2124388 0.5077213
-0 0 0
-0.89160335 2.2597218 0.45769599
-0.9850992 2.2490895 0.43727893
-1.0280181 2.1306963 0.39813778
-0.87315595 1.6520754 0.29649585
-0.91005307 2.3070712 0.37321678
-0.99290067 2.2700269 0.34803814
-1.0437385 2.1661758 0.31451175
-0.87478226 1.6587248 0.22739671
-0 0 0
-0.99610001 2.2774498 0.25692195
-1.0829939 2.2499559 0.23428047
-0.87399918 1.6592046 0.15839818
-0.90626103 2.2996919 0.18854715
-0.93414682 2.1376309 0.15539625
-0.96207887 2.0000014 0.12699646
-0.88394427 1.6794348 0.090230994
-0 0 0
-0.92835462 2.1272089 0.069452137
-1.0767325 2.2412503 0.051129069
-0.90186948 1.7152343 0.021139883
-0.89942044 2.2853732 0.0069870325
-0.9591406 2.1999505 -0.016378043
-1.0486659 2.1850755 -0.039005168
-0.89634907 1.7062532 -0.049426362
-0.90429187 2.3012865 -0.083752126
-0.9917686 2.277066 -0.10752749
-1.0542049 2.2000613 -0.12896381
-0.88752836 1.6904655 -0.11911859
-0.8875652 2.2631278 -0.17160884
-0.96329165 2.2148509 -0.19347893
-0.97022998 2.0256271 -0.20127986
-0.89595777 1.707752 -0.19153926
-0.78899449 2.0134447 -0.23270965
-0.85517269 1.9686062 -0.25137627
-0.79154956 1.6536928 -0.2320638
-0.8806268 1.6795274 -0.25899836
-0.68353498 1.7485423 -0.27200893
-0.7688247 1.7725415 -0.29837918
-0.74111485 1.5498533 -0.2824617
-0.7806567 1.4894338 -0.29327756
-0 0 -0
-0.57298064 1.322726 -0.27769276
-0.70521122 1.4770876 -0.33134484
-0.77823132 1.4859415 -0.3571541
-0.37971225 0.97630858 -0.23231286
-0.46149531 1.066689 -0.2691578
-0.59245825 1.2412572 -0.33241406
-0.62704051 1.1962442 -0.3409825
-0 0 -0
-0 0 -0
-0 0 -0
-0 0 -0
-0 0 0
-0.97162312 2.2535052 0.72887844
-1.0379385 2.1761992 0.69058317
-0.87863749 1.6780516 0.52284271
-0 0 0
-0.97441 2.2615972 0.63045067
-1.0647484 2.2367291 0.60906094
-0.86583358 1.6583849 0.44065377
-0.93315554 2.4098332 0.586878
-0.96749622 2.2446878 0.52946192
-1.0527192 2.213649 0.5065071
-0.87933117 1.6871794 0.37406388
-0.89760482 2.3164639 0.46806452
-0.97283822 2.2587085 0.43798026
-1.0153481 2.1378548 0.39830372
-0.90679121 1.7414984 0.31154004
-0 0 0
-0.98403984 2.2879026 0.34984648
-1.0393506 2.1913531 0.31723535
-0.86275727 1.6605375 0.22691521
-0.88260382 2.2795217 0.27638951
-0.97188908 2.2597606 0.25424889
-1.0555263 2.2277668 0.23129123
-0.86334306 1.6636516 0.15831402
-0.92020369 2.3777411 0.19447966
-0.94504285 2.1992433 0.15945065
-0.97627884 2.061811 0.13053843
-0.87822086 1.6936945 0.090705894
-0 0 0
-0.93302292 2.1741998 0.070798114
-1.0629603 2.2478149 0.051129069
-0.89178801 1.7216238 0.02115079
-0.88429922 2.2880507 0.0069784978
-0.95389807 2.2250948 -0.01652135
-1.0352387 2.1914687 -0.039005168
-0.88310599 1.706394 -0.049272545
-0.8793602 2.2788191 -0.082736529
-0.97345167 2.2730062 -0.10705171
-1.0504835 2.2272618 -0.13017796
-0.88309985 1.707404 -0.11992807
-0.87724715 2.2778399 -0.17231302
-0.95987403 2.2445493 -0.19555506
-0.97052479 2.0585694 -0.20395765
-0.88500547 1.7123332 -0.19144042
-0.79947776 2.0776355 -0.23955718
-0.88989347 2.0834222 -0.26533517
-0.85242301 1.8092929 -0.25316051
-0.85802782 1.6611311 -0.25534481
-0 0 -0
-0.75522029 1.7708622 -0.29731083
-0.73789442 1.5677636 -0.28489533
-0.80359244 1.5563444 -0.30547598
-0 0 -0
-0 0 -0
-0.61401582 1.3066365 -0.29225805
-0.75564545 1.4646125 -0.35090652
-0 0 -0
-0.41108716 0.96640539 -0.24321216
-0.50423574 1.0733147 -0.28660432
-0.58232051 1.1277032 -0.32042074
-0 0 -0
-0.44871238 1.0570585 -0.31206527
-0 0 -0
-0.37202805 0.72039586 -0.23801257
-0.87926513 2.3172095 0.76568264
-0.97124636 2.2911978 0.73912829
-1.0249745 2.1833971 0.69085854
-0.87009215 1.686838 0.52390701
-0 0 0
-0.96467125 2.2773459 0.63317883
-1.0312282 2.2010114 0.59760076
-0.87612009 1.7034836 0.45120013
-0 0 0
-0.95141685 2.2451828 0.52819175
-1.0328895 2.2067623 0.50347173
-0.87030679 1.6951618 0.37464264
-0 0 0
-0.96011245 2.267355 0.43850628
-1.0306073 2.2047925 0.40958899
-0.88887662 1.732969 0.30903268
-0.8858918 2.3291564 0.3750025
-0.96304083 2.2774801 0.34734264
-1.0271435 2.2003846 0.31762442
-0.85390902 1.6684512 0.22727634
-0.89472896 2.3536272 0.28470367
-0.95413131 2.2565198 0.2532208
-1.0367879 2.2233734 0.23017028
-0.87398189 1.7097312 0.16218559
-0.88151366 2.3199606 0.18930772
-0.95715857 2.2656634 0.16383737
-0.98933387 2.1229632 0.13402326
-0.86008805 1.6839288 0.089898564
-0.86776161 2.2859306 0.096538194
-0.91616791 2.1715953 0.070528917
-1.0124466 2.1754351 0.049340475
-0.88302535 1.730626 0.021194423
-0.87450057 2.3046529 0.0070126369
-0.97867519 2.3221326 -0.017196946
-1.0302031 2.2159131 -0.039326992
-0.87398118 1.7144524 -0.049349453
-0.86500704 2.2832372 -0.082702681
-0.96142477 2.2835402 -0.10726797
-1.0355361 2.230948 -0.13001959
-0.87985587 1.7270193 -0.12092436
-0.87066251 2.302774 -0.17379181
-0.9302448 2.2127218 -0.19228117
-1.0190789 2.1963961 -0.21698952
-0.87583649 1.7203918 -0.19173692
-0.76036191 2.0127439 -0.23153271
-0.82864344 1.9734579 -0.25067836
-0.86759615 1.871192 -0.26107177
-0.83389103 1.6389892 -0.25114995
-0 0 -0
-0.73860872 1.7617913 -0.29502147
-0.71996635 1.5543544 -0.28165051
-0.78286314 1.5392936 -0.30118075
-0.44552165 1.1850243 -0.23151065
-0.49564999 1.1838301 -0.24723735
-0 0 -0
-0.61326772 1.2067671 -0.28822231
-0.38894942 1.0375727 -0.24573635
-0.38335127 0.91677904 -0.23012654
-0.42788929 0.92551756 -0.24643274
-0.48791674 0.95927656 -0.27170894
-0 0 -0
-0 0 -0
-0 0 -0
-0.40327331 0.79279345 -0.26110965
-0 0 0
-0.96896815 2.3254297 0.74823922
-1.0115582 2.1896453 0.69085854
-0.85623246 1.6852698 0.5217784
-0 0 0
-1.0028124 2.408428 0.66790074
-1.0103849 2.1914241 0.5933032
-0.85729384 1.6923295 0.44684404
-0.85407543 2.2886274 0.55476582
-0.93461639 2.2437606 0.52649814
-1.0205587 2.2157271 0.50407881
-0.97589874 1.9298844 0.42518657
-0.86532897 2.317178 0.46602786
-0.95450515 2.2931993 0.44236356
-1.0154113 2.2074912 0.40892518
-0.8840161 1.7498504 0.31106991
-0 0 0
-0.95588964 2.2998061 0.34984648
-1.0036894 2.1850207 0.31451175
-0.85303938 1.692275 0.22980431
-0.86776471 2.3255579 0.28065896
-0.92499733 2.2255907 0.24910839
-1.0276935 2.2396472 0.23119782
-0.86168236 1.7115016 0.16184895
-0 0 0
-0.94438666 2.2742584 0.16403678
-0.9729597 2.1217337 0.13356623
-0.85198385 1.6936362 0.090136014
-0 0 0
-0.9093349 2.1928723 0.071037397
-0.96785808 2.1134312 0.047798585
-0.86430794 1.7199291 0.020998077
-0.85999405 2.3090384 0.0070097921
-0.95177931 2.2976072 -0.016971748
-1.0020288 2.1903691 -0.038763802
-0.86568773 1.7242497 -0.049477633
-0.85063279 2.2875652 -0.082668833
-0.95274335 2.3023207 -0.10787352
-1.0218278 2.2372599 -0.13001959
-0.86431885 1.7225727 -0.12023941
-0.83499956 2.2500906 -0.16942587
-0.91284353 2.2091751 -0.19148265
-0.99606889 2.1817687 -0.21493655
-0.86704797 1.7292916 -0.19213226
-0.70202553 1.8933835 -0.21730265
-0.82674909 2.003294 -0.25381908
-0.97386855 2.1346204 -0.2969864
-0.8287012 1.6538191 -0.25263843
-0 0 -0
-0.58885425 1.4291143 -0.23870337
-0.89497614 1.9636927 -0.35482123
-0.80075711 1.5986787 -0.31183288
-0.43109128 1.1683552 -0.22773308
-0.54367888 1.3212436 -0.27523363
-0.88776928 1.9510372 -0.43392286
-0.68202078 1.3626953 -0.32445836
-0 0 -0
-0.38919845 0.94704771 -0.23712055
-0.44393635 0.97590327 -0.2591185
-0.57538611 1.1486346 -0.32433727
-0 0 -0
-0 0 -0
-0 0 -0
-0 0 -0
-0 0 0
-0 0 0
-1.0565816 2.3244615 0.73133528
-0.83811146 1.6749749 0.51698899
-0 0 0
-0.9432559 2.305151 0.63764304
-1.0346301 2.2807102 0.61574608
-0.85819149 1.7202036 0.45280501
-0.87254423 2.3826478 0.57624781
-0.9260149 2.262116 0.52946192
-1.0081568 2.2246234 0.50468588
-0.97059995 1.9490112 0.42808032
-0.84669894 2.3104489 0.46362087
-0.9269979 2.2662091 0.43605161
-0.9981879 2.2055943 0.40743151
-0.91945529 1.8480883 0.32752448
-0.83377063 2.275785 0.36473459
-0.94513047 2.3138788 0.35109845
-1.0065978 2.2272806 0.31969956
-0.84131557 1.6948099 0.22944318
-0.83502907 2.280452 0.27459186
-0.93389076 2.2864757 0.25527698
-1.0106546 2.2386513 0.23045051
-0.8551482 1.7247913 0.16260642
-0 0 0
-0.93267626 2.2855532 0.16443557
-0.94432092 2.0930824 0.13139535
-0.85000044 1.7158381 0.091038316
-0 0 0
-0.89699417 2.2011876 0.071127124
-0.99060285 2.1986341 0.049587179
-0.85551244 1.7287849 0.02104171
-0.83894444 2.2954869 0.0069528935
-0 0 -0
-0.94055736 2.089798 -0.036881126
-0.86040831 1.7402827 -0.049785268
-0.84822822 2.3246634 -0.083819829
-0.93220085 2.2923903 -0.10713822
-1.0088996 2.2453096 -0.13012518
-0.88998687 1.8012165 -0.12534538
-0.82868624 2.2757926 -0.17097509
-0.91727155 2.2590663 -0.1953155
-0.99368131 2.2123706 -0.21734655
-0.84981275 1.7211951 -0.19064976
-0.71826887 1.9742718 -0.22607608
-0.77786255 1.9181291 -0.24241933
-0.85269326 1.8997999 -0.2635833
-0.85974985 1.7423939 -0.26535833
-0.57661229 1.5889627 -0.24490839
-0.63682067 1.5728561 -0.26205477
-0.88452518 1.9727489 -0.35547021
-0.76696509 1.5549692 -0.30238342
-0 0 -0
-0 0 -0
-0.53139538 1.1871084 -0.26329017
-0.55603945 1.1282252 -0.2678135
-0.34967211 0.96880382 -0.22841571
-0.40271336 0.99729544 -0.24907814
-0 0 -0
-0.77764344 1.57648 -0.4437913
-0 0 -0
-0 0 -0
-0 0 -0
-0 0 -0
-0 0 0
-0.92890835 2.308687 0.73912829
-1.0081575 2.2545495 0.70737964
-0.99397838 2.0173137 0.62075931
-0 0 0
-0.94427174 2.3486462 0.64805967
-1.1104497 2.4883156 0.66994321
-1.0810914 2.2006965 0.57752699
-0.81438619 2.2668149 0.54701459
-0.95916384 2.3847246 0.55677122
-1.0076466 2.2602844 0.5113638
-0.98367918 2.0060277 0.43926945
-0.83982068 2.3359451 0.46769419
-0.94097781 2.3412797 0.44937688
-0.9954648 2.2360015 0.41191241
-0.98413527 2.0089087 0.35494879
-0 0 0
-0.93570971 2.3315818 0.35290679
-1.0049965 2.2605965 0.32359043
-1.0955157 2.2413166 0.30251345
-0.82102078 2.2855327 0.27459186
-1.0528376 2.6235712 0.29218575
-0.99972814 2.2511799 0.23110442
-1.0019183 2.0523672 0.19290575
-0.7857607 2.1884573 0.17736666
-0.91343629 2.2782669 0.16350505
-0.95332927 2.1481142 0.13448028
-1.013303 2.0774353 0.10989185
-0.81710392 2.2780025 0.095551908
-0.92136598 2.3013003 0.074177995
-0.987221 2.2275219 0.050101139
-0.99643427 2.0450253 0.02481591
-0.83193129 2.3203592 0.0070126369
-0.95284796 2.3824632 -0.017510859
-0.93864548 2.1202154 -0.037315588
-1.0549228 2.1670806 -0.061808582
-0.8208127 2.2931266 -0.082499564
-0.92367727 2.3119833 -0.10778701
-0.99469995 2.2505445 -0.13007239
-1.071468 2.202436 -0.15280555
-0.81403553 2.2789555 -0.17083424
-0.9030236 2.2637265 -0.19523565
-0.96237767 2.1783395 -0.21341912
-0.95061171 1.9554867 -0.21595113
-0.71015167 1.9898787 -0.22735998
-0.74365485 1.8665823 -0.23532355
-0.88028646 1.9939382 -0.27588969
-0.86636114 1.7832843 -0.27077103
-0.73146439 2.0549212 -0.31602931
-0.70532423 1.7732517 -0.29471624
-0.90107262 2.043144 -0.36715156
-0.75827026 1.5614182 -0.30272701
-0 0 -0
-0 0 -0
-0.57978964 1.3168266 -0.29126599
-0.55294925 1.1395353 -0.2696878
-0 0 -0
-0.38078049 0.95990264 -0.23915111
-0.88069266 2.0008099 -0.52833867
-0.52693707 1.0849642 -0.30450985
-0 0 -0
-0 0 -0
-0 0 -0
-0 0 -0
-0 0 0
-0 0 0
-0.97688818 2.2210937 0.69498885
-1.0539485 2.1725476 0.66652471
-0.78403479 2.2252717 0.62993628
-1.0305493 2.6093879 0.71824753
-0.98822051 2.2514427 0.60452461
-1.0773153 2.2274425 0.58280015
-0 0 0
-0.92871165 2.3505709 0.54745644
-0.98432052 2.2448993 0.5065071
-1.0690416 2.2143769 0.48344716
-0.81141979 2.3012025 0.45973265
-0.91285622 2.3122118 0.44271421
-0.98805481 2.2565207 0.4145678
-1.0134078 2.1011994 0.3701497
-0.86002517 2.4397271 0.38928831
-0.91085356 2.3105624 0.34887278
-0.97879255 2.2385569 0.31956989
-1.0623721 2.207742 0.2970964
-0.82580239 2.3439484 0.28099602
-0.90320837 2.291286 0.25455731
-0.97035474 2.2216883 0.22746129
-0.99275953 2.0656612 0.19357908
-0.80907905 2.2976325 0.18580906
-0.91296816 2.3181794 0.16596428
-0.92854881 2.1273882 0.13282356
-0.98583603 2.0529988 0.10827719
-0.82333791 2.3404717 0.097958453
-0.91783684 2.3338861 0.075045399
-0.97113782 2.2280385 0.049977791
-1.0318716 2.1511765 0.026026707
-0.82398081 2.3433444 0.0070666894
-0.90932661 2.3147368 -0.016971748
-0.97910392 2.2487791 -0.039471816
-1.0645033 2.2212923 -0.063167304
-0.82327855 2.3452706 -0.084192216
-0.91458321 2.3306274 -0.10839256
-0.98166829 2.2584369 -0.13017796
-1.0493118 2.1909657 -0.15156019
-0.8013559 2.2876732 -0.17111591
-0.87638897 2.2367408 -0.19244087
-0.95574093 2.1997333 -0.21493655
-0.9347291 1.9532042 -0.21506162
-0.69365895 1.9819988 -0.22596906
-0.74666506 1.908107 -0.23997654
-0.87356681 2.0120425 -0.27764779
-0.81692886 1.7081214 -0.25859243
-0.50260228 1.4398777 -0.22096245
-0.62214643 1.5925193 -0.26403889
-0.83080274 1.9155592 -0.34330213
-0.91863567 1.9215561 -0.37145054
-0 0 -0
-0.43290094 1.1096468 -0.22945593
-0.84975946 1.9625505 -0.43293083
-0.56871217 1.1905646 -0.28093347
-0 0 -0
-0 0 -0
-0 0 -0
-0.51608771 1.0794296 -0.30206203
-0 0 -0
-0 0 -0
-0 0 -0
-0 0 -0
-0 0 0
-0.90293545 2.3261678 0.74112129
-0.9773618 2.2596927 0.70517683
-1.0451677 2.1885419 0.66945153
-0 0 0
-0.90451926 2.3320577 0.6403712
-0.97323287 2.2547894 0.60380834
-1.0427067 2.190069 0.57133675
-0 0 0
-0.89129078 2.2970004 0.53369594
-0.9844864 2.2832708 0.5137921
-1.0646999 2.240392 0.48769134
-0.80852306 2.338645 0.46621299
-0.87302667 2.2516785 0.43009028
-0.9749704 2.2643523 0.41489968
-1.0373474 2.1849992 0.38378349
-0 0 0
-0.90309435 2.3327303 0.35137662
-0.97091341 2.2581844 0.32151529
-1.0632542 2.2447226 0.3011893
-0.79875177 2.3123419 0.27661422
-0.90385544 2.3348174 0.25877252
-0.95670444 2.2276006 0.22746129
-1.0448357 2.208627 0.20637213
-0.7852037 2.2742784 0.18352734
-0.88756925 2.2948885 0.16390383
-0.97375351 2.2688265 0.14127856
-0.97535467 2.0635245 0.10851464
-0.7988618 2.3161967 0.096735463
-0.88873488 2.3012445 0.073819071
-0.95075303 2.2183332 0.049628291
-1.0020026 2.1222029 0.025601292
-0.77438736 2.2462537 0.0067594419
-0.89294702 2.3146751 -0.016930804
-0.96686131 2.2584209 -0.039536178
-1.0482948 2.2223573 -0.063013487
-0.79163498 2.3001914 -0.082398005
-0.87727398 2.2765322 -0.10562436
-0.96465272 2.257072 -0.12975565
-1.0460624 2.2190297 -0.15305462
-0.78309196 2.2802825 -0.17020047
-0.84976208 2.2085845 -0.18956622
-0.94496465 2.2119677 -0.21556138
-0.92230284 1.9580027 -0.2149628
-0.68632472 2.0003245 -0.22757398
-0.70466185 1.833847 -0.23008898
-0.8487404 1.988167 -0.27362937
-0.83892626 1.7821277 -0.26901188
-0.49568033 1.4485526 -0.22182277
-0.60917747 1.5880022 -0.26266527
-0.77142423 1.808978 -0.32334647
-0.76379907 1.6231971 -0.31286374
-0.34604445 1.0138048 -0.19589363
-0.48474535 1.2654158 -0.26104635
-0.55782777 1.3103154 -0.28828984
-0.53060061 1.1285326 -0.26552275
-0 0 -0
-0 0 -0
-0.83780235 1.9685364 -0.51706243
-0 0 -0
-0 0 -0
-0 0 -0
-0 0 -0
-0 0 -0
-0.80622506 2.3860197 0.77807999
-0 0 0
-0.95369667 2.2426457 0.69801766
-1.0345898 2.2010202 0.67131406
-0 0 0
-0.85088944 2.2343564 0.61209768
-0.99010688 2.3331258 0.62314743
-1.0300752 2.1981883 0.57179528
-0.78878725 2.3294511 0.55853069
-0.8789196 2.3069925 0.5347544
-0.95096481 2.2432849 0.50347173
-1.0363829 2.2157745 0.48093927
-0 0 0
-0.87285441 2.2928767 0.43692827
-0.96298039 2.2748325 0.41572949
-1.0331192 2.2110085 0.38723111
-0.7852838 2.3180392 0.36830604
-0.87011617 2.2891676 0.34400412
-0.96321613 2.2787123 0.32359043
-1.0339413 2.2179134 0.29673526
-0 0 0
-0.85417205 2.2473388 0.24849153
-0.96935284 2.2957995 0.23381339
-1.0358906 2.2249331 0.20729794
-0.79392695 2.3461125 0.18892744
-0.90641248 2.3870418 0.17008512
-0.96175456 2.2793579 0.14156422
-0.96815169 2.081244 0.10913201
-0.78047484 2.308749 0.096222587
-0.88806421 2.34217 0.074955672
-0.9514873 2.258215 0.050388962
-1.0268856 2.2099249 0.02658302
-0.76571184 2.2661209 0.0068049603
-0.85428905 2.2555852 -0.016459934
-0.96190655 2.2855072 -0.039906278
-1.0291668 2.2169602 -0.062680215
-0.78772831 2.3353097 -0.083481297
-0.85940021 2.2715936 -0.10514858
-0.95968211 2.2841232 -0.13096981
-1.0345269 2.2299333 -0.15336595
-0.77322227 2.2973347 -0.17111591
-0.84006906 2.2240145 -0.1904446
-0.94140172 2.2416003 -0.21788211
-0.93412673 2.0150855 -0.2205963
-0.68069279 2.0242884 -0.22982082
-0 0 -0
-0.7992866 1.9046023 -0.2614485
-0.82672614 1.7845448 -0.26860595
-0 0 -0
-0.62136501 1.6499772 -0.27228054
-0.83126724 1.9829416 -0.35352331
-0.6375016 1.3766577 -0.26458549
-0.33856916 1.0121773 -0.19517408
-0.42132509 1.1203902 -0.23059092
-0 0 -0
-0.92411655 1.9972359 -0.46856952
-0 0 -0
-0.36441728 0.970397 -0.24005355
-0 0 -0
-0.49791306 1.0751238 -0.29912463
-0 0 -0
-0 0 -0
-0 0 -0
-0 0 -0
-0 0 0
-0.85551196 2.2867942 0.72517711
-0.98144507 2.3477952 0.7288571
-1.0178275 2.2003281 0.66918546
-0 0 0
-0.87786847 2.3484266 0.64185929
-0.95595795 2.291657 0.61049348
-1.0186059 2.2088869 0.5729416
-0 0 0
-0.85036945 2.2738945 0.52586305
-0.95639306 2.2951801 0.5137921
-1.0276908 2.2327881 0.48325428
-0.78162146 2.3539867 0.46732393
-0.92321134 2.4706457 0.46971542
-0.95809639 2.3025494 0.41971251
-1.0248971 2.2289712 0.38926834
-0.78381866 2.3612928 0.37440723
-0.8709386 2.3343592 0.3499856
-0.96443391 2.3212061 0.32877824
-1.0227965 2.2296295 0.29745755
-0.77188003 2.3266852 0.27717599
-0.90503693 2.4258814 0.26761419
-0.96020919 2.3136587 0.23502776
-0.99690229 2.1759872 0.20216389
-0.76727778 2.3140287 0.18596119
-0.86421925 2.3186967 0.16483435
-1.0051204 2.4235463 0.15013348
-0.96450943 2.1071267 0.11017679
-0.764723 2.3087516 0.096025325
-0.87995166 2.3644371 0.075494058
-0.95482761 2.3055775 0.051314093
-0.95842075 2.0961447 0.025143152
-0.78165078 2.3609622 0.0070752241
-0.86412668 2.3245213 -0.016923977
-0.95283353 2.3033776 -0.040115464
-1.0113909 2.2141404 -0.062423855
-0.7705617 2.3315585 -0.08317662
-0.8604002 2.3170967 -0.10700846
-0.94374305 2.2853537 -0.13070585
-1.0212394 2.2371471 -0.15342823
-0.75505042 2.2897205 -0.17020047
-0.84442496 2.2777286 -0.19459684
-0.93142998 2.256541 -0.21877471
-0.94776177 2.0778172 -0.22682281
-0.6598593 2.0029302 -0.226932
-0 0 -0
-0.79136795 1.918642 -0.26270425
-0.85069263 1.8662161 -0.28010798
-1.161152 3.5343015 -0.5389992
-0.57319874 1.5508624 -0.25533932
-0.72435784 1.7580934 -0.31263855
-0.82306546 1.8063604 -0.34619462
-0.33572164 1.0245184 -0.19715282
-0 0 -0
-0.46192291 1.1230832 -0.2458301
-0.58276993 1.2800556 -0.29946801
-0.27795938 0.85100555 -0.19853763
-0 0 -0
-0 0 -0
-0.41250479 0.90522975 -0.25114718
-0 0 -0
-0 0 -0
-0 0 -0
-0 0 -0
-0 0 0
-0.83353531 2.2704031 0.71834379
-0.95423442 2.3226504 0.7192198
-1.0083007 2.2153053 0.67184621
-0 0 0
-0.84942967 2.3155701 0.63144273
-0.92640775 2.2597423 0.60046583
-1.027555 2.2647333 0.58578062
-0.74718153 2.2990763 0.54900777
-0.86232811 2.3497169 0.54216391
-0.95268369 2.3263807 0.51945817
-1.0253052 2.2640793 0.48865592
-0 0 0
-0.86329359 2.3542531 0.44657156
-0.93312591 2.2819147 0.41489968
-1.0042806 2.2199204 0.38660425
-0.75433254 2.319978 0.36711553
-0.85625839 2.3387291 0.34984648
-0.94080263 2.3041306 0.32553586
-1.0201226 2.2602942 0.30070779
-0.75390416 2.3200374 0.27582777
-0.83747232 2.2875419 0.25178146
-0.92531526 2.2688024 0.22989005
-1.004824 2.2293019 0.20654047
-0.75337267 2.3196414 0.18603724
-0.87259603 2.385803 0.16922107
-0.97930372 2.4028568 0.14847675
-0.94869113 2.1066298 0.10984436
-0.75732625 2.3343103 0.096893266
-0.83696824 2.291863 0.073011495
-0.90109169 2.2141588 0.049155448
-0.94554102 2.1019859 0.025143152
-0.75758708 2.3362255 0.0069870325
-0.83168536 2.27999 -0.016562296
-0.96805149 2.3814294 -0.041370582
-0.9645949 2.1464462 -0.06034733
-0.7648592 2.3628666 -0.084124506
-0.83795798 2.2998037 -0.10597038
-0.92407042 2.2772217 -0.12991402
-1.0095377 2.2479234 -0.15373956
-0.74343938 2.3019044 -0.17076384
-0.82327724 2.2631953 -0.19291997
-0.90671003 2.2354474 -0.21618618
-0.94925392 2.1153696 -0.23028198
-0.65976942 2.04479 -0.23121172
-0.68096107 1.8745127 -0.2335787
-0.61300665 1.5124736 -0.20657195
-0.87976801 1.9618064 -0.29363975
-1.1015536 3.4235971 -0.52107561
-0.48954901 1.3499528 -0.22176214
-0 0 -0
-0.88127559 1.9659953 -0.37574574
-0.36339387 1.1323996 -0.21747971
-0.41088772 1.1347089 -0.23248257
-0.5718087 1.4148674 -0.3089245
-0.50254184 1.1220406 -0.26177418
-0.28165501 0.88059127 -0.20503287
-0.33359864 0.92257476 -0.22719355
-0 0 -0
-0.4747664 1.0590345 -0.29300505
-0 0 -0
-0 0 -0
-0 0 -0
-0 0 -0
-0 0 0
-0 0 0
-0.93312746 2.3115242 0.71398813
-0.99587065 2.2240899 0.6726445
-0 0 0
-0.84767139 2.3553765 0.64086723
-0 0 0
-0.99023259 2.2185538 0.57225382
-0 0 0
-0.83729976 2.3255384 0.53538954
-0.91609222 2.2767622 0.50711417
-1.003408 2.2524016 0.48479757
-0 0 0
-0 0 0
-0.92204797 2.2949176 0.41622737
-0.98863274 2.2215292 0.38582072
-0.7343834 2.3066599 0.36428815
-0.83218437 2.3169115 0.34581247
-0.93624568 2.3337865 0.32890794
-0.98851067 2.2265885 0.29541111
-0.75050074 2.3587077 0.27987248
-0.84695637 2.3581681 0.25897813
-0.91508001 2.2836792 0.23082417
-0.97981769 2.2099192 0.20418385
-0.73519713 2.3118675 0.18504849
-0.83165652 2.3178577 0.16403678
-0.93930542 2.3457963 0.14459202
-0.93655628 2.1142375 0.10993934
-0.73361087 2.3093913 0.095670268
-0.82524961 2.3035421 0.073220864
-0.94130987 2.3542542 0.052136432
-0.98036963 2.2156503 0.026430307
-0.72598857 2.2865031 0.0068248743
-0.81330013 2.2728105 -0.016473582
-0.91744995 2.2972543 -0.039809734
-0.96959388 2.1934693 -0.061500955
-0.74038213 2.3360755 -0.083007358
-0.84098005 2.3528817 -0.1081763
-0.91192919 2.2874866 -0.13017796
-0.99814546 2.2595532 -0.15411317
-0.72839892 2.3035693 -0.17055257
-0.81038004 2.2710207 -0.19315952
-0.88597131 2.2233889 -0.21449025
-0.91495961 2.0729048 -0.22504382
-0.62025583 1.9634728 -0.22158237
-0.78279889 2.1967547 -0.27312887
-0.59490675 1.4940854 -0.20355813
-0.87091303 1.97442 -0.29472232
-1.0766608 3.4180205 -0.51921153
-0.50609785 1.422766 -0.23320891
-0.65130961 1.6375682 -0.28976259
-0.8962217 2.0326612 -0.38742873
-0.30248648 0.96286821 -0.18456092
-0.35626251 1.0030385 -0.20505379
-0.43400115 1.0931401 -0.23809209
-0.4467532 1.0141143 -0.23595078
-0.26166114 0.83571881 -0.19420747
-0 0 -0
-0 0 -0
-0.4052771 0.91909522 -0.25359502
-0 0 -0
-0 0 -0
-0 0 -0
-0.3077946 0.69795656 -0.22392897
-0 0 0
-0.78294045 2.2162864 0.69812888
-0 0 0
-0.98531336 2.237216 0.67477304
-0 0 0
-0.80934209 2.2929332 0.62251425
-0.90182322 2.2790673 0.60261464
-0.97738373 2.2263706 0.57271236
-0.71978205 2.3108654 0.54967219
-0.81878418 2.3186517 0.53263742
-0.90246505 2.2832513 0.50731659
-0.98444945 2.2468324 0.48228967
-0.73611265 2.3614078 0.46602786
-0.80682176 2.2866831 0.43184361
-0.9093973 2.3042011 0.41689122
-0.97815114 2.2347918 0.38707438
-0.71168423 2.2837441 0.35997263
-0.84657753 2.403234 0.35791454
-0.92336243 2.3431776 0.32942674
-0.98158306 2.2480781 0.29745755
-0.65623719 2.1071131 0.24953705
-0.80338907 2.2807593 0.24993089
-0.92985779 2.3624403 0.23820382
-0.97022229 2.2250235 0.20502549
-0 0 0
-0.82338041 2.3398588 0.16523315
-0.90845001 2.3097067 0.14202124
-0.92955023 2.1336808 0.11065169
-0.72358024 2.3272073 0.096222587
-0.83064842 2.3642018 0.074985586
-0.93159789 2.3720834 0.052403692
-0.97752899 2.2463801 0.026724825
-0.72529972 2.3338869 0.0069528935
-0.79172319 2.2560561 -0.016316624
-0.90151131 2.2981863 -0.039729275
-0.97245717 2.2369654 -0.062552035
-0.72751474 2.3453472 -0.08317662
-0.80041939 2.2835147 -0.10475929
-0.89387119 2.2828107 -0.12959729
-0.9794901 2.2546501 -0.15336595
-0.71454567 2.3089483 -0.17062299
-0.80433184 2.2985311 -0.19507594
-0.86868203 2.2195084 -0.21359766
-0.90182698 2.0775669 -0.22494496
-0.61876869 2.0014381 -0.22543411
-0.68149692 1.9502361 -0.24195404
-0.67750776 1.7323885 -0.23545435
-0.84853005 1.9560935 -0.29120404
-0.37113094 1.2039403 -0.18253417
-0.47782859 1.3698558 -0.22405149
-0 0 -0
-0.9170441 2.1149471 -0.40203249
-0.29917425 0.97316855 -0.18617989
-0.40726721 1.1693397 -0.23853581
-0.4308463 1.1049141 -0.2400762
-0.76906717 1.7752008 -0.41192466
-0.26653782 0.8699795 -0.20178525
-0 0 -0
-0.35338509 0.90654367 -0.23515651
-0 0 -0
-0 0 -0
-0 0 -0
-0 0 -0
-0 0 -0
-0 0 0
-0.82548892 2.3831887 0.74909341
-0.92248499 2.3684866 0.72803104
-0.97156751 2.2432196 0.67477304
-0 0 0
-0.80381221 2.3225739 0.62921059
-0.90576142 2.3307195 0.61479104
-0.97334927 2.2546668 0.57844406
-0.6993351 2.2947164 0.54479998
-0.79175097 2.2866905 0.52416945
-0.88950145 2.2914846 0.50792366
-0.97685671 2.2672489 0.48537633
-0 0 0
-0 0 0
-0.89167804 2.3005428 0.41523162
-0.97340071 2.2616167 0.3906787
-0.70688707 2.318336 0.36473459
-0.8098321 2.3447337 0.34845546
-0.90503103 2.3386269 0.32800007
-0.97873682 2.2796004 0.30082816
-0.69861752 2.292649 0.27099657
-0.81503183 2.3599222 0.25805286
-0.89344811 2.3114526 0.2325056
-0.96322691 2.2465038 0.20645629
-0.70967656 2.3302541 0.18580906
-0.8301605 2.4061768 0.1695534
-0.89498031 2.3171 0.1421355
-0.91408074 2.1338351 0.11036675
-0.69736391 2.2924087 0.094605066
-0.7965939 2.3125505 0.07319095
-0.91126949 2.3628302 0.05207476
-0.96766061 2.261529 0.026833905
-0.71474731 2.3507311 0.0069898772
-0.78729999 2.2882934 -0.016514527
-0.86546874 2.2467594 -0.038747713
-0.95517695 2.2346175 -0.062321313
-0.73342687 2.416712 -0.08554633
-0.80652356 2.3469625 -0.10744099
-0.88809025 2.3096902 -0.13081144
-0.96367717 2.2560287 -0.15305462
-0.69631809 2.2999232 -0.16963714
-0.78730202 2.2949371 -0.19435728
-0.86040676 2.2387424 -0.21493655
-0.89843732 2.105027 -0.22731698
-0.58805478 1.9442892 -0.21858655
-0.57617146 1.6818951 -0.20822005
-0.60818112 1.5836998 -0.21473436
-0.85128278 1.995895 -0.2963461
-0.3491644 1.1578712 -0.17522134
-0.62418038 1.825362 -0.29792133
-0.50641632 1.3202195 -0.23249146
-0.89825451 2.1069407 -0.39945534
-0.29404724 0.97781199 -0.18671955
-0.34138864 0.99990064 -0.20354047
-0.39321795 1.0269887 -0.22261612
-0.57571119 1.3515618 -0.31279621
-0.25530943 0.85195959 -0.19723859
-0 0 -0
-0 0 -0
-0.40271425 0.9445129 -0.25922501
-0 0 -0
-0 0 -0
-0 0 -0
-0 0 -0
-0.66311812 2.2299998 0.71874988
-0.76123166 2.2420661 0.70325375
-0.85436535 2.2340267 0.68507612
-0.97817963 2.2970307 0.68914127
-0 0 0
-0.78798997 2.3228753 0.62797052
-0.8827886 2.3135514 0.60882223
-0.96253902 2.2677648 0.58027822
-0.68301338 2.2914882 0.5430283
-0.77456421 2.2822506 0.52205241
-0.87472683 2.2950692 0.50751895
-0.97326028 2.2975945 0.49058509
-0.69837052 2.3410702 0.46028811
-0.81410974 2.4008365 0.45148084
-0.89227635 2.3446801 0.42220193
-0.94641948 2.2366216 0.38535058
-0.6903879 2.3150485 0.36354408
-0.78463364 2.3177671 0.34372592
-0.87516856 2.3033524 0.32229346
-0.95392174 2.2599545 0.29745755
-0.68879396 2.3111765 0.27268186
-0.78682184 2.3243647 0.25363201
-0.8679443 2.2871039 0.22951637
-0.95213383 2.2587991 0.20704544
-0.69337261 2.3278754 0.18527667
-0.77830356 2.3015811 0.16184342
-0.88109994 2.3234813 0.14219262
-0.90484738 2.1486094 0.11084165
-0 0 0
-0.77759337 2.3031895 0.072742298
-0.86984801 2.2973163 0.05051231
-0.94950116 2.2572849 0.026713917
-0.69489461 2.3368609 0.0069358251
-0.77356398 2.2940285 -0.01652135
-0 0 -0
-0.95964915 2.283752 -0.063526206
-0.70066959 2.3608053 -0.083413601
-0.79752868 2.3679628 -0.1081763
-0.87425417 2.31603 -0.13086422
-0.95406687 2.2720215 -0.15373956
-0.68219292 2.3041523 -0.16963714
-0.76685232 2.2808282 -0.19276026
-0.85509229 2.2663448 -0.21707878
-0.86740905 2.0673723 -0.22267179
-0.58485562 1.9774173 -0.22190335
-0.65182316 1.941504 -0.23986019
-0 0 -0
-0.78691667 1.8768128 -0.2779429
-0.34065369 1.1552455 -0.1745044
-0.4506197 1.3446931 -0.21901491
-0.49482873 1.3140675 -0.23086905
-0.84380484 2.0133791 -0.38072819
-0.27971703 0.95128566 -0.18132302
-0.33026183 0.98707724 -0.20051385
-0 0 -0
-0.41667795 0.9951005 -0.2297032
-0.25254765 0.86194211 -0.19918716
-0.28122222 0.84177834 -0.20553458
-0 0 -0
-0 0 -0
-0 0 -0
-0 0 -0
-0 0 -0
-0 0 -0
-0 0 0
-0 0 0
-0.88287634 2.3517282 0.71949518
-0.95141119 2.2727571 0.68009466
-0 0 0
-0.77586126 2.3341014 0.62970662
-0.88186044 2.3543906 0.6181336
-0.9467321 2.2691367 0.57913184
-0.6776703 2.3255954 0.55011511
-0.75931239 2.2832508 0.5212056
-0.86234379 2.3049791 0.50853074
-0.95461816 2.2926531 0.48827007
-0.66748458 2.2887068 0.44917899
-0.77577031 2.3347809 0.43815559
-0.86959106 2.3279402 0.41821891
-0.94064313 2.2615368 0.38864148
-0.6703577 2.299305 0.36041906
-0.76727957 2.3131387 0.3423349
-0.87938273 2.3579185 0.32916734
-0.95525408 2.3024428 0.30227271
-0.68015903 2.3344393 0.27492893
-0.77598971 2.3395343 0.25476295
-0.84590125 2.2709274 0.22736786
-0.91918594 2.2185705 0.2028372
-0.67935473 2.3330433 0.18535271
-0.76604968 2.3119965 0.1622422
-0.86543375 2.3251014 0.14196411
-0.98562491 2.3811619 0.12252419
-0.69066745 2.3746727 0.097642846
-0.76941109 2.325948 0.073310599
-0.87280154 2.3485312 0.051519677
-0.96161205 2.325906 0.027455669
-0.67607659 2.3257167 0.0068903067
-0.76574761 2.3177221 -0.016657835
-0.86531937 2.3312638 -0.04001892
-0.95286876 2.3071527 -0.064013295
-0.68672764 2.3669796 -0.083481297
-0.80552506 2.4411213 -0.11129053
-0.86280227 2.3288422 -0.13128655
-0.93744272 2.2713749 -0.15330368
-0.6663782 2.3025455 -0.16921462
-0.75627357 2.2959051 -0.19363864
-0.84255368 2.275285 -0.21743581
-0.85888064 2.0827754 -0.22375898
-0.56083745 1.9398975 -0.21730265
-0.5381102 1.6360039 -0.2017059
-0.63689864 1.7213049 -0.23231497
-0.69384581 1.683735 -0.24871421
-0.3321884 1.1525593 -0.17378744
-0.44051072 1.3417988 -0.21809916
-0.46418026 1.2559917 -0.22016115
-0.52977723 1.2861681 -0.24259396
-0.29099196 1.0125456 -0.19265573
-0.31930545 0.97415549 -0.19748722
-0.35039651 0.94989663 -0.2049576
-0.39158082 0.95151013 -0.21908228
-0.24241656 0.84658146 -0.19529003
-0.27847603 0.85089511 -0.2073395
-0 0 -0
-0 0 -0
-0.23385735 0.81960851 -0.22296578
-0.25394753 0.77792174 -0.22237928
-0 0 -0
-0.32054424 0.77804792 -0.24702606
-0 0 0
-0.76752204 2.3551421 0.73571163
-0 0 0
-0.93891495 2.2821178 0.68115896
-0 0 0
-0.75492644 2.318553 0.62425035
-0.86103195 2.3424397 0.61359727
-0.95236284 2.3226347 0.59128314
-0 0 0
-0.73983938 2.2711399 0.51739502
-0.84447181 2.3001146 0.50630474
-0.94907963 2.3193543 0.49270716
-0 0 0
-0.78854752 2.4228163 0.45376015
-0.83798122 2.2860117 0.40975493
-0.94132274 2.3029206 0.39475319
-0.6556949 2.3014729 0.36012143
-0.75215393 2.3149776 0.34191757
-0.84581465 2.3111253 0.32190439
-0.96359622 2.3634162 0.30949548
-0.65874785 2.3137209 0.27200773
-0.7600832 2.3395214 0.25424889
-0.85553569 2.3405981 0.23381339
-0.95477891 2.3450675 0.21386279
-0.65547562 2.3036017 0.18269071
-0.75277305 2.3195002 0.1624416
-0.85252094 2.3341188 0.14219262
-0.92395151 2.2715075 0.11658794
-0.66816193 2.3509922 0.09649875
-0.75111973 2.3182638 0.07292176
-0.84227604 2.3096962 0.050553426
-0.92624575 2.2798839 0.026844816
-0.66179353 2.3298211 0.0068903067
-0.74843323 2.3128629 -0.016589593
-0.84381294 2.3167999 -0.039681002
-0.92628878 2.2823882 -0.063167304
-0.67328155 2.3749948 -0.083616711
-0.75796384 2.3452492 -0.10670568
-0.84679061 2.3293998 -0.13102259
-0.92686409 2.2854083 -0.1538641
-0.65223753 2.306591 -0.16921462
-0.7342146 2.2758372 -0.1915625
-0.82415509 2.2682421 -0.21627544
-0.8483271 2.0935397 -0.22435199
-0.53486967 1.8935475 -0.21173902
-0.53597963 1.6638545 -0.20473033
-0 0 -0
-0.58867407 1.4537767 -0.21420817
-0.42865187 1.5222872 -0.2291356
-0.4104895 1.2767353 -0.20711027
-0.5035578 1.3886867 -0.24287491
-0.52113628 1.2875682 -0.24225034
-0.27732855 0.9877941 -0.18761897
-0 0 -0
-0.37091228 1.0248365 -0.22063203
-0.39343512 0.97293657 -0.22345561
-0.24142531 0.863096 -0.19875415
-0.2687898 0.8386718 -0.20395528
-0 0 -0
-0 0 -0
-0 0 -0
-0.25240165 0.78957623 -0.22526391
-0 0 -0
-0 0 -0
-0 0 0
-0.76587963 2.3999896 0.74823922
-0.85002881 2.3515363 0.71619093
-0.94982326 2.3495004 0.69951832
-0 0 0
-0.7442171 2.3342171 0.62722647
-0 0 0
-0.92390752 2.2932236 0.58234167
-0.64672887 2.3252807 0.54812193
-0.73034519 2.2896035 0.52057052
-0.83631641 2.3218377 0.50994724
-0.90994066 2.2632275 0.47958887
-0.6736086 2.4197984 0.47324881
-0.72972184 2.2897196 0.42798632
-0.83795476 2.3300846 0.41672528
-0.92680657 2.3077366 0.39459649
-0.65773261 2.3635654 0.36919889
-0.73373222 2.3063376 0.33997008
-0.83429831 2.3237371 0.32294193
-0.92212874 2.3020117 0.30070779
-0.63149357 2.2708099 0.26650244
-0.75295097 2.3668907 0.25671634
-0.8031832 2.2399004 0.22325769
-0.92038763 2.3009222 0.20931791
-0.6431976 2.3143051 0.18322311
-0.73580712 2.3155174 0.16184342
-0.82504952 2.3026514 0.13996461
-0.90369499 2.2613659 0.11578061
-0.64410251 2.3203862 0.095078491
-0.73023146 2.301868 0.072263725
-0.82337356 2.3016419 0.05026561
-0.92224753 2.3105991 0.027139334
-0.64828753 2.3367288 0.0068988414
-0.73181146 2.3097854 -0.016534999
-0.81242466 2.2739134 -0.038860351
-0.92670608 2.3242435 -0.064167105
-0.65709615 2.3733022 -0.083413601
-0.74597067 2.357476 -0.10705171
-0.83650666 2.345839 -0.13165607
-0.90986824 2.2836349 -0.15336595
-0.63435483 2.2970884 -0.16822878
-0.71633363 2.2679424 -0.19052444
-0.81925035 2.2985878 -0.21868543
-0.81559086 2.0487802 -0.21901496
-0.52985096 1.9207554 -0.21441385
-0.57803762 1.8328757 -0.22508705
-0.58610612 1.6458124 -0.22113872
-0.63467735 1.5954564 -0.23450583
-0.31618297 1.1498692 -0.17278373
-0.36377767 1.1557376 -0.18711656
-0.44674826 1.2560151 -0.21918769
-0.46991125 1.1818067 -0.2218051
-0 0 -0
-0 0 -0
-0.39379951 1.1092974 -0.23829052
-0.42753974 1.0762287 -0.24657169
-0 0 -0
-0.26334712 0.83937573 -0.20372967
-0 0 -0
-0 0 -0
-0 0 -0
-0.24438211 0.78097945 -0.22237928
-0 0 -0
-0.28898793 0.72664446 -0.22956242
-0 0 0
-0.7162689 2.2930129 0.7135036
-0.80442238 2.2688184 0.68948179
-0.89411664 2.2513611 0.66865325
-0 0 0
-0.70708084 2.2656827 0.60763341
-0.81829745 2.313463 0.60333091
-0.93740028 2.3685389 0.59999526
-0 0 0
-0.71366107 2.2856452 0.51866519
-0.81259394 2.3001473 0.50407881
-0.91730219 2.3226128 0.49097091
-0 0 0
-0.71947002 2.3063719 0.43026567
-0.8134734 2.3063526 0.4115805
-0.91081685 2.3087862 0.39381292
-0.6263659 2.3055289 0.35952622
-0.71750605 2.3041778 0.33899638
-0.81574327 2.3166544 0.32125592
-0.93561137 2.3778346 0.30985662
-0.62275523 2.2938209 0.26874951
-0.72481066 2.3277788 0.25198707
-0.82443643 2.3443458 0.2331595
-0.90953159 2.314873 0.21007538
-0.63472939 2.3393791 0.18489638
-0.72158557 2.3199885 0.16184342
-0.80527854 2.2916582 0.13899343
-0.91279572 2.3254459 0.11877248
-0.64684051 2.3869832 0.097642846
-0.71490818 2.3024869 0.072144084
-0.80327785 2.289669 0.049895555
-0.90841752 2.3171451 0.02715024
-0.63550597 2.3464539 0.0069159106
-0.72206771 2.3285589 -0.016637363
-0.7991181 2.2807426 -0.03889253
-0.91060472 2.3252318 -0.064038925
-0.64121765 2.3724654 -0.083244331
-0.73740244 2.3810959 -0.10791677
-0.83033782 2.3744931 -0.13297579
-0.90747803 2.3189163 -0.15535854
-0.62414259 2.3153844 -0.16928504
-0.7062313 2.2846756 -0.1915625
-0.8031593 2.29793 -0.21814987
-0.85192394 2.1788614 -0.23235747
-0.55372995 2.0564594 -0.22917888
-0.53309578 1.7272487 -0.21170977
-0.59365916 1.6999549 -0.22791982
-0.63100564 1.6150093 -0.23680626
-0.30629969 1.1412734 -0.17120644
-0.35115167 1.1400025 -0.18421671
-0.41856006 1.2000353 -0.20896652
-0 0 -0
-0.27027097 1.0101281 -0.19121665
-0 0 -0
-0.34574148 0.99321103 -0.21289402
-0.39142045 1.0032042 -0.2292867
-0 0 -0
-0.26305258 0.85680807 -0.2075651
-0.29294375 0.84182298 -0.21542309
-0 0 -0
-0.22320038 0.84060496 -0.22752127
-0.24212828 0.79076874 -0.22473945
-0 0 -0
-0 0 -0
-0 0 0
-0 0 0
-0.80532342 2.3163888 0.70242333
-0.91951859 2.3573871 0.69845402
-0 0 0
-0.69203389 2.2662728 0.60664135
-0.80440509 2.3193579 0.60356963
-0.88617533 2.2798929 0.57615137
-0.61514831 2.3217301 0.54546434
-0.70362103 2.303067 0.52162904
-0.79173386 2.2856572 0.49982923
-0.9087109 2.3428345 0.49405757
-0.61413872 2.3157971 0.45140085
-0.72915989 2.3888977 0.44481823
-0.77803469 2.2497902 0.40062714
-0.90198523 2.3281455 0.39616358
-0.60131156 2.2682273 0.35312736
-0.70537466 2.3151679 0.33997008
-0.80960268 2.3450477 0.3244983
-0.89595693 2.3187103 0.30143008
-0.60994118 2.3024015 0.26931125
-0.72066003 2.3654854 0.2555854
-0.79056424 2.2928855 0.22755471
-0.87199539 2.2599831 0.20460467
-0.61704582 2.330699 0.18390763
-0.70791769 2.3262815 0.16197634
-0.79477912 2.3069391 0.13962184
-0.89240247 2.3151586 0.11796515
-0.62835062 2.3764167 0.097051069
-0.7138409 2.3498681 0.073490053
-0.79181504 2.3021183 0.050060026
-0.88627911 2.3021455 0.026910262
-0.62620622 2.3696454 0.0069728084
-0.70254081 2.315721 -0.016514527
-0.79225492 2.306407 -0.039246541
-0.88699102 2.3065159 -0.063372388
-0.62715811 2.378288 -0.083312042
-0.71350831 2.354979 -0.10653267
-0.79988444 2.333256 -0.13038911
-0.88965225 2.3151245 -0.15473585
-0.61246103 2.3288176 -0.16998921
-0.68671727 2.2708375 -0.19004534
-0.78613877 2.2943349 -0.21734655
-0.82391506 2.1459594 -0.22830531
-0.4991672 1.900187 -0.21141803
-0.55349231 1.8331754 -0.22427277
-0.58996522 1.7232763 -0.23055691
-0.6154058 1.6040497 -0.23464116
