# .PCD v0.7 - Point Cloud Data file format
VERSION 0.7
FIELDS x y z
SIZE 4 4 4
TYPE F F F
COUNT 1 1 1
WIDTH 1648
HEIGHT 1
VIEWPOINT 0 0 0 1 0 0 0
POINTS 1648
DATA ascii
-1.0046211 2.228631 -0.08280424
-0.8508938 1.7180372 -0.083002925
-0.89478111 1.6538366 -0.099401906
-0.96991318 1.64574 -0.11918085
-1.0004078 2.2232187 -0.17210175
-0.8630994 1.7449781 -0.15594897
-0.90783066 1.6785862 -0.17102094
-0.94332457 1.6017109 -0.18462092
-0.92353594 2.0539179 -0.242339
-0.86230707 1.7452922 -0.22799514
-0.89013606 1.6468991 -0.23696126
-0.90216714 1.5326844 -0.24289554
-0.8738392 1.9476638 -0.30929005
-0.78228539 1.5855591 -0.27304366
-0.81626987 1.5116217 -0.2824617
-0.76037532 1.2922597 -0.26149294
-0.80999207 1.8090762 -0.36246616
-0.74917984 1.520265 -0.32649708
-0.75916243 1.4079229 -0.32380527
-0.82145232 1.3970642 -0.34507543
-0.56450415 1.2640433 -0.30700803
-0.6823647 1.3862672 -0.35782421
-0.75873464 1.4074824 -0.38644603
-0.73513883 1.2492704 -0.36595035
-0.86212188 1.9353687 -0.5542509
-0.62849826 1.2792561 -0.38732809
-0.52079904 0.96670836 -0.31003937
-0.4905481 0.83355457 -0.28392503
-0 0 0
-1.0240197 2.0869355 0.69044149
-0.89909148 1.6690046 0.54299444
-0.52319151 0.89000243 0.28496924
-0 0 0
-1.0641613 2.1701798 0.61879402
-0 0 0
-0 0 0
-0.97259563 2.1865072 0.54347122
-1.0631294 2.16731 0.52289921
-0 0 0
-0.87085032 1.4878776 0.3389532
-1.021376 2.2947688 0.47324881
-1.0244278 2.0897956 0.41448572
-0.86864287 1.6188374 0.30918324
-0.7797581 1.3334175 0.2450949
-1.0070692 2.2631569 0.37277034
-1.0367684 2.1176815 0.33120656
-0.88052815 1.6430516 0.24382766
-0.94219601 1.6144891 0.22667445
-1.0176207 2.2879436 0.28313074
-1.0365512 2.1173315 0.24365947
-0.89147216 1.665078 0.17720495
-0.94744742 1.6253115 0.15890318
-0.97378963 2.1903238 0.18284281
-0.908885 1.8580295 0.13778292
-0.88927794 1.6619555 0.10785845
-0.96278244 1.6528777 0.090943344
-0.95772588 2.1560163 0.093145356
-0.94292897 1.9300143 0.064277627
-0.89629918 1.6771175 0.039102327
-0.95456952 1.6403575 0.02070356
-0.93868709 2.1139519 0.0065802145
-0.96806192 1.9832999 -0.015060975
-0.88863534 1.6643841 -0.030364174
-0.94516921 1.625574 -0.048221465
-1.0010557 2.2575943 -0.083650567
-1.0260071 2.1039698 -0.10134229
-0.89260292 1.6742761 -0.10029932
-0.96431005 1.6594268 -0.11974127
-0.99320745 2.2439098 -0.17322844
-0.95668644 1.9644284 -0.17503336
-0.91671962 1.7201632 -0.17468058
-0.94247383 1.6229585 -0.18639991
-0.91172034 2.0613647 -0.242553
-0.8594026 1.7666268 -0.23008898
-0.89260572 1.675972 -0.2403518
-0.88429081 1.5236233 -0.24059515
-0 0 -0
-0.77901936 1.6036637 -0.27533305
-0.82830107 1.5566728 -0.2899248
-0.87355256 1.5056661 -0.30358607
-0 0 -0
-0.68754315 1.4170524 -0.30341905
-0.7059018 1.3285975 -0.30455947
-0.74075174 1.2776935 -0.31446221
-0.57126451 1.3005557 -0.3150188
-0.51027042 1.0529029 -0.27096272
-0.71451789 1.345154 -0.36812213
-0.72454 1.2487258 -0.36448166
-0.55167925 1.2591891 -0.35963041
-0.49541706 1.024212 -0.30918062
-0.50132066 0.94438481 -0.3018876
-0.4493064 0.77430558 -0.26279968
-0.9448728 2.1635776 0.7293762
-1.0741605 2.2235177 0.73343396
-0.89153802 1.6795845 0.5446465
-0 0 0
-0 0 0
-1.0815709 2.2403545 0.63689899
-0.8915652 1.6826839 0.46819621
-0.73019183 1.2632141 0.34367326
-0.9548617 2.1826062 0.54103512
-1.0642619 2.2037151 0.53009707
-0 0 0
-0.6969164 1.2076422 0.27413347
-0.98717803 2.2550807 0.46380603
-1.0257068 2.1253016 0.42027169
-0.87805218 1.6607518 0.31615359
-0.64724356 1.1225626 0.20560388
-0.98761326 2.2566109 0.37068701
-0.99881691 2.0722635 0.32313854
-0.88570881 1.6773586 0.24810761
-0.92781603 1.6124957 0.22559102
-1.0246696 2.3423944 0.28908548
-1.0645679 2.208777 0.2534264
-0.85475969 1.6203219 0.17188039
-0.93745691 1.6310943 0.15890318
-0.96272862 2.2017393 0.18329917
-0.95201659 1.9768419 0.14615756
-0.87673557 1.6629649 0.10757281
-0.95660204 1.6656836 0.091323264
-0.94847912 2.1710088 0.093539871
-1.0723106 2.2294159 0.074028447
-0.88319683 1.6772777 0.038978975
-0.95145321 1.6583263 0.020856272
-0.98092818 2.2461374 0.0069728084
-1.0528911 2.1910973 -0.016589593
-0.8863197 1.6848487 -0.030637724
-0.93766296 1.6356792 -0.048349645
-0.99117959 2.2728553 -0.083989099
-1.0424801 2.1714699 -0.1042835
-0.89252919 1.6991708 -0.10146068
-0.95361364 1.6644465 -0.119679
-0.9814111 2.254535 -0.17358054
-1.0269239 2.1419404 -0.19028489
-0.88855255 1.6922458 -0.17128873
-0.91766489 1.6028035 -0.18343492
-0.94267899 2.1672115 -0.2543222
-0.8974517 1.8739865 -0.24334991
-0.87723464 1.6717541 -0.23897047
-0.86213124 1.5066614 -0.23707688
-0.8238681 1.8983221 -0.29982638
-0.81990236 1.7145116 -0.29349524
-0.78986979 1.5066679 -0.27970362
-0.8784824 1.5357964 -0.30856854
-0.75293785 1.7385422 -0.3464565
-0.66825503 1.3990929 -0.29868996
-0.70364559 1.3441923 -0.30713883
-0.79453909 1.3900565 -0.34091038
-0.47733089 1.1050701 -0.26695409
-0.65061975 1.3637617 -0.34992769
-0.59763145 1.1419618 -0.31150603
-0.73564053 1.2859706 -0.37402821
-0.53896636 1.251 -0.35634032
-0 0 -0
-0 0 -0
-0.42929983 0.75039673 -0.25378618
-0.9621169 2.2404456 0.75328529
-1.0481464 2.2040954 0.72489232
-0.87586945 1.6748008 0.54134232
-0 0 0
-0.97394574 2.2640665 0.65805382
-1.0511714 2.2119496 0.62697846
-0.86864114 1.664019 0.46151111
-0.56579679 0.99282545 0.26916105
-0.97497845 2.2663581 0.56030244
-1.043167 2.1943157 0.52628642
-0 0 0
-0.63708991 1.1197882 0.25329855
-0.9748767 2.2647059 0.46454662
-1.0025078 2.110213 0.41606373
-0 0 0
-0.7706573 1.3557652 0.24744554
-0.96632111 2.2453701 0.3678596
-1.0310785 2.1731896 0.33788356
-0.86212951 1.6572518 0.24434644
-0.9179045 1.6181583 0.22559102
-0.96669394 2.2473166 0.27661422
-1.0744454 2.2646954 0.25908098
-0.87005377 1.6741256 0.17701814
-0.92939591 1.6402836 0.15923983
-0.95156401 2.2131011 0.18375552
-0.98090011 2.069201 0.15253824
-0 0 0
-0.94291872 1.6654373 0.090990834
-0.93237936 2.170361 0.093263708
-1.0560446 2.2305331 0.073848985
-0.88255668 1.7013024 0.039410703
-0.95061356 1.68067 0.021063525
-0.9750194 2.2704911 0.0070297061
-1.0270275 2.1713016 -0.016391693
-0.87320465 1.6849289 -0.030541178
-0.93252742 1.650105 -0.048606008
-0.97603333 2.2761385 -0.08388754
-1.0470643 2.2157636 -0.10610013
-0.87428451 1.6895381 -0.10056327
-0.93209368 1.6502788 -0.11824683
-0.97109175 2.2687678 -0.17421432
-1.0363089 2.1959789 -0.19451699
-0.87769479 1.6967814 -0.17119946
-0.93129092 1.6500007 -0.18817891
-0.90590459 2.1181054 -0.24790263
-0.91176903 1.9342605 -0.25044569
-0.8747052 1.6920873 -0.24110526
-0.92540324 1.6405056 -0.25723925
-0.82346916 1.929739 -0.30398467
-0.89859504 1.9090765 -0.32585144
-0.85486776 1.6552701 -0.30631116
-0.6788789 1.2039223 -0.2410477
-0 0 -0
-0.69642144 1.4813673 -0.31533641
-0.75198555 1.4582448 -0.33213848
-0.74758339 1.3267366 -0.3242501
-0 0 -0
-0.4509342 0.96031976 -0.24569392
-0.69127584 1.3408617 -0.3645983
-0.60771674 1.0776355 -0.31234288
-0 0 -0
-0.4181087 0.8921535 -0.26774675
-0.45266929 0.87860328 -0.27906263
-0 0 -0
-0 0 0
-1.0366344 2.2148263 0.72631598
-0.86953902 1.6878349 0.5438205
-0 0 0
-0 0 0
-1.0535864 2.2525809 0.63665104
-0.85797048 1.6684539 0.46127233
-0.56732219 1.0098563 0.27282935
-0.955356 2.2588255 0.55698049
-1.0280266 2.1971343 0.52543962
-1.0449448 2.0339737 0.47251064
-0.5442915 0.97048652 0.2187666
-0.95598334 2.2588801 0.46213964
-1.0362449 2.2162101 0.43570095
-0 0 0
-0.77391088 1.3811468 0.25120658
-0.95560813 2.2585428 0.36905006
-1.0202386 2.184859 0.33871818
-0 0 0
-0.91813296 1.6419559 0.228119
-0.95056421 2.2477148 0.27594009
-1.0369619 2.2207735 0.25332361
-0.86294103 1.6856363 0.17767203
-0.91979975 1.6468253 0.15932401
-0.96824884 2.2905347 0.18968803
-1.0099502 2.1646981 0.15911832
-0.8699044 1.7002624 0.10928666
-0.95410061 1.7095696 0.093080387
-0.91904473 2.1760411 0.093263708
-1.0127865 2.1735492 0.071755253
-0.86618692 1.6951119 0.039143443
-0.92324036 1.6559035 0.020681743
-0.97973859 2.3206513 0.0071662599
-0.97739178 2.0995982 -0.015804812
-0.87057799 1.7053943 -0.030814728
-0.91362816 1.6400763 -0.048144557
-0.95971936 2.2765589 -0.083684415
-1.0317638 2.218523 -0.10592712
-0.87478501 1.7162236 -0.10183021
-0.91369689 1.6411427 -0.11718828
-0.95057547 2.259053 -0.17301719
-1.0173566 2.1905434 -0.19347893
-0.89123213 1.7491698 -0.1759302
-0.94872558 1.70525 -0.19381243
-0.9017545 2.1447046 -0.25036347
-0.90949672 1.9605412 -0.25312114
-0.85980469 1.6885818 -0.23984951
-0.93024611 1.6729969 -0.26143408
-0.78672862 1.875435 -0.29466438
-0.87897182 1.8975161 -0.32295161
-0.77982175 1.5329577 -0.28278619
-0.75188416 1.3527229 -0.26991156
-0 0 -0
-0.71989125 1.5560166 -0.33028033
-0.82735747 1.6288637 -0.36983639
-0.72803092 1.3107778 -0.31925204
-0 0 -0
-0.44135532 0.9551093 -0.24366339
-0.57477087 1.1318762 -0.30680761
-0.64961392 1.1686313 -0.33755553
-0.66896999 1.6067317 -0.45529565
-0.49224222 1.0673332 -0.31940797
-0 0 -0
-0 0 -0
-0 0 0
-1.0170095 2.2080848 0.72204518
-0.86047131 1.6957103 0.5446465
-0 0 0
-0 0 0
-1.049466 2.2801235 0.64260334
-0.85210472 1.68235 0.46365991
-0.54932702 0.9920302 0.26709765
-0.95682633 2.3015637 0.56606048
-1.0059421 2.1847582 0.52099395
-0.89758593 1.7738352 0.41079086
-0.55921394 1.0115924 0.22725491
-0.97154588 2.3354754 0.47658151
-1.0201578 2.2171602 0.43464893
-0.86023349 1.7021561 0.32096642
-0.89195746 1.6149744 0.2927348
-0.96793342 2.3273642 0.379318
-1.0080538 2.1937776 0.3391355
-0.85602444 1.696033 0.2484967
-0.90756166 1.6466891 0.22799861
-0.96459788 2.3204861 0.2841419
-1.0208241 2.2216711 0.25270674
-0.85571969 1.6971226 0.17832591
-0.91544425 1.6629132 0.16033398
-0.95149803 2.2899873 0.18915562
-0.99040413 2.1572528 0.15812135
-0.85631055 1.6993271 0.10888676
-0.91230029 1.6585038 0.089993544
-0.90644175 2.183485 0.093342617
-0.9944315 2.1688194 0.071396321
-0.85576963 1.7003947 0.039143443
-0.91787827 1.6703005 0.020790825
-0.95244944 2.2952158 0.0070695342
-0.95782733 2.0910096 -0.015695626
-0.86054671 1.7115973 -0.030830821
-0.91268897 1.6623006 -0.048631642
-0.9461152 2.2833281 -0.08371827
-1.0264465 2.2429812 -0.10679219
-0.86423802 1.7215588 -0.10183021
-0.91177201 1.6615928 -0.11824683
-0.93288392 2.2556252 -0.17231302
-1.0134259 2.217597 -0.1953155
-0.85233939 1.6985222 -0.17030686
-0.92580479 1.6883533 -0.19124275
-0.85440177 2.0674973 -0.2407341
-0.88631433 1.9416896 -0.2499804
-0.88055843 1.7559031 -0.24863981
-0.91710627 1.67346 -0.2606222
-0 0 -0
-0.85009724 1.865104 -0.3165414
-0.83493263 1.6665182 -0.3064734
-0.78758764 1.4376609 -0.28588974
-0.68413275 1.6629549 -0.32882786
-0.68347919 1.5014201 -0.31779552
-0.69763929 1.3946085 -0.31567046
-0.71950471 1.3143623 -0.31904379
-0 0 -0
-0.43024459 0.94627035 -0.24073039
-0.55390215 1.1075622 -0.29929009
-0.6941424 1.2669811 -0.36472645
-0.79978454 1.9546357 -0.55247933
-0 0 -0
-0 0 -0
-0.41772005 0.76237899 -0.25519451
-0 0 0
-0 0 0
-0.8513397 1.7035379 0.54547256
-0.91816896 1.6776607 0.52789819
-0 0 0
-1.0538388 2.3271143 0.65401196
-0.83613104 1.6762501 0.46055609
-0 0 0
-0.97145355 2.3778048 0.58333462
-1.0001804 2.2078037 0.52501619
-0.97491664 1.9563636 0.45166758
-0.7018078 1.2881426 0.28840923
-0.91963834 2.2495198 0.45788115
-1.0061284 2.2224813 0.4344736
-0.84713674 1.7021053 0.31997064
-0.87022686 1.5987304 0.28881705
-0.9446559 2.3112907 0.37574655
-0.99702168 2.2053354 0.33997008
-0.85707641 1.7243395 0.25186878
-0.89365 1.6452479 0.22703558
-0 0 0
-1.0190558 2.254178 0.25568825
-0.83909118 1.6898568 0.17701814
-0.89857095 1.6562369 0.15915567
-0.94044447 2.3031673 0.18976407
-0.97879177 2.1669264 0.15838721
-0.84586751 1.7045493 0.10888676
-0.90877134 1.6763642 0.090658396
-0.90812474 2.2260134 0.09492068
-0.97206271 2.1548352 0.070738293
-0.85508746 1.7253214 0.039595731
-0.90618366 1.6732632 0.0207581
-0.92060089 2.2574966 0.0069358251
-0.95566154 2.1205509 -0.015873054
-0.85091561 1.7186373 -0.030863002
-0.8981905 1.6599566 -0.04840092
-0.94754028 2.3270414 -0.085106239
-1.0085629 2.2401273 -0.10635966
-0.9089759 1.8387285 -0.10842885
-0.90488285 1.6733015 -0.11868271
-0.92240632 2.2696238 -0.17294678
-0.99816501 2.2201369 -0.1949961
-0.86043382 1.7412232 -0.17405576
-0.91637397 1.6957531 -0.19144042
-0.73321402 1.8055527 -0.20970614
-0.91588533 2.0395079 -0.26184544
-0.85131824 1.7239126 -0.24336562
-0.89175427 1.6511587 -0.25629202
-0.69565064 1.7170914 -0.26842418
-0.79173172 1.7656788 -0.29883707
-0.77972406 1.5804634 -0.28976259
-0.84333545 1.562094 -0.30959937
-0 0 -0
-0.75291669 1.6812372 -0.35487166
-0.76269674 1.5483328 -0.34940016
-0.7495054 1.3893383 -0.33612055
-0 0 -0
-0 0 -0
-0.64586514 1.3115022 -0.35332206
-0.71998209 1.3334975 -0.38259557
-0.38432503 0.95596617 -0.26953298
-0.39571589 0.88648045 -0.26381317
-0.42622164 0.86606318 -0.2725412
-0 0 -0
-0 0 0
-1.158452 2.5986373 0.84504342
-1.0739039 2.1822746 0.69664097
-0.90556979 1.6790209 0.52656782
-0 0 0
-1.0013015 2.2476995 0.62995464
-1.0540143 2.1459208 0.58781189
-0 0 0
-0 0 0
-1.0271932 2.3049548 0.54660964
-1.0685884 2.1777055 0.5012458
-0.83638191 1.5578253 0.3476344
-0.94537681 2.353605 0.47787759
-1.0032864 2.2528956 0.43920758
-1.0146009 2.0703321 0.3880142
-0.88701123 1.6536494 0.29774955
-0 0 0
-0.98467845 2.2141261 0.3403874
-1.0740095 2.1944647 0.31956989
-0.88588047 1.6550765 0.22763747
-0.92901695 2.3146274 0.28200722
-1.035519 2.3285544 0.26339898
-1.0049434 2.0554349 0.21466367
-0.88604259 1.6573255 0.15873484
-0.91701323 2.285759 0.18786262
-0.98249376 2.2111883 0.16117877
-0.97652411 1.9985456 0.12728211
-0.89140856 1.6686931 0.089946046
-0.89928192 2.2436011 0.095433556
-0.9669311 2.1790323 0.071336508
-0.84141576 1.7242461 0.039451823
-0.89872426 1.684085 0.020823548
-0.9190051 2.2937355 0.0070297061
-0.9527635 2.149229 -0.016043657
-1.0072858 2.0662546 -0.036993764
-0.89363223 1.6760218 -0.048708551
-0.92470598 2.3114691 -0.084327623
-0.99843979 2.2544949 -0.10674894
-1.0043138 2.0633571 -0.12130939
-0.89929223 1.6876303 -0.11930539
-0.89033788 2.2298472 -0.1694963
-0.98008895 2.2161918 -0.19411774
-0.8963601 1.8423021 -0.18360652
-0.92138618 1.7303292 -0.19470194
-0.78991252 1.9799377 -0.22939284
-0.88569611 2.0051141 -0.25672719
-0.89148027 1.8334924 -0.25805798
-0.8918466 1.6758418 -0.25926903
-0 0 -0
-0.8450923 1.9160864 -0.3234095
-0.81571245 1.6793014 -0.30696011
-0.83651084 1.5724576 -0.31063023
-0.58960992 1.4847207 -0.29213154
-0 0 -0
-0.73778474 1.5212359 -0.34225738
-0.70332134 1.3230927 -0.31904379
-0 0 -0
-0.49431682 1.1235833 -0.28427395
-0.65095204 1.3425539 -0.36060464
-0.58381963 1.097361 -0.3138116
-0 0 -0
-0.39725205 0.90479648 -0.26853347
-0 0 -0
-0.39481208 0.74203551 -0.24674439
-0 0 0
-0.97773343 2.2299423 0.72318411
-1.0676193 2.2035303 0.7013219
-0.8952505 1.6845458 0.52656782
-0 0 0
-1.0034308 2.2901814 0.64012319
-1.0940946 2.2625003 0.61789483
-0 0 0
-0 0 0
-0.9977296 2.2763042 0.53835338
-1.0645781 2.2036209 0.50569767
-0 0 0
-0.90422726 2.2917163 0.46417633
-1.0012937 2.2860632 0.44446754
-1.0348744 2.144907 0.40079314
-0.8851549 1.6747783 0.30057031
-0.91295588 2.3144302 0.37440723
-0.98020166 2.2409937 0.3435868
-1.0708542 2.2224519 0.32268256
-0.87524539 1.6596029 0.2275171
-0.91042364 2.3091912 0.28065896
-0.99291122 2.270159 0.25609946
-1.0864483 2.2571328 0.23502776
-0.87910759 1.6689024 0.15932401
-0.91905618 2.3321602 0.19120917
-0.94293696 2.1577456 0.1568585
-0.96467561 2.0053995 0.12733924
-0.88627046 1.6838543 0.090468444
-0.88513249 2.2481472 0.095394105
-0.95194328 2.1812596 0.071216859
-1.0442617 2.1736612 0.049587179
-0.89535445 1.7028437 0.02098717
-0.90637851 2.3030531 0.0070410855
-0.97192913 2.2292831 -0.016596418
-1.0426092 2.1724553 -0.038779892
-0.89588416 1.705368 -0.049400724
-0.91781598 2.3357034 -0.08500468
-0.99057174 2.274318 -0.10739774
-1.0490267 2.1892548 -0.12833035
-0.89077598 1.6966512 -0.11955446
-0.89302826 2.2770576 -0.17266512
-0.97005022 2.2303905 -0.19483639
-0.95689207 1.9977806 -0.19851284
-0.89734477 1.7103956 -0.19183576
-0.79987717 2.0412164 -0.23591943
-0.87179339 2.0068672 -0.25626189
-0.89991647 1.8800912 -0.26383445
-0.87004453 1.659345 -0.25588605
-0.61579406 1.5752552 -0.24505179
-0.78219557 1.8033684 -0.30356839
-0.75431108 1.5774498 -0.2874912
-0.75687569 1.4440614 -0.28434348
-0 0 -0
-0.6631431 1.5308661 -0.32138965
-0.64862537 1.3585668 -0.30475789
-0.67930746 1.297058 -0.31175494
-0 0 -0
-0.42126438 0.97370017 -0.24569392
-0.50662506 1.0614284 -0.28425512
-0.58697832 1.1198151 -0.31919682
-0 0 -0
-0 0 -0
-0 0 -0
-0.38757867 0.73934513 -0.24505436
-0 0 0
-0.970864 2.2517445 0.72830898
-1.0420769 2.1848762 0.69333673
-0.88713318 1.694277 0.52789819
-0 0 0
-0.98284316 2.2811704 0.63590699
-1.0584875 2.223577 0.6054796
-0.91043174 1.7438065 0.46335137
-0.88632172 2.2888868 0.55742341
-0.97445935 2.2608428 0.5332725
-1.04599 2.1994989 0.50326937
-0.85484236 1.6401924 0.36364642
-0.90080047 2.3247111 0.46973088
-0.9782905 2.2713673 0.4404349
-1.0255016 2.1592331 0.40228674
-0.90314221 1.7344904 0.31028637
-0.90659624 2.3402746 0.37768108
-0.97308433 2.2624311 0.34595159
-1.0512484 2.2164383 0.32086682
-0.86641884 1.6675849 0.22787824
-0.86897016 2.2443097 0.27212009
-0.96560103 2.2451403 0.25260392
-1.0533948 2.2232683 0.23082417
-0.87252271 1.6813407 0.15999731
-0.93819749 2.4242358 0.19828254
-0.95173967 2.2148278 0.16058056
-0.95107079 2.0085738 0.12716785
-0.87178361 1.68128 0.090041034
-0.86951965 2.2488759 0.095196843
-0.93735886 2.1843038 0.071127124
-1.0642424 2.2505262 0.051190741
-0.89086813 1.7198479 0.021128973
-0 0 0
-0.96532434 2.2517481 -0.016719252
-1.0395095 2.2005095 -0.039166082
-0.87897074 1.6984036 -0.049041819
-0.88403767 2.2909405 -0.08317662
-0.97541821 2.2775981 -0.10726797
-1.0530393 2.2326808 -0.1304947
-0.88355833 1.7082905 -0.11999033
-0.87258667 2.2657387 -0.17139758
-0.95752233 2.2390501 -0.19507594
-0.94673955 2.0081189 -0.19895911
-0.88043648 1.7034931 -0.19045208
-0.71235293 1.8512206 -0.21345091
-0.8582927 2.0094383 -0.2559129
-0.86341661 1.8326271 -0.25642547
-0.8566637 1.6584902 -0.25493884
-0.60895419 1.5863954 -0.24619891
-0.7517311 1.7626806 -0.29593721
-0.82908064 1.761502 -0.32010165
-0.79003346 1.5300844 -0.3003217
-0 0 -0
-0.66027862 1.5502644 -0.32460544
-0 0 -0
-0.72425371 1.4037681 -0.3363288
-0 0 -0
-0.46409374 1.0910161 -0.27457252
-0.44719926 0.95190692 -0.25418514
-0.57653737 1.1165036 -0.31723854
-0 0 -0
-0.39554563 0.93181032 -0.27508947
-0.41143498 0.87637526 -0.27335638
-0.3786321 0.73318392 -0.24223763
-0 0 0
-0.98770815 2.3300314 0.75165588
-1.0208893 2.174695 0.68810499
-0.87716252 1.7005452 0.52816427
-0 0 0
-0.97185045 2.2942941 0.63789105
-1.0225762 2.1825452 0.59258693
-0.87478459 1.7008868 0.45051232
-0.89929134 2.36538 0.57469755
-0.9239611 2.1803918 0.51294935
-1.0320592 2.2049885 0.50306702
-0 0 0
-0.85472065 2.2466123 0.45288205
-0.96663857 2.2827668 0.4414869
-1.0172446 2.1762052 0.40427828
-0.90375131 1.761969 0.31420413
-0.86479908 2.2737002 0.36607385
-0.96111238 2.2729197 0.34664711
-1.0187552 2.182415 0.31503052
-0.8647638 1.6896602 0.23016544
-0.8597731 2.2616742 0.2735807
-0.95413131 2.2565198 0.2532208
-1.0409956 2.2323968 0.23110442
-0.86672521 1.6955352 0.16083896
-0 0 0
-0.951334 2.2518764 0.16284038
-1.0150582 2.1781638 0.13750809
-0.86417717 1.6919348 0.090325974
-0.90357852 2.3802826 0.10052282
-0.92937815 2.2029078 0.071545877
-1.0149778 2.1808736 0.049463827
-0.87848073 1.721719 0.021085342
-0.87450057 2.3046529 0.0070126369
-0.97517991 2.3138392 -0.017135529
-1.0264095 2.2077532 -0.039182175
-0.87670529 1.7197962 -0.049503271
-0.87598342 2.3122101 -0.083752126
-0.96568918 2.293669 -0.10774376
-1.0317522 2.2227962 -0.1295445
-0.87623131 1.7199049 -0.12042622
-0.86607635 2.2906444 -0.17287637
-0.93565321 2.2255864 -0.19339909
-1.0085988 2.1738086 -0.21475802
-0.87087047 1.710637 -0.19064976
-0.81131035 2.147609 -0.24704668
-0.83941001 1.999099 -0.2539354
-0.85841531 1.8513912 -0.25830913
-0.82265866 1.6169124 -0.247767
-0 0 -0
-0.74090135 1.76726 -0.29593721
-0.61877292 1.3358853 -0.2420637
-0.80787188 1.5884668 -0.31080204
-0 0 -0
-0.72622019 1.7345331 -0.36224908
-0.45541579 0.98478615 -0.21963996
-0.70765066 1.3924906 -0.33258024
-0 0 -0
-0.44837064 1.0722719 -0.2691578
-0.58778691 1.2713735 -0.33852202
-0.59824747 1.1761941 -0.33314943
-0 0 -0
-0.42661023 1.0223874 -0.30105117
-0 0 -0
-0.37804151 0.74319041 -0.24477267
-0 0 0
-0 0 0
-1.0163962 2.2001178 0.69416279
-0.86671162 1.7058953 0.52816427
-0 0 0
-0.95291376 2.2885878 0.63466686
-1.0103849 2.1914241 0.5933032
-0.86125255 1.7001442 0.44890743
-0 0 0
-0.93687111 2.2491736 0.52776831
-1.0131841 2.1997161 0.50043631
-0.93604809 1.851078 0.40782416
-0.93580669 2.5059032 0.50398403
-0.94996536 2.2822926 0.44025958
-1.0149992 2.2065952 0.40875918
-0.83547312 1.6537628 0.29398847
-0 0 0
-0.96615165 2.3244958 0.35360229
-1.0140367 2.2075467 0.31775412
-0.86287016 1.7117776 0.23245266
-0.87749141 2.351625 0.28380483
-0.98607844 2.3725553 0.26555797
-1.0206347 2.2242637 0.2296098
-0.85272056 1.6937013 0.16016565
-0.86482298 2.3187861 0.18877532
-0.94362128 2.2724152 0.16390383
-0.99792874 2.1761835 0.13699393
-0.85781938 1.7052364 0.090753384
-0.83557713 2.242523 0.094486721
-0.89593422 2.1605563 0.069990531
-0.99658161 2.1761522 0.049217124
-0.8692469 1.7297573 0.021118067
-0.85057032 2.2837362 0.0069329794
-0.94948304 2.292064 -0.016930804
-1.0016129 2.18946 -0.038747713
-0.86613631 1.7251431 -0.049503271
-0.84505939 2.272577 -0.082127184
-0.95197934 2.3004742 -0.10778701
-1.0180941 2.229085 -0.1295445
-0.8728233 1.7395219 -0.1214225
-0.85096377 2.2931097 -0.17266512
-0.91855359 2.2229941 -0.19268042
-0.99234605 2.173614 -0.21413322
-0.86080378 1.7168378 -0.19074859
-0.7220735 1.9474535 -0.22350822
-0.76802033 1.8609885 -0.23578887
-0.92651343 2.0308228 -0.28254521
-0.81094652 1.6183864 -0.24722573
-0 0 -0
-0.65097761 1.5798841 -0.26388624
-0.92075735 2.0202599 -0.36504242
-0.8417877 1.6805944 -0.32781109
-0 0 -0
-0.54853648 1.3330486 -0.27769276
-0.62553841 1.3747363 -0.30574995
-0.73761553 1.4737751 -0.35090652
-0 0 -0
-0.43733913 1.0641898 -0.26645043
-0.41576266 0.91396922 -0.24267399
-0.51893312 1.0359384 -0.29251549
-0 0 -0
-0 0 -0
-0 0 -0
-0 0 -0
-0.8819207 2.4130769 0.79372418
-0 0 0
-1.0108336 2.2238164 0.69966978
-0.8549341 1.7085952 0.52736604
-0 0 0
-0.95169419 2.3257728 0.64334738
-1.0205889 2.2497585 0.60738969
-0.85428071 1.7123647 0.45074159
-0.84404063 2.3048134 0.55742341
-0.9515627 2.3245254 0.54406923
-1.0166457 2.243355 0.50893545
-1.0082166 2.0245473 0.44467109
-0.84433198 2.3039899 0.46232483
-0.93221623 2.2789662 0.43850628
-1.0006274 2.2109847 0.40842727
-0.83454865 1.6774274 0.29727939
-0.85316062 2.3287101 0.37321678
-0.94962388 2.3248796 0.35276768
-0.98617995 2.1821024 0.31321478
-0.8404327 1.6930314 0.2292024
-0 0 0
-0.94555032 2.3150222 0.2584641
-1.01639 2.2513554 0.23175831
-0.8551482 1.7247913 0.16260642
-0.84783733 2.3165584 0.18816687
-0.941724 2.307725 0.16603073
-0.97921973 2.1704354 0.13625127
-0.8513307 1.7185234 0.091180794
-0.84444827 2.309546 0.097090527
-0.89359939 2.1928568 0.070857935
-0.98813868 2.1931648 0.049463827
-0.85817343 1.7341621 0.021107158
-0.83928776 2.2964263 0.0069557391
-0.94181079 2.3135917 -0.017046813
-0.95943415 2.1317399 -0.037621323
-0.86306661 1.7456594 -0.049939081
-0.84685791 2.3209078 -0.083684415
-0.94123304 2.3146014 -0.1081763
-1.003988 2.2343788 -0.1294917
-0.87716544 1.7752676 -0.12353961
-0.82117754 2.2551715 -0.16942587
-0.91164649 2.245213 -0.19411774
-0.99123275 2.2069192 -0.216811
-0.86082637 1.7435019 -0.1931206
-0.7022922 1.9303573 -0.22104739
-0.78831363 1.9439003 -0.24567638
-0.87625498 1.9522955 -0.27086669
-0.83607495 1.6944137 -0.25805116
-0.7254917 1.9992278 -0.30814296
-0.81818658 2.0208039 -0.33668771
-0.82840967 1.8475949 -0.33291867
-0.8349461 1.692796 -0.32918558
-0 0 -0
-0 0 -0
-0.43849128 0.97956568 -0.21725903
-0.6805647 1.3808916 -0.32779044
-0.35464373 0.98257828 -0.23166333
-0 0 -0
-0.47129166 1.0531358 -0.27885193
-0.58333981 1.1825774 -0.33290464
-0 0 -0
-0.3671467 0.91118586 -0.26696002
-0 0 -0
-0 0 -0
-0.78003323 2.1756091 0.71402711
-0.90314507 2.2446556 0.71862859
-1.005803 2.249284 0.70572758
-1.0877098 2.2075448 0.67929643
-0 0 0
-0.95511299 2.3756113 0.65550005
-1.0083483 2.2595253 0.60834467
-1.0793747 2.197202 0.57660991
-0 0 0
-0.93618768 2.3276 0.54343414
-0.98252523 2.2039337 0.49861512
-0.93875045 1.9144042 0.4192062
-0 0 0
-0.91527802 2.2773352 0.43710357
-0.9982723 2.2423077 0.41307414
-1.0501788 2.143723 0.37876874
-0.8294906 2.3078449 0.36905006
-0.928702 2.3141203 0.3502638
-0.99532926 2.2388513 0.32047775
-1.071975 2.1931546 0.296013
-0.83445817 2.3229394 0.27908602
-0.92577094 2.3069332 0.25692195
-1.0013444 2.2548196 0.23147807
-0.98137289 2.0102813 0.18895002
-0.82619441 2.3010709 0.18649359
-0.92754632 2.3134599 0.16603073
-0.98005813 2.2083418 0.13825077
-0.98921841 2.0280581 0.1072799
-0 0 0
-0 0 0
-1.0099064 2.2787082 0.051252417
-1.0485555 2.1519957 0.026113972
-0.82518137 2.3015327 0.0069557391
-0.91682833 2.2924013 -0.016848912
-0.94997889 2.1458154 -0.037766144
-1.0536103 2.1643844 -0.061731681
-0.83058023 2.3204145 -0.083481297
-0.92478925 2.3147666 -0.10791677
-1.0023701 2.2678983 -0.13107537
-1.0282425 2.1135843 -0.14664102
-0.81470662 2.2808344 -0.17097509
-0.89822227 2.2516901 -0.1941976
-0.98612517 2.2320919 -0.21868543
-0.93277407 1.9187932 -0.21189895
-0.66202849 1.8550352 -0.211953
-0.77343053 1.9413195 -0.24474581
-0.87868381 1.990308 -0.27538741
-0.81137466 1.6701024 -0.25358567
-0.5714981 1.6055238 -0.24691585
-0.55812299 1.4031738 -0.23320891
-0.69282651 1.5709548 -0.28229949
-0.84649128 1.7430816 -0.33794782
-0 0 -0
-0.6260218 1.57604 -0.32668623
-0.46880811 1.0647637 -0.23551276
-0.66695499 1.3744819 -0.32529137
-0 0 -0
-0.38473201 0.96986395 -0.24163286
-0.83017719 1.8860458 -0.49803376
-0.48584953 1.0003649 -0.28076592
-0 0 -0
-0 0 -0
-0 0 -0
-0 0 -0
-0.79075646 2.2488565 0.73646033
-0.89428812 2.2626359 0.72261465
-0.99004751 2.2510133 0.70435077
-1.0850832 2.2367268 0.68621445
-0 0 0
-0.93482488 2.3670104 0.65153182
-0.99563611 2.2683375 0.60906094
-1.0904534 2.2546065 0.58990747
-0.82768416 2.3490279 0.56561756
-0.92871165 2.3505709 0.54745644
-0.9713431 2.2153022 0.49982923
-1.0681884 2.2126098 0.48306137
-0 0 0
-0.93165565 2.3598297 0.45183152
-0.99240571 2.2664573 0.41639334
-1.0035398 2.080739 0.36654538
-0.82484823 2.339937 0.37336558
-0 0 0
-0.9919014 2.2685375 0.32384983
-1.0688288 2.2211599 0.29890209
-0.81160426 2.3036485 0.27616483
-0.92764902 2.3532879 0.26144558
-0.98828727 2.2627461 0.23166488
-0.96858799 2.015367 0.18886586
-0 0 0
-0.91260248 2.3172507 0.1658978
-0.94731957 2.1703935 0.13550861
-0.97718823 2.0349898 0.10732739
-0.79747397 2.2669492 0.094881237
-0.88564485 2.252028 0.072413273
-0.97233617 2.2307878 0.050039463
-1.0435482 2.1755192 0.026321227
-0.81303418 2.3122129 0.0069728084
-0.89945447 2.289607 -0.016787494
-0.97231847 2.2331944 -0.039198264
-1.0441982 2.1789217 -0.061962403
-0.8103683 2.3084931 -0.082871951
-0.90947384 2.3176074 -0.10778701
-0.98883379 2.2749221 -0.13112818
-1.0419829 2.1756632 -0.15050162
-0.81355757 2.322506 -0.17372137
-0.88293469 2.2534468 -0.19387819
-0.96209127 2.2143493 -0.21636468
-0.93773603 1.9594874 -0.21575345
-0 0 -0
-0.74304575 1.8988578 -0.2388133
-0.86803532 1.999302 -0.27588969
-0.90242636 1.8868886 -0.28565598
-0 0 -0
-0.64228529 1.6440691 -0.27258581
-0.86064255 1.98436 -0.35563245
-0.91481155 1.9135569 -0.36990425
-0 0 -0
-0 0 -0
-0.48602191 1.1224853 -0.24761578
-0.70656896 1.4791596 -0.34903225
-0.32623169 0.93981922 -0.22062144
-0.37983474 0.97492951 -0.24230969
-0.4239673 0.97944921 -0.2579439
-0.51692414 1.081179 -0.3025516
-0 0 -0
-0 0 -0
-0 0 -0
-0 0 -0
-0.78223664 2.2690217 0.74147832
-0.85610628 2.2055252 0.70268434
-0.97011077 2.242928 0.69994515
-1.0543067 2.2076786 0.67530525
-0 0 0
-0.94971025 2.4485705 0.67236501
-0.98400813 2.2797534 0.61049348
-1.0418699 2.1883111 0.57087821
-0 0 0
-0.90790749 2.3398242 0.5436458
-0.97052759 2.2508967 0.5065071
-1.0453265 2.1996253 0.47881719
-0.8387062 2.4259496 0.48361731
-0.8968721 2.31318 0.44183758
-0.97224051 2.2580121 0.41373798
-1.0127798 2.1332517 0.37469426
-0 0 0
-0.89987677 2.3244193 0.35012472
-0.98031306 2.2800465 0.32462797
-1.0560299 2.2294707 0.29914287
-0.79615635 2.3048282 0.27571541
-0.85717237 2.2142267 0.24540724
-0.97870666 2.2788308 0.23269244
-1.0388701 2.1960168 0.20519383
-0.81676805 2.3657022 0.19090495
-0.89692724 2.3190844 0.16563194
-0.96548474 2.2495604 0.14007887
-0.96297598 2.0373352 0.10713743
-0.7998392 2.3190305 0.096853815
-0.87289029 2.2602172 0.072503008
-0.9523285 2.2220092 0.049710531
-0.98919469 2.0950763 0.025274049
-0.79752767 2.3133764 0.0069614286
-0 0 -0
-0.96056515 2.2437143 -0.039278723
-1.0461624 2.2178366 -0.062885299
-0.78838253 2.2907412 -0.082059473
-0.88338107 2.2923801 -0.10635966
-0.9666149 2.261663 -0.13001959
-1.0481901 2.2235434 -0.15336595
-0.78276801 2.2793391 -0.17013006
-0.86264813 2.2420762 -0.19244087
-0.95122528 2.2266226 -0.21698952
-0.93120778 1.9769074 -0.21703829
-0.64631325 1.8837093 -0.21430685
-0 0 -0
-0.70890659 1.6606076 -0.22854769
-0.82922041 1.7615098 -0.2658996
-0.50337029 1.4710253 -0.22526412
-0 0 -0
-0.66111016 1.5502932 -0.27710775
-0 0 -0
-0 0 -0
-0.41905883 1.0939428 -0.22567266
-0.46184918 1.0848653 -0.23868734
-0.47358704 1.0072706 -0.23699205
-0 0 -0
-0 0 -0
-0.41680759 0.97934902 -0.25723913
-0.60812545 1.2922482 -0.36056513
-0 0 -0
-0 0 -0
-0.74084973 1.741998 -0.5344851
-0 0 -0
-0 0 0
-0.8510921 2.2331305 0.70980227
-0.96423066 2.2674165 0.70572758
-1.0481219 2.229809 0.68009466
-0 0 0
-0.87364417 2.2941082 0.62846655
-0.9574827 2.256249 0.60261464
-1.0350313 2.208765 0.57454646
-0.7884745 2.3285275 0.55830926
-0.88135535 2.3133857 0.53623635
-0.95555139 2.2541044 0.50590003
-1.0376301 2.218441 0.481518
-0 0 0
-0.87565649 2.3002374 0.43833089
-0.95375425 2.2530379 0.41174647
-1.0306106 2.2056398 0.38629085
-0.81066668 2.3929656 0.38021085
-0.88559747 2.3298969 0.35012472
-0.96669066 2.2869322 0.3247577
-1.0381358 2.2269108 0.29793906
-0.76893395 2.2710812 0.2711089
-0.88986564 2.341249 0.25887534
-0.95928377 2.2719519 0.23138466
-1.0241144 2.1996398 0.20494133
-0.77219307 2.2818871 0.18375552
-0.88728541 2.3366706 0.16649599
-0.94196051 2.2324462 0.13865066
-0.95509142 2.0531683 0.10765982
-0 0 0
-0.85120922 2.2449691 0.07184498
-0.9514873 2.258215 0.050388962
-1.017194 2.1890681 0.026332133
-0.78491867 2.3229632 0.0069756531
-0.8730607 2.3051481 -0.016821615
-0.95453721 2.2679975 -0.039600547
-1.0300087 2.2187736 -0.062731482
-0.8017835 2.3769779 -0.084970832
-0.88803506 2.3472819 -0.10865208
-0.96355021 2.2933297 -0.1314977
-1.0273865 2.2145419 -0.15230741
-0.75794876 2.2519555 -0.16773586
-0.85274923 2.2575843 -0.19331922
-0.9294461 2.2131326 -0.21511506
-0.93747485 2.0223079 -0.22138695
-0.67593938 2.0101526 -0.22821593
-0.79049981 2.0955498 -0.26231074
-0.82500815 1.9658936 -0.26986209
-0.79965448 1.7261088 -0.25981027
-0.47136438 1.4055896 -0.21479671
-0.54648083 1.4511292 -0.23946649
-0.74314296 1.7727262 -0.31604561
-0.86518079 1.8683212 -0.35908031
-0.39473733 1.1800963 -0.2275532
-0.36429581 0.96873766 -0.19937886
-0.54069638 1.2920141 -0.283528
-0 0 -0
-0 0 -0
-0 0 -0
-0.45093176 1.0778351 -0.28237575
-0.42090359 0.9088403 -0.25286067
-0 0 -0
-0 0 -0
-0 0 -0
-0 0 -0
-0 0 0
-0.83569443 2.2338216 0.70837873
-0.94844598 2.2688553 0.70435077
-1.0311828 2.2291992 0.677966
-0 0 0
-0.83818126 2.2422576 0.61284173
-0.9671737 2.3185439 0.61765611
-1.0112691 2.1929767 0.56881481
-0.76741612 2.3129594 0.55343705
-0.86817098 2.321496 0.53687143
-0.95300299 2.2870445 0.51197088
-1.0198959 2.2158527 0.47958887
-0.76056349 2.2905669 0.45473355
-0 0 0
-0.94332147 2.2670414 0.41324008
-1.0248971 2.2289712 0.38926834
-0 0 0
-0.86678469 2.3232255 0.34831637
-0.95111823 2.2891579 0.3242389
-1.0244522 2.2332389 0.29793906
-0.75654882 2.2804723 0.2716707
-0.88487089 2.3718278 0.26165119
-0.96593386 2.3274524 0.23642896
-1.0047878 2.1931994 0.20376301
-0.80242503 2.4200292 0.19447966
-0 0 0
-0.94277853 2.2732277 0.14082155
-0.95162153 2.0789711 0.1087046
-0.77414858 2.337208 0.09720888
-0.87228167 2.3438277 0.074836031
-0.93531793 2.2584684 0.05026561
-0.96673679 2.1143324 0.025361313
-0.7668789 2.3163438 0.0069415141
-0.85158288 2.2907782 -0.016678307
-0.9490115 2.2941382 -0.039954554
-1.0147138 2.2214146 -0.06262894
-0.76178038 2.3049881 -0.082228743
-0.84892356 2.2861898 -0.1055811
-0.94907922 2.2982757 -0.1314449
-1.0158514 2.2253439 -0.15261875
-0.74380434 2.2556162 -0.16766542
-0.840267 2.2665131 -0.19363864
-0.92192942 2.2335246 -0.21654321
-0.95147854 2.0859656 -0.2277123
-0.64492619 1.9576023 -0.22179636
-0 0 -0
-0.81822604 1.9837586 -0.27162015
-0.96494019 2.1168478 -0.31772631
-1.1546652 3.5145569 -0.53598803
-0 0 -0
-0.79953766 1.9405628 -0.34508678
-0.87943423 1.9300715 -0.36990425
-0.34337953 1.0478878 -0.2016499
-0.37636414 1.0197787 -0.20940454
-0.53126729 1.2916816 -0.28273436
-0 0 -0
-0 0 -0
-0.34363282 0.93239397 -0.23012654
-0.4047581 0.98439014 -0.25723913
-0 0 -0
-0 0 -0
-0 0 -0
-0 0 -0
-0 0 -0
-0 0 0
-0.87681437 2.3882878 0.75564188
-0.90783781 2.2097189 0.68425006
-1.0071027 2.2126732 0.67104799
-0 0 0
-0.80438924 2.1927886 0.59796089
-0.94961399 2.3163481 0.6155073
-1.0347942 2.2806885 0.58990747
-0.75592226 2.3259716 0.55543023
-0.8471759 2.3084295 0.53263742
-0.94117868 2.2982862 0.51318496
-1.0131618 2.2372642 0.48286843
-0 0 0
-0.85617566 2.3348422 0.44288954
-0.93723172 2.2919552 0.41672528
-1.0087585 2.2298188 0.38832808
-0.75035763 2.3077528 0.36518103
-0.84706599 2.3136218 0.3460907
-0.94042772 2.3032124 0.32540616
-1.0148138 2.2485311 0.29914287
-0.74530566 2.2935765 0.27268186
-0.87098491 2.379081 0.26185682
-0.96366644 2.3628364 0.23941819
-0.9900834 2.1965981 0.20351054
-0.7792449 2.399302 0.1924261
-0.85271758 2.3314526 0.16536608
-0.9265517 2.2734225 0.14047877
-0.95115197 2.1120944 0.1101293
-0.75424272 2.324806 0.09649875
-0.86199838 2.3604028 0.075194955
-0.95196891 2.3391738 0.051930849
-0.96153933 2.1375511 0.025568567
-0.74093002 2.2848589 0.006833409
-0.82723051 2.2677774 -0.016473582
-0.93303448 2.2952869 -0.039874099
-0.96541446 2.1482699 -0.060398605
-0.7482385 2.3115208 -0.082296453
-0.8499288 2.3326581 -0.10748424
-0.93646145 2.3077574 -0.13165607
-1.008311 2.2451918 -0.15355276
-0.72657788 2.249696 -0.16689083
-0.8202104 2.2547646 -0.19220132
-0.90446383 2.2299097 -0.21565062
-0.92073548 2.0518174 -0.22336362
-0.63381833 1.9643612 -0.22211735
-0 0 -0
-0.68641841 1.6936026 -0.23131037
-0.8096298 1.8054043 -0.27022976
-1.1255004 3.498023 -0.53240329
-0 0 -0
-0.60876352 1.5036626 -0.26672432
-0.80148935 1.788004 -0.34172761
-0.32732499 1.0200026 -0.19589363
-0.39885193 1.1014709 -0.22567266
-0.44510734 1.101361 -0.24047302
-0.50853878 1.1354301 -0.26489797
-0 0 -0
-0 0 -0
-0 0 -0
-0 0 -0
-0 0 -0
-0 0 -0
-0 0 -0
-0 0 -0
-0 0 0
-0 0 0
-0.89246279 2.2107904 0.68287331
-0.99232519 2.2161717 0.67024976
-0 0 0
-0.82733256 2.2988622 0.62549037
-0.90635663 2.2500713 0.596407
-1.0322858 2.3127716 0.59655631
-0 0 0
-0.84292811 2.3411705 0.53898841
-0.92047894 2.2876647 0.50954252
-0.99781793 2.2398534 0.48209676
-0 0 0
-0.83383483 2.3178184 0.43868157
-0.91543031 2.2784469 0.41324008
-1.0042934 2.2567201 0.39193243
-0.7343834 2.3066599 0.36428815
-0.82682842 2.3019998 0.3435868
-0.95175135 2.3724377 0.33435515
-1.0082486 2.2710474 0.30130967
-0.74176347 2.3312478 0.27661422
-0.8856225 2.4658256 0.27080128
-0.94989079 2.3705533 0.23960501
-0.98627979 2.2244942 0.20553048
-0.74214721 2.3337224 0.18679781
-0.84176576 2.3460326 0.16603073
-0.91926497 2.2957478 0.14150709
-0.94302928 2.1288502 0.11069918
-0.72816545 2.2922492 0.094960131
-0.83367741 2.3270669 0.073968627
-0.93945402 2.3496127 0.052033644
-0.99210334 2.2421687 0.026746642
-0.7147916 2.2512381 0.0067196139
-0.81902766 2.2888165 -0.016589593
-0.90743726 2.2721832 -0.039375268
-0.97161466 2.1980407 -0.061629131
-0.7334373 2.314163 -0.082228743
-0.81912327 2.2917311 -0.10536484
-0.91969508 2.3069665 -0.13128655
-0.99451584 2.2513366 -0.15355276
-0.71697068 2.2674274 -0.16787668
-0.81172007 2.274776 -0.19347893
-0.89297646 2.2409689 -0.21618618
-0.91978145 2.0838289 -0.2262298
-0.64661145 2.0469038 -0.23099776
-0.65677762 1.8431034 -0.22915839
-0.87419367 2.1955037 -0.29912123
-0.86771399 1.9671676 -0.29363975
-1.0531709 3.3434486 -0.50788379
-0.47065774 1.3231351 -0.21687819
-0.69178855 1.7393432 -0.30777133
-0.96219629 2.1822937 -0.41594899
-0.31221557 0.99383765 -0.1904971
-0.4607749 1.2972877 -0.26520795
-0 0 -0
-0 0 -0
-0.26574507 0.84876239 -0.19723859
-0 0 -0
-0 0 -0
-0.39432365 0.89425486 -0.2467411
-0 0 -0
-0 0 -0
-0 0 -0
-0 0 -0
-0 0 0
-0.81710625 2.3130002 0.72859365
-0.91290212 2.3020144 0.70930713
-0.97987396 2.2248654 0.67104799
-0 0 0
-0 0 0
-0.92218924 2.3305359 0.61622357
-0.98012257 2.2326095 0.57431722
-0 0 0
-0.82887256 2.3472204 0.53920013
-0.90822458 2.2978232 0.51055431
-0.97263604 2.2198706 0.47650221
-0.72616911 2.3295093 0.45973265
-0.82942456 2.3507435 0.44394153
-0.90034682 2.2812693 0.41274226
-0.98805147 2.2574112 0.39099216
-0.71344948 2.2894087 0.3608655
-0.81532025 2.314502 0.34469965
-0.91900003 2.3321073 0.32787037
-0.9970755 2.2835598 0.30215237
-0.72301316 2.3215244 0.27492893
-0.81462526 2.3126578 0.2534264
-0.94043261 2.3893073 0.24091281
-0.96544284 2.2140627 0.20401551
-0.7307772 2.3477528 0.1875584
-0.80152076 2.2777386 0.16084643
-0.92343253 2.3477993 0.14436351
-0.93992287 2.15749 0.11188643
-0.73633713 2.3682365 0.09791901
-0.83164239 2.3670311 0.075075313
-0.87494916 2.2278416 0.049217124
-0.97274113 2.2353776 0.026593929
-0.717287 2.3081033 0.0068760822
-0.80430603 2.2919116 -0.016575946
-0.90917903 2.3177335 -0.040067192
-0.9776383 2.2488837 -0.062885299
-0.70767617 2.2813919 -0.080908477
-0.81628233 2.3287699 -0.10683544
-0.90661472 2.3153558 -0.1314449
-0.98545539 2.2683814 -0.15429997
-0.69862103 2.2574902 -0.16682042
-0.78885758 2.2543106 -0.19132295
-0.88066137 2.2501159 -0.21654321
-0.90618557 2.0876079 -0.22603215
-0.58117861 1.8798509 -0.21173902
-0 0 -0
-0.65510482 1.6751041 -0.22766866
-0.83827829 1.9324604 -0.28768578
-0.38978952 1.2644683 -0.19171107
-0.4508124 1.2924049 -0.21138373
-0.61503935 1.5744386 -0.27791896
-0.94839597 2.1872528 -0.41577718
-0 0 -0
-0.466694 1.339965 -0.27334198
-0.38455701 0.98620427 -0.21428289
-0 0 -0
-0.26053214 0.85037702 -0.19723859
-0 0 -0
-0 0 -0
-0 0 -0
-0.25116423 0.82256728 -0.22499044
-0 0 -0
-0 0 -0
-0 0 -0
-0 0 0
-0.79819226 2.3043833 0.72432292
-0.88166404 2.2636786 0.69581491
-0.97118443 2.2423351 0.67450702
-0 0 0
-0.79620814 2.3006022 0.62325823
-0.89098793 2.2927041 0.60476339
-0.97527826 2.2591352 0.57959038
-0.69905084 2.2937837 0.54457855
-0.78823352 2.2765315 0.52184075
-0.89127332 2.2960494 0.50893545
-0.97103292 2.253732 0.48248261
-0.6992473 2.292563 0.45158598
-0.80532885 2.3278763 0.43868157
-0.88633227 2.2867508 0.41274226
-0.97769576 2.271596 0.39240256
-0 0 0
-0.79108149 2.2904444 0.3403874
-0.89680022 2.3173583 0.32501706
-0.97795355 2.2777762 0.30058742
-0.74061567 2.430474 0.2872878
-0.79912084 2.3138521 0.25301519
-0.92144686 2.3838887 0.23979184
-0.95851493 2.2355139 0.20544632
-0.71432447 2.3455155 0.18702599
-0.79599082 2.3071377 0.16257453
-0.90828985 2.3515584 0.14424925
-0.9274537 2.1650529 0.11198141
-0.71859312 2.3621945 0.097485043
-0.80343026 2.332397 0.073819071
-0.90011692 2.3339126 0.051437445
-0.97395438 2.276238 0.027008435
-0.70427483 2.316288 0.0068874615
-0.79380661 2.3072047 -0.01665101
-0.88200176 2.2896793 -0.03948791
-0.96067774 2.2474864 -0.062680215
-0.70353252 2.3182073 -0.082059473
-0.79061389 2.3006659 -0.10532159
-0.88809025 2.3096902 -0.13081144
-0.97230238 2.2762208 -0.1544245
-0.68186569 2.252187 -0.16611624
-0.77209938 2.2506225 -0.19060428
-0.86433715 2.2489691 -0.21591841
-0.91249985 2.1379752 -0.23087499
-0.56445199 1.8662512 -0.20981315
-0 0 -0
-0 0 -0
-0.87266207 2.0460203 -0.3037886
-0.34859294 1.1559762 -0.17493457
-0.5384835 1.5747488 -0.25701821
-0 0 -0
-0.93650275 2.1966558 -0.41646439
-0.29659677 0.98629004 -0.1883385
-0.39627731 1.1606653 -0.23626584
-0 0 -0
-0.43159175 1.0132214 -0.23449302
-0.25671068 0.85663557 -0.19832113
-0 0 -0
-0 0 -0
-0 0 -0
-0 0 -0
-0 0 -0
-0 0 -0
-0 0 -0
-0 0 0
-0.76215625 2.2447894 0.70410794
-0 0 0
-0.94645482 2.2225323 0.66679072
-0 0 0
-0.79577029 2.3458104 0.63417089
-0.90217537 2.3643589 0.62219244
-0.98079342 2.3107727 0.59128314
-0 0 0
-0.77048093 2.2702193 0.51930034
-0.89216554 2.3408241 0.5176369
-0.96292675 2.2732 0.48537633
-0.69247121 2.3212945 0.45639995
-0.76731819 2.2628467 0.42553166
-0.85965782 2.2589667 0.4067677
-0.95681125 2.2611799 0.38958174
-0.67004085 2.2468195 0.35282972
-0.77606004 2.2924414 0.33997008
-0.89101666 2.3450632 0.32812977
-0.96395898 2.2837338 0.30058742
-0.6819827 2.288322 0.26998538
-0.78299463 2.3130586 0.25239831
-0.88454729 2.3308539 0.23390682
-0.97380841 2.310219 0.21175867
-0.7013424 2.3546326 0.18740629
-0.78277844 2.3148141 0.16277392
-0.87897599 2.3178804 0.14184985
-0.92384374 2.1937172 0.11316866
-0.7009511 2.356024 0.097051069
-0.79709715 2.3609586 0.074566834
-0.8882575 2.3459368 0.051581353
-0.95492905 2.270189 0.02686663
-0.69118923 2.3244002 0.0068988414
-0.76653451 2.2731824 -0.01637122
-0.85308129 2.2557683 -0.038812079
-0.95732552 2.2782221 -0.063372388
-0.67536122 2.2755325 -0.080400683
-0.77233684 2.293165 -0.10475929
-0.87072754 2.3066876 -0.13033633
-0.96411377 2.2959473 -0.15535854
-0.67228144 2.2706754 -0.16717249
-0.74969828 2.2298071 -0.18844832
-0.85509229 2.2663448 -0.21707878
-0.88896918 2.1187582 -0.22820647
-0.61672091 2.085155 -0.23399355
-0 0 -0
-0.61700082 1.6366019 -0.22138989
-0.84208512 2.0083909 -0.29742867
-0.36360651 1.2330847 -0.18626229
-0.44716546 1.3343853 -0.21733604
-0.45657775 1.2124881 -0.21302254
-0.82019657 1.9570482 -0.37007603
-0.27805206 0.94562328 -0.18024373
-0.34334767 1.0261878 -0.20845872
-0.36001164 0.95782077 -0.20714013
-0.4083671 0.97525269 -0.22512163
-0.25035161 0.85444701 -0.19745511
-0 0 -0
-0 0 -0
-0 0 -0
-0.23806851 0.81537211 -0.22220653
-0 0 -0
-0 0 -0
-0 0 -0
-0 0 0
-0.7692486 2.3121855 0.72375345
-0 0 0
-0.9350332 2.2336328 0.66838723
-0 0 0
-0 0 0
-0.8944633 2.3880377 0.62696749
-0.97221822 2.3302219 0.59472209
-0.66184705 2.2712939 0.53727025
-0 0 0
-0.85239244 2.2783799 0.5026623
-0.95989847 2.3053346 0.49097091
-0.67491329 2.3141789 0.45417809
-0.77732247 2.3394523 0.43903226
-0.86303461 2.3103881 0.41506568
-0.95164257 2.2879822 0.39318609
-0.6805985 2.3344305 0.36592504
-0.76540887 2.3074992 0.34150025
-0.86933464 2.330976 0.32540616
-0.94954765 2.2886884 0.30046701
-0.66653913 2.2876933 0.2694236
-0.75939274 2.2894959 0.24931403
-0.86814356 2.3306396 0.23334633
-0.96419173 2.3271976 0.21276866
-0.67851841 2.3301711 0.18512455
-0.76448053 2.3072605 0.16190988
-0.86369234 2.3204229 0.14167847
-0.99937785 2.4143875 0.12423383
-0.67197067 2.3103886 0.094999589
-0.76376057 2.3088663 0.072772205
-0.85782528 2.3082333 0.050635662
-0.96581453 2.3360708 0.027575657
-0.68082196 2.3420408 0.0069386698
-0.76794356 2.3243685 -0.016705604
-0.86079621 2.319078 -0.039809734
-0.93378842 2.2609539 -0.062731482
-0.67753786 2.3353047 -0.082364149
-0.76263469 2.3111432 -0.10536484
-0.86488378 2.3344605 -0.13160327
-0.94353497 2.2861362 -0.15429997
-0.65694964 2.2699671 -0.16682042
-0.74317521 2.2561409 -0.19028489
-0.83390671 2.2519343 -0.21520431
-0.86381239 2.0947347 -0.22504382
-0.54841119 1.896916 -0.21248797
-0.56355715 1.7133696 -0.21124448
-0.56494629 1.5268438 -0.20606965
-0.60324574 1.4638784 -0.21623793
-0.34479621 1.1963032 -0.18038334
-0.43711984 1.3314701 -0.21642031
-0.49188739 1.3309624 -0.23330267
-0 0 -0
-0.2741465 0.95392954 -0.18150291
-0.3183879 0.97135615 -0.19691972
-0.37888959 1.0271391 -0.22162408
-0 0 -0
-0.24591035 0.85878271 -0.19810462
-0.27787 0.84904337 -0.20688826
-0 0 -0
-0 0 -0
-0.23067199 0.80844468 -0.21992879
-0.26083526 0.79902101 -0.2284108
-0 0 -0
-0 0 -0
-0 0 0
-0 0 0
-0.82688612 2.2443428 0.68507612
-0.9282788 2.2562656 0.67344272
-0 0 0
-0 0 0
-0.89185488 2.4262934 0.63556266
-0.9379611 2.2875113 0.58234167
-0.64335811 2.2593682 0.53350538
-0.73590416 2.2590594 0.51464295
-0.8407591 2.2900023 0.50407881
-0.94424874 2.3075485 0.49019924
-0 0 0
-0.74406224 2.2861352 0.42816165
-0.83696306 2.2832341 0.40925705
-0.9293648 2.2736657 0.3897385
-0.65054691 2.2834034 0.35729402
-0.73593581 2.2650616 0.33454508
-0.84070289 2.2971578 0.31995893
-0.93773538 2.2999873 0.3011893
-0.65738738 2.3089426 0.27144596
-0.74072003 2.2799218 0.24777186
-0.88869071 2.4313045 0.24287449
-0.9660514 2.3727541 0.21638773
-0.66830128 2.3486762 0.18626542
-0.75000101 2.3109589 0.16184342
-0.84738326 2.3200524 0.14133571
-0.92169333 2.2659559 0.116303
-0.66515714 2.3404195 0.096064784
-0.74280125 2.2925897 0.07211417
-0.85666221 2.3491461 0.051416889
-0.94619334 2.3289833 0.027422944
-0.66643864 2.3461742 0.0069386698
-0.74781746 2.3109601 -0.016575946
-0.86092186 2.3637748 -0.040485565
-0.93531102 2.3046193 -0.063782565
-0.64847648 2.2874951 -0.080536097
-0.76042181 2.3528545 -0.10705171
-0.83416724 2.2946746 -0.12906939
-0.9309901 2.2955821 -0.15454905
-0.6462661 2.2854736 -0.16766542
-0.72105443 2.2350447 -0.18812892
-0.82211423 2.2626255 -0.21573988
-0.84160024 2.0769389 -0.22257297
-0.56027538 1.9834888 -0.22179636
-0 0 -0
-0.5992406 1.6505779 -0.22226891
-0 0 -0
-0.32108656 1.1402866 -0.17163663
-0.39233962 1.2202841 -0.19795285
-0 0 -0
-0.48639387 1.2017304 -0.22610033
-0 0 -0
-0.30371842 0.94617772 -0.19143398
-0.34289372 0.94742066 -0.20396556
-0.40590182 1.0037658 -0.23053619
-0.23932138 0.85557443 -0.19702208
-0.27711514 0.86464834 -0.21027248
-0 0 -0
-0 0 -0
-0 0 -0
-0.25592765 0.80060643 -0.2284108
-0 0 -0
-0 0 -0
-0 0 0
-0 0 0
-0.82976669 2.2954826 0.69911909
-0.91080427 2.2529821 0.67078191
-0.65132517 2.3419645 0.64902526
-0.7915951 2.4828169 0.6671567
-0.81633496 2.2636373 0.59163195
-0.95046073 2.3591311 0.59907824
-0 0 0
-0.72737509 2.2802923 0.51845354
-0.83266574 2.3117025 0.5077213
-0.92458171 2.299643 0.48730549
-0 0 0
-0.72314507 2.269083 0.42412901
-0.82727593 2.30039 0.41141453
-0.91355592 2.2747426 0.38895491
-0.64474231 2.3168848 0.36190718
-0.74363947 2.3374791 0.34456056
-0.82491672 2.2976069 0.31931049
-0.93578714 2.3361087 0.3051618
-0.64001286 2.3014445 0.27009773
-0.73033524 2.2957985 0.24900559
-0.8240189 2.2980065 0.22904932
-0.93556082 2.3388543 0.21276866
-0.64907157 2.3354404 0.18489638
-0.75242698 2.3678184 0.165499
-0.83111119 2.3195689 0.14099294
-0.90740168 2.2706413 0.11625551
-0.65987098 2.3771925 0.097406134
-0.72418654 2.2828128 0.071665518
-0.83549684 2.335531 0.051005717
-0.93262643 2.3366024 0.027444759
-0.64213884 2.3145661 0.006833409
-0.74268442 2.3441031 -0.016780671
-0.79964113 2.2381332 -0.038248882
-0.91559893 2.296386 -0.063398018
-0.64802903 2.3405538 -0.082262591
-0.74476504 2.3536661 -0.1068787
-0.8381837 2.3505418 -0.13191999
-0.92095065 2.31145 -0.15523399
-0.62824762 2.2749732 -0.16660917
-0.70882797 2.2441795 -0.18852817
-0.80119348 2.247925 -0.21386544
-0.83583343 2.0996299 -0.22445081
-0.50922805 1.8459954 -0.2060684
-0.57833636 1.8338231 -0.22520337
-0 0 -0
-0 0 -0
-0.32011887 1.1641829 -0.17493457
-0.3628875 1.1529095 -0.1866587
-0.46989587 1.3210937 -0.23054458
-0.48119497 1.2101847 -0.22713117
-0.27828446 1.0150915 -0.19247583
-0 0 -0
-0.34723866 0.97813982 -0.21011627
-0.41237363 1.0380517 -0.23782508
-0.23200944 0.84949255 -0.19529003
-0.26480529 0.84402347 -0.20485774
-0 0 -0
-0 0 -0
-0 0 -0
-0.24928129 0.79663593 -0.22683737
-0 0 -0
-0 0 -0
-0 0 0
-0.72655851 2.3259532 0.72375345
-0.79092968 2.230763 0.677917
-0.9158203 2.3060102 0.68488407
-0 0 0
-0.72612876 2.3267176 0.62400228
-0 0 0
-0.90408802 2.2843683 0.57867336
-0 0 0
-0.69443589 2.2240729 0.50469303
-0.81520361 2.3075342 0.50569767
-0.91297704 2.3116615 0.48865592
-0 0 0
-0.71243358 2.2838156 0.42605764
-0.81117731 2.2998428 0.41041878
-0.89559436 2.2701993 0.38723111
-0.62895846 2.3150716 0.36101431
-0.72310007 2.3221424 0.34163937
-0.81310862 2.3091722 0.32021835
-0.88617736 2.2521992 0.29348502
