# .PCD v0.7 - Point Cloud Data file format
VERSION 0.7
FIELDS x y z
SIZE 4 4 4
TYPE F F F
COUNT 1 1 1
WIDTH 1632
HEIGHT 1
VIEWPOINT 0 0 0 1 0 0 0
POINTS 1632
DATA ascii
2.1258562 1.3405925 -0.41322803
0.97529793 0.66630286 -0.20599869
1.322084 0.70258164 -0.27378339
2.1399469 1.2405369 -0.47650412
2.1322856 1.3428272 -0.51011235
1.9136162 1.3064605 -0.49335167
1.4723691 0.78063452 -0.36957881
2.1110163 1.2224861 -0.56493807
2.1295991 1.3408238 -0.60821199
1.8957387 1.2952256 -0.57964575
1.5179226 0.80295467 -0.44922164
1.5497539 0.89590752 -0.4864547
2.1365209 1.3444009 -0.71273732
1.8815563 1.2856321 -0.66897017
5.474463 2.8876393 1.9121403
5.5329666 3.1949103 1.8976464
5.585875 3.5146866 1.8902924
5.0078611 3.4182448 1.6736289
6.327631 3.342747 1.9107035
6.772933 3.9085424 2.0019662
5.6122208 3.525387 1.6294947
4.937747 3.3618031 1.4070199
6.9763708 3.6856177 1.7918605
6.9787874 4.0286365 1.7454673
5.8635473 3.6801217 1.430483
5.0327487 3.4212158 1.1964642
0 0 0
5.994966 3.4586148 1.2325865
5.602972 3.5126257 1.112927
5.0547924 3.4333637 0.96956652
0 0 0
0 0 0
0 0 0
5.0674448 3.43537 0.74237984
1.1896404 0.62843406 0.1521266
6.3174124 3.6402333 0.7535966
0 0 0
4.9478784 3.3507841 0.50473636
1.2555726 0.66301084 0.10830622
1.1958647 0.68858337 0.091921739
0 0 0
4.9775524 3.3684731 0.28574729
1.2213312 0.64443898 0.054522187
1.1428621 0.65732086 0.039451927
1.1498544 0.71818793 0.027877368
4.9801488 3.3671892 0.065579444
1.1861037 0.62563938 0.0038149881
1.1323169 0.65070361 -0.0089123854
1.1120653 0.69396478 -0.021095619
1.1166161 0.75437278 -0.034557436
1.1645343 0.61348283 -0.044584293
1.1124609 0.63875073 -0.055537127
1.093284 0.68131709 -0.068097964
1.0661978 0.71993136 -0.080263384
1.1803725 0.62082672 -0.094148956
1.1448692 0.65656197 -0.1057227
1.0795572 0.67252737 -0.1139842
0.94447267 0.63733071 -0.11316432
1.1934122 0.62725967 -0.14508241
1.2220342 0.70010638 -0.16494751
1.0687414 0.66540116 -0.15935551
1.0194027 0.68753105 -0.16792946
1.2111971 0.63534003 -0.19816358
2.136781 1.2225825 -0.38018546
2.1415827 1.3322141 -0.41468823
1.0136744 0.68343604 -0.21321467
1.3167839 0.68943715 -0.27180466
2.1449609 1.2259214 -0.47593662
2.143815 1.3317872 -0.51090598
1.9986551 1.3466132 -0.51313573
1.4087695 0.7358765 -0.35247466
1.5254053 0.87090522 -0.40678248
2.1402631 1.32927 -0.6089167
1.9607278 1.3220547 -0.59702533
1.4970831 0.7802124 -0.44162917
1.5694746 0.89450467 -0.49091277
2.1341002 1.3246682 -0.70920491
1.9546437 1.3180516 -0.69206727
5.4598618 2.8372529 1.9009237
5.5466342 3.1575809 1.8956534
5.6122365 3.4833879 1.8919445
5.0687146 3.4143801 1.6869327
6.3480225 3.3038585 1.9107035
6.4313512 3.6590021 1.8943282
5.7212448 3.5451021 1.6548026
0 0 0
6.983283 3.6346378 1.787874
6.9804406 3.972687 1.7397513
5.8635364 3.630156 1.4250193
6.8495569 4.5950689 1.6216508
0 0 0
6.0066614 3.4164114 1.2306579
5.823195 3.6011045 1.1522595
0 0 0
0 0 0
0 0 0
0 0 0
5.09833 3.4108362 0.74382442
1.2384276 0.64451808 0.15785661
6.5809331 3.7384808 0.7822805
0 0 0
0 0 0
1.2543098 0.65253329 0.10784988
1.1957287 0.67876989 0.091589406
0 0 0
5.0388303 3.3650503 0.28807431
1.221716 0.63508934 0.054364379
1.1564385 0.65571928 0.039780941
1.1304057 0.69643515 0.027301729
5.0015478 3.3371234 0.065590359
1.1615254 0.60359424 0.0037239518
1.1406386 0.64620811 -0.0089465063
1.1188568 0.68870056 -0.021143891
1.1303734 0.75360703 -0.034839433
1.1709379 0.60770702 -0.044685856
1.1224453 0.63535774 -0.0558399
1.1025482 0.6777336 -0.068414696
1.0672729 0.71116203 -0.080014318
1.188588 0.61586702 -0.094501048
1.1375957 0.64314735 -0.10468464
1.0862093 0.66745502 -0.11425199
1.0204247 0.67950833 -0.12176283
1.1866435 0.61443919 -0.14379852
1.216794 0.68722218 -0.16366795
1.0880212 0.66817611 -0.16161586
0.99720788 0.66369641 -0.1635993
1.1799041 0.60972267 -0.19242802
2.1201401 1.1958536 -0.37591198
2.1371009 1.3113075 -0.41225457
1.0285112 0.68429738 -0.21544817
1.291265 0.66601318 -0.2656886
2.1464541 1.209363 -0.47461247
2.1385751 1.3104147 -0.50773138
2.0158393 1.340281 -0.51542652
1.3863474 0.7133711 -0.34576294
1.5230795 0.85722864 -0.40475196
2.1367753 1.3090039 -0.60562783
1.9792968 1.3169813 -0.60020751
1.4588094 0.74891973 -0.42897502
1.5782988 0.88674843 -0.49196169
2.1306973 1.3045136 -0.70540076
1.9834636 1.3198538 -0.69939077
5.4890752 2.8097932 1.9050562
5.5659046 3.1234877 1.8956534
5.6310449 3.4473808 1.8911185
5.2035632 3.4589903 1.7247158
6.3750529 3.2683716 1.9127673
6.5246568 3.659277 1.9151614
5.8365192 3.5671546 1.6817818
0 0 0
0 0 0
6.9901948 3.9216518 1.7361524
5.8982368 3.6017654 1.4280546
6.8596234 4.541039 1.6174067
0 0 0
5.9794216 3.3525279 1.2208393
5.8754892 3.5837929 1.158234
0 0 0
1.2160064 0.62366521 0.20565614
0 0 0
5.8385468 3.5570664 0.89425093
0 0 0
1.2565069 0.64416015 0.15965427
6.6540856 3.7262192 0.78824353
5.9039378 3.5936565 0.64847487
5.1292081 3.3825233 0.51896024
1.2618395 0.64664364 0.10815411
1.1998709 0.67142022 0.091589406
5.9176507 3.6000218 0.39635694
5.1586356 3.3994753 0.29372564
1.2309263 0.63031369 0.054601092
1.1604401 0.64861119 0.039780941
1.1286768 0.68585169 0.027157821
5.1614046 3.3982 0.067412011
1.1910214 0.60966998 0.0038064534
1.1559319 0.64553547 -0.0090352213
1.1153693 0.6771524 -0.02099907
1.1199433 0.73676747 -0.034377981
1.1755346 0.6009658 -0.044719707
1.1280676 0.62943226 -0.055926409
1.106686 0.67095572 -0.068414696
1.0682806 0.70240664 -0.079765238
1.1914561 0.60810894 -0.094430633
1.1650301 0.64925665 -0.10684061
1.0902842 0.66077757 -0.11425199
1.0736413 0.70547515 -0.12759399
1.1886197 0.60624295 -0.14358452
1.2270623 0.6831249 -0.16448221
1.137923 0.6892423 -0.16839695
1.0393574 0.68258417 -0.16982391
1.2003808 0.61100125 -0.19515242
1.3474636 0.74916869 -0.23809285
2.1459508 1.2986808 -0.41241682
2.0596166 1.3521628 -0.4296937
1.2295524 0.62466133 -0.2521973
1.6018553 0.88961852 -0.35298002
2.1474144 1.2977749 -0.5079298
2.032203 1.3332521 -0.51750904
1.3619614 0.69028634 -0.33861819
1.5223473 0.84455878 -0.40317264
2.1356153 1.290339 -0.60304374
2.0197601 1.3260975 -0.60999882
1.4331601 0.72467524 -0.42011714
1.5853986 0.87798256 -0.49248621
2.1353662 1.2894254 -0.70431381
2.0027537 1.3150318 -0.70333421
5.5010934 2.7734792 1.9032851
5.585804 3.0897412 1.895938
5.668551 3.4227026 1.8966256
5.2762752 3.4608333 1.7417448
6.3880877 3.2257097 1.9107035
6.5520735 3.6219854 1.9166493
5.8765941 3.5423045 1.6870344
0 0 0
0 0 0
6.9935994 3.867336 1.7310716
5.9260983 3.5690434 1.4294711
6.8750348 4.4908142 1.6145129
0 0 0
6.9821954 3.8586431 1.4207182
5.8897629 3.5430989 1.1567403
0 0 0
0 0 0
1.2441039 0.68672031 0.1996142
5.9325066 3.5645831 0.90527505
0 0 0
1.2311645 0.62165815 0.1559466
1.1878425 0.65563804 0.14023271
5.9122186 3.5491638 0.64698023
5.1790986 3.3700085 0.52190602
1.263113 0.63754112 0.10792594
1.2048419 0.66452724 0.09165588
5.9421973 3.5651851 0.39652833
5.1634865 3.3574131 0.29282331
1.2410159 0.62589872 0.054877251
1.1565187 0.63713783 0.039511748
1.1474426 0.68765026 0.027507314
1.8623906 1.2098579 0.024226874
1.2233138 0.61675656 0.0038974897
1.1616231 0.63939506 -0.0090488689
1.1186454 0.66978222 -0.020982979
1.1143808 0.72335041 -0.03407035
1.1800925 0.59419096 -0.044753559
1.1380364 0.62586874 -0.056229182
1.109925 0.6636402 -0.068361908
1.0876416 0.70561618 -0.080886066
1.1915998 0.59899473 -0.094148956
1.1593813 0.6368171 -0.10596225
1.1122718 0.66480625 -0.11612643
1.0562406 0.68479925 -0.12502433
1.1932057 0.59938467 -0.14369151
1.2146868 0.66650516 -0.16227207
1.1830122 0.7066676 -0.17442459
1.0651449 0.69020271 -0.17334217
1.2049921 0.60406792 -0.19529581
1.2853 0.70431733 -0.22634083
2.1428638 1.2789149 -0.41030768
2.0777962 1.3459268 -0.43175536
1.2254446 0.61314368 -0.25057834
1.4522402 0.79490745 -0.31893051
2.1393402 1.2750403 -0.50416005
2.0510192 1.327667 -0.52021629
1.3067725 0.65226793 -0.32389563
1.4984382 0.81931114 -0.39550179
2.1451626 1.2782059 -0.60351354
2.0441339 1.3242227 -0.61489451
1.5233147 0.75856119 -0.44517231
1.5890617 0.8673135 -0.49196169
2.1490259 1.2797456 -0.70621592
2.0494382 1.3277605 -0.71685439
5.5342674 2.7477458 1.9088935
5.5937152 3.0494442 1.8922367
5.6968794 3.392283 1.8991038
5.3718629 3.4765775 1.7662239
6.4103551 3.1877429 1.9114774
6.5682192 3.57847 1.9149133
6.4082398 3.8093605 1.832913
0 0 0
0 0 0
7.0034671 3.8168683 1.7276844
5.9495702 3.5336146 1.429876
6.8298807 4.4017687 1.5975363
0 0 0
0 0 0
6.8103991 4.0402231 1.3326579
0 0 0
0 0 0
1.0743158 0.58442926 0.1717934
6.0685749 3.5958464 0.92265421
0 0 0
1.2527505 0.62294078 0.15819368
1.1866003 0.64548528 0.13961585
0 0 0
5.4688449 3.5109696 0.54892296
1.2732513 0.63288558 0.10845835
1.2176632 0.66188717 0.092320532
1.1848872 0.70105439 0.078780085
0 0 0
1.2510974 0.62138361 0.055153415
1.1727043 0.63670659 0.039930493
1.1507796 0.68008804 0.027486755
1.8815651 1.2059618 0.024379587
1.221701 0.6065706 0.0038804205
1.1409131 0.61890465 -0.0088577922
1.1158462 0.65883881 -0.02085425
1.1171145 0.71542078 -0.034019075
1.1917748 0.59093469 -0.045058236
1.1471254 0.62173045 -0.056488704
1.1156965 0.65783173 -0.068467483
1.0927914 0.6994673 -0.08094833
1.188995 0.58857423 -0.093656033
1.1816759 0.63965625 -0.10763912
1.1111817 0.65493447 -0.11559088
1.0612607 0.67884159 -0.12512317
1.187058 0.58720273 -0.14251459
1.2196271 0.6595118 -0.16238837
1.2078415 0.71148008 -0.17743841
1.0810469 0.69112575 -0.17523663
1.2077883 0.59622473 -0.19515242
1.2974237 0.70064402 -0.22771446
2.1455684 1.2627395 -0.40933421
2.1158988 1.3522503 -0.43794051
1.2177125 0.59996122 -0.24823986
1.335234 0.72025013 -0.29225838
2.1420536 1.2589098 -0.50296956
2.1234233 1.3561199 -0.53646004
1.2914745 0.63476342 -0.31913248
1.4511212 0.78191197 -0.38173929
2.1403944 1.2576331 -0.59998971
2.1012387 1.3429844 -0.62958145
1.6313089 0.79988503 -0.47528917
1.5926539 0.85663265 -0.49143723
2.1443896 1.2592256 -0.70214003
2.0567384 1.3146436 -0.71657276
5.538147 2.7074418 1.9044658
5.6123209 3.0150645 1.8922367
5.7233896 3.3606713 1.9010311
5.462965 3.4881644 1.7891066
6.4350004 3.1508989 1.9130251
6.5738354 3.5293941 1.910201
6.6635528 3.9059958 1.8990479
5.5705614 3.5475664 1.5555857
0 0 0
7.0482807 3.7853847 1.732977
5.9838157 3.5044658 1.4329113
6.6903305 4.2539558 1.5587602
0 0 0
0 0 0
6.8716617 4.0197697 1.339794
0 0 0
0 0 0
1.2480735 0.66906214 0.19891869
6.1701446 3.6050627 0.93471593
0 0 0
1.2163895 0.59557903 0.15313777
1.2326194 0.66074991 0.14455071
0 0 0
5.5450025 3.5120037 0.55439365
1.2753195 0.62418443 0.10830622
1.2234606 0.6553455 0.092453465
1.175369 0.68572128 0.077866025
0 0 0
1.2575794 0.61501223 0.055271767
1.1862837 0.63468593 0.04025951
1.1549309 0.67301422 0.027486755
1.6970783 1.0730842 0.02190345
1.2280951 0.60038054 0.0038889551
1.1393979 0.60906398 -0.0088168466
1.1345574 0.66053194 -0.021127801
1.1240187 0.71015471 -0.034095984
1.1989707 0.58536488 -0.045193646
1.1535623 0.61609209 -0.05661846
1.1188486 0.65047163 -0.068414696
1.1012821 0.69541335 -0.081259675
1.1907907 0.58039355 -0.093515202
1.1838195 0.6314553 -0.10747942
1.1220685 0.65210783 -0.11630496
1.0822371 0.68293816 -0.12709983
1.1888509 0.57903725 -0.14230061
1.2052436 0.64220768 -0.15994558
1.1967424 0.69508666 -0.17517804
1.0961618 0.69135082 -0.17699575
1.1998527 0.58317852 -0.19328836
1.2702901 0.67595679 -0.22222
2.1370604 1.2401408 -0.40625167
2.1341562 1.3455468 -0.4400022
1.2134054 0.58861417 -0.24662089
1.3006101 0.69130462 -0.283746
2.1234491 1.2305088 -0.49681887
2.1490824 1.354014 -0.54083335
1.3076481 0.63278067 -0.32216358
1.4317989 0.76020145 -0.37542209
2.0017262 1.159692 -0.55911338
2.1299434 1.3429947 -0.63570106
1.6274737 0.78565454 -0.47275832
1.5970274 0.84639233 -0.491175
2.1420815 1.2402575 -0.6988793
2.1232028 1.338848 -0.73685312
5.54949 2.6709232 1.9026947
5.6468129 2.9890924 1.8976464
5.7114558 3.3067045 1.8902924
5.6180277 3.5388367 1.8327434
6.459435 3.1138725 1.914573
6.5910864 3.4867268 1.9089611
6.6798272 3.860662 1.896899
5.6177745 3.5293713 1.5626931
0 0 0
0 0 0
6.0102944 3.4706221 1.4341254
6.7420745 4.2289882 1.5647407
0 0 0
0 0 0
6.9081569 3.9844284 1.3421177
0 0 0
0 0 0
1.2285132 0.64890373 0.19516288
0 0 0
0 0 0
1.2522447 0.6036374 0.1571825
1.234012 0.65178061 0.1442423
0 0 0
5.5444756 3.464186 0.55220538
1.2701427 0.61201918 0.10754565
1.2362829 0.65248346 0.093118116
1.193401 0.68646121 0.078780085
0 0 0
1.2676316 0.6103186 0.05554793
1.1919242 0.62832731 0.040319331
1.1573049 0.6649189 0.027445639
1.1317946 0.70596433 0.014551396
1.2335578 0.59370112 0.0038946448
1.1625783 0.61231309 -0.0089669786
1.1316516 0.64957595 -0.02099907
1.1079937 0.69055438 -0.033480719
1.2079445 0.58059484 -0.045396768
1.1643939 0.6127243 -0.056964483
1.1202197 0.64210451 -0.068256333
1.1038342 0.6875875 -0.081135139
1.1970276 0.57437068 -0.093726456
1.1841422 0.62232471 -0.10716001
1.1364191 0.65115273 -0.11737606
1.0956999 0.68206954 -0.128187
1.1843127 0.56786287 -0.14133768
1.1977293 0.6287986 -0.15843336
1.2250906 0.70153439 -0.17869416
1.1264627 0.70083737 -0.18119061
1.2043012 0.57623255 -0.19343175
1.2744138 0.66814971 -0.22222
2.1463423 1.2279847 -0.40657613
2.1331704 1.3267035 -0.43811232
1.2187696 0.58200556 -0.24698067
1.3248347 0.69378865 -0.28809679
2.1292572 1.216484 -0.49642202
2.1349208 1.3268623 -0.53521055
1.2736064 0.60669142 -0.31285375
1.4614706 0.76449716 -0.38196492
1.5310801 0.87452167 -0.42614776
2.1364973 1.328876 -0.63521147
1.6427494 0.78063661 -0.47579533
1.5175047 0.79235876 -0.46521324
1.5813143 0.90266544 -0.51410562
2.1216009 1.3197135 -0.733473
5.5476418 2.6282318 1.8964961
5.6794968 2.9619234 1.9024866
5.7291336 3.2701678 1.8894664
5.6691113 3.5226135 1.8423221
6.4810381 3.075422 1.9153467
6.6114974 3.4457712 1.908713
6.7236395 3.831141 1.902629
5.6964126 3.5302138 1.5785125
0 0 0
0 0 0
6.0153065 3.4244728 1.4302806
6.0144243 3.7213397 1.3905376
0 0 0
0 0 0
6.9376178 3.9448903 1.3431133
0 0 0
1.2685111 0.60218579 0.21131094
1.2087533 0.62901098 0.19140707
6.5113807 3.6980114 0.9794609
0 0 0
1.2352772 0.58614492 0.15459837
1.2318112 0.64098245 0.14352262
6.5759907 3.731215 0.70938033
0 0 0
1.2783786 0.60635072 0.10792594
1.2367221 0.64304429 0.092852257
1.1758794 0.66681379 0.077351876
0.91261148 0.56202573 0.050956767
1.2821879 0.60766423 0.056021351
1.2126113 0.62975502 0.040887631
1.148314 0.65041423 0.027137261
1.1301433 0.69533849 0.014475037
1.2615776 0.59768069 0.0039714566
1.1716392 0.60793149 -0.0090079242
1.1277841 0.63818812 -0.02085425
1.1122099 0.68374288 -0.033480719
1.2223252 0.57830119 -0.045802999
1.1636968 0.6032691 -0.056748219
1.127616 0.6371839 -0.068467483
1.1012293 0.67662168 -0.080636993
1.1942155 0.56403297 -0.093233533
1.1843977 0.61321402 -0.10684061
1.183754 0.66866058 -0.12183902
1.1091925 0.68106121 -0.12927417
1.194968 0.56398034 -0.14219362
1.1927429 0.61687493 -0.15727013
1.2077739 0.68181157 -0.17555477
1.1248304 0.69028467 -0.18024337
1.2087095 0.56925392 -0.19357513
1.2258044 0.63310653 -0.21306258
2.1263337 1.1992799 -0.40138444
2.1370721 1.3110141 -0.43725327
1.223208 0.57493484 -0.24716055
1.3002689 0.67079014 -0.28185439
2.0760481 1.1692472 -0.48233494
2.1380188 1.3106706 -0.533961
1.2746532 0.59762198 -0.31220421
1.435824 0.73989636 -0.37406844
1.5177838 0.85461867 -0.42097947
2.1396523 1.3126997 -0.63374281
1.4275485 0.66766655 -0.41227159
1.6012866 0.82364082 -0.48933929
1.5658556 0.88114673 -0.50731248
2.1394727 1.3126923 -0.73685312
5.5749211 2.5993915 1.9003333
5.6830688 2.9195721 1.8976464
5.7641711 3.2434385 1.8944227
5.7160969 3.5033777 1.8505706
6.4997864 3.0355973 1.9153467
6.6635408 3.4210672 1.9176414
6.6039348 3.7094421 1.8622797
5.8400497 3.5698199 1.6122152
0 0 0
0 0 0
5.9986286 3.366411 1.4213767
5.8662825 3.5800915 1.3511828
0 0 0
1.2420008 0.63745248 0.2486213
6.9573917 3.8998365 1.3422835
5.9195962 3.609509 1.1001062
1.2238033 0.57178742 0.20327516
1.2689897 0.65049314 0.20030972
1.223385 0.6849041 0.18338951
5.9117365 3.5975018 0.83916491
1.2370498 0.57771343 0.15437366
1.2516544 0.64157933 0.1453732
6.6821799 3.7374527 0.71834803
5.9339733 3.6070614 0.58654457
1.2856891 0.60018247 0.10823017
1.2548538 0.64272159 0.093915708
1.203478 0.67273891 0.07889434
1.1806962 0.71716917 0.065678664
1.2877035 0.60063016 0.056100253
1.212893 0.62048173 0.040767986
1.1583939 0.6467678 0.027281171
1.1395177 0.69150352 0.014540487
1.2570643 0.58612531 0.0039458526
1.1717857 0.59891063 -0.0089806272
1.1500162 0.64148486 -0.021192165
1.1283517 0.68416184 -0.033839624
1.2466892 0.58049327 -0.046581618
1.165597 0.59520876 -0.056661714
1.1463354 0.6385138 -0.069364898
1.1062137 0.67036915 -0.080699258
1.2012721 0.55837661 -0.093515202
1.189914 0.60684091 -0.10700031
1.1852239 0.65993106 -0.12157126
1.1235647 0.68042821 -0.13046017
1.1975043 0.55621862 -0.14208663
1.1894256 0.60593802 -0.15633953
1.4347295 0.79836345 -0.20782772
1.1544738 0.69876111 -0.18430293
1.2166692 0.5639075 -0.19429208
1.206764 0.61392218 -0.20909438
1.9240818 1.0696989 -0.36195984
2.1509762 1.3014463 -0.43845594
1.2284983 0.56824446 -0.24752031
1.2921045 0.65657151 -0.27920607
1.5141855 0.8406055 -0.35059062
2.1393251 1.2934788 -0.53229499
1.2543613 0.57874638 -0.30635852
1.4316497 0.72666299 -0.37181228
1.5170498 0.84198773 -0.41933504
2.1435189 1.2970364 -0.63251889
1.4008592 0.64473802 -0.40341368
1.6200836 0.82077795 -0.49353516
1.588906 0.88132513 -0.51301873
2.1450243 1.2980497 -0.73600811
5.5699244 2.555573 1.8932493
5.6760702 2.8720951 1.8893895
5.7974153 3.2154698 1.8988284
5.8892756 3.5599933 1.8995289
0 0 0
6.6697102 3.3726842 1.9134252
6.8049788 3.767628 1.912418
5.8860178 3.5484927 1.6188638
0 0 0
0 0 0
7.0089417 3.877038 1.6551027
5.8990679 3.5506072 1.3536906
1.2981684 0.59699297 0.26921117
0 0 0
0 0 0
5.9187799 3.5593765 1.095875
0 0 0
1.2658851 0.63912398 0.19919689
1.2284327 0.67786378 0.18351921
5.9498715 3.5708666 0.84145212
1.2496002 0.57426143 0.15549719
1.2555674 0.63388729 0.1453732
1.2041075 0.66381043 0.12900372
5.9380469 3.5598238 0.58477718
1.2802868 0.5881201 0.1074696
1.2525378 0.63186401 0.093450442
1.2058343 0.66437829 0.078780085
1.1765057 0.70477796 0.065203764
1.2949972 0.59438497 0.056258064
1.2309598 0.62022412 0.041246556
1.1527056 0.63434559 0.027055027
1.1411651 0.68295807 0.014507762
1.2660904 0.58090311 0.0039629219
1.1897295 0.59890342 -0.0090898136
1.1583115 0.63682497 -0.021272622
1.1145109 0.66645145 -0.033301264
1.273851 0.58365667 -0.047461793
1.1683345 0.58759665 -0.05661846
1.1554838 0.63435143 -0.069681637
1.1103063 0.66356891 -0.080699258
1.2191898 0.55763376 -0.094641887
1.1855983 0.5955016 -0.10628166
1.1944898 0.65552127 -0.12210681
1.1234469 0.67097008 -0.12996601
1.2036074 0.55010033 -0.1424076
1.1957844 0.59996468 -0.15668851
1.9971747 1.0953447 -0.2883217
1.19277 0.71197742 -0.18971564
1.2038983 0.54903984 -0.19171107
1.2043231 0.60340708 -0.20802601
1.2919765 0.70793551 -0.24222593
2.1546915 1.2856997 -0.43759692
1.2319618 0.56069583 -0.24752031
1.2539589 0.62753731 -0.27012619
1.4746039 0.806835 -0.34027329
2.1447012 1.2788252 -0.53167027
1.2614447 0.57265311 -0.30722454
1.354169 0.67691869 -0.35060453
1.505985 0.82380033 -0.41487151
2.1414456 1.2778975 -0.62958145
1.402145 0.63493311 -0.40265444
1.6155909 0.80608273 -0.4906505
1.596817 0.872944 -0.51383388
2.158716 1.2883056 -0.73797977
5.6081419 2.5315692 1.9009237
5.6935863 2.8372133 1.8893895
5.8136616 3.1779926 1.8977269
5.9184599 3.5282328 1.9019235
0 0 0
6.6954818 3.3342874 1.9149133
6.827117 3.7253377 1.9121794
6.7970533 4.0410719 1.8625761
0 0 0
0 0 0
7.0282998 3.8316152 1.6540909
5.9671507 3.5418904 1.3643011
0 0 0
0 0 0
0 0 0
0 0 0
1.1568482 0.52330649 0.1910727
0 0 0
1.2534745 0.68168271 0.1866319
6.1151953 3.6192362 0.86167586
1.2512895 0.56576449 0.15527248
1.2514172 0.62218583 0.14444792
6.8780141 3.7369249 0.73441505
0 0 0
1.2838713 0.58025336 0.1074696
1.2617528 0.62683028 0.093849242
1.2291901 0.66744787 0.080036908
1.1747879 0.69398946 0.064871334
1.2958879 0.58519411 0.056139708
1.2436961 0.61710221 0.041545659
1.1706377 0.63488704 0.027383963
1.1582515 0.68356657 0.014671383
1.276011 0.57600367 0.0039828364
1.2175721 0.60358381 -0.0092740674
1.1560433 0.62637144 -0.021159982
1.124607 0.6631549 -0.033480719
1.2746749 0.5745973 -0.047360234
1.1799755 0.58440751 -0.057007741
1.161111 0.62819999 -0.069787212
1.1220956 0.66130447 -0.081259675
1.2244077 0.55096114 -0.094782725
1.1874429 0.58733189 -0.10612196
1.1949852 0.64628446 -0.12174977
1.1429769 0.673154 -0.13174501
1.2069602 0.54270476 -0.1424076
1.1967719 0.59129632 -0.15633953
1.4845656 0.80239612 -0.2136042
1.1808927 0.6950959 -0.18714459
1.2090504 0.54245281 -0.19199787
1.2026852 0.59338254 -0.20711027
1.2850087 0.69389969 -0.24011679
2.1548982 1.2679583 -0.43605062
1.2434593 0.55674398 -0.24913928
1.2137457 0.5981285 -0.26066798
1.4346665 0.77358282 -0.32995597
2.1466055 1.262171 -0.53021246
1.2524548 0.55932885 -0.30419344
1.3591712 0.66902715 -0.35083014
1.5058777 0.81177694 -0.41346201
2.1250131 1.2504736 -0.62248278
1.400712 0.62395579 -0.40113592
1.6334983 0.80253732 -0.49458408
1.6029905 0.86358619 -0.51410562
2.1508684 1.2657893 -0.73262799
5.6305552 2.5002127 1.9032851
5.7349849 2.8140485 1.8973618
5.8449011 3.1486437 1.9015819
5.9300251 3.4859891 1.8987305
0 0 0
6.7340813 3.302099 1.9201217
6.8464251 3.6815372 1.9112241
6.7763772 3.9727066 1.8501956
0 0 0
0 0 0
0 0 0
6.0023198 3.5131402 1.3673878
1.3897895 0.6185798 0.28661546
0 0 0
0 0 0
0 0 0
1.1970791 0.53268135 0.19717392
1.2816375 0.62746042 0.20044883
1.1850947 0.63510436 0.17586718
6.2281723 3.634685 0.87443608
1.237487 0.55040354 0.15313777
1.2578914 0.61580765 0.14475635
1.2349842 0.66120261 0.13143246
0 0 0
1.2965187 0.57641542 0.10823017
1.2628864 0.61776119 0.093649842
1.2332624 0.65989316 0.080036908
1.1781608 0.68626523 0.064823844
1.2967147 0.57601476 0.056021351
1.2600327 0.61560231 0.041964408
1.1824472 0.63193333 0.02756899
1.1460032 0.66689104 0.014464131
1.2987142 0.57668585 0.0040425789
1.2293404 0.60004926 -0.0093354844
1.1642751 0.62162089 -0.021240439
1.1364326 0.66076428 -0.033711445
1.2818311 0.56838572 -0.047495648
1.1835392 0.57715631 -0.057007741
1.1684685 0.62294292 -0.069998369
1.1313097 0.65741575 -0.081633285
1.2551301 0.55555022 -0.096895263
1.1910244 0.58003479 -0.10612196
1.1839856 0.63097668 -0.12023237
1.155691 0.67112535 -0.13273335
1.2139045 0.53689748 -0.14283557
1.1905529 0.57916266 -0.15505996
1.2092568 0.6440379 -0.17341998
1.1619984 0.6744085 -0.18349101
1.2132615 0.53542358 -0.19214125
1.2116371 0.58858275 -0.20802601
1.2631088 0.67209655 -0.23524956
2.1541166 1.2497685 -0.43433252
1.2531538 0.55187899 -0.25039846
1.2120923 0.58809805 -0.25953302
1.3407149 0.71234 -0.30733722
2.1433098 1.2425988 -0.52750522
1.2639078 0.55516702 -0.306142
1.2931155 0.62668514 -0.33278099
1.4490236 0.76969129 -0.39654765
1.5657294 0.90847296 -0.45700955
1.3894501 0.60874945 -0.39683354
1.6427354 0.79460025 -0.4958953
1.5997589 0.84922183 -0.51138836
2.166064 1.2569022 -0.73516309
5.633532 2.4602637 1.8991528
5.7668171 2.7858951 1.9022018
5.8717532 3.1167774 1.9040601
5.9462996 3.4466372 1.8971341
0 0 0
6.7463636 3.2569265 1.9178895
6.8851891 3.6480973 1.9157605
6.8073668 3.9349494 1.8520297
0 0 0
0 0 0
0 0 0
6.0237632 3.4762444 1.3673878
1.2063106 0.52807128 0.24810381
0 0 0
1.1193728 0.59182096 0.21309249
6.8928089 3.9742334 1.2624581
1.2329376 0.53959918 0.20253111
1.2105302 0.5834673 0.1887641
1.2529771 0.66161937 0.18533495
6.4964471 3.7379994 0.90886456
1.2444824 0.54439306 0.15358719
1.2401409 0.59771281 0.14228891
1.2381372 0.65314788 0.13133904
0 0 0
1.2835866 0.56125879 0.10686113
1.2639562 0.60870183 0.093450442
1.2364051 0.65184802 0.079979785
1.1693566 0.67156148 0.064111494
1.293815 0.56524718 0.055745192
1.2700915 0.61089206 0.042173781
1.1854178 0.62420028 0.02754843
1.1604815 0.66581821 0.014595027
1.3058938 0.57030708 0.0040539582
1.2293938 0.59076244 -0.0093081882
1.1742616 0.61772388 -0.021353077
1.135262 0.65079576 -0.033557627
1.2962878 0.56530398 -0.047901884
1.1924622 0.5724777 -0.05726726
1.1713847 0.6152972 -0.069945581
1.1344563 0.64996564 -0.081571013
1.2640029 0.55022722 -0.097317778
1.1900668 0.57056123 -0.1057227
1.1895986 0.62462604 -0.12041088
1.1822404 0.67687678 -0.13530302
1.228117 0.53419799 -0.14411949
1.1913968 0.57055968 -0.15471099
1.2044009 0.63199615 -0.17216422
2.1163778 1.2110188 -0.33301726
1.2192476 0.52915108 -0.19257142
1.2054185 0.57644725 -0.20634715
1.280318 0.671206 -0.23768318
2.1463525 1.2277232 -0.43123999
1.2637378 0.5473069 -0.25183755
1.2502342 0.59715503 -0.2669104
1.3190104 0.6904636 -0.30138493
2.1288159 1.2168049 -0.52209061
1.2619129 0.54507864 -0.30484298
1.2687995 0.60531545 -0.32556134
1.4252993 0.74591255 -0.38879523
1.5342436 0.87766534 -0.44623911
1.3816087 0.59523624 -0.39354345
1.6501938 0.78575021 -0.49668202
1.610909 0.84251195 -0.51329046
2.0812891 1.1906996 -0.70389748
5.6388645 2.4215035 1.8959057
5.7751455 2.7463412 1.8993547
5.8583951 3.063761 1.8935966
5.9631515 3.4076953 1.8958038
0 0 0
6.7110972 3.1892743 1.9022647
6.9108877 3.6075797 1.9167156
6.9184885 3.9427462 1.8756444
0 0 0
0 0 0
0 0 0
6.0313344 3.4314547 1.3643011
1.2113334 0.52143663 0.24847411
0 0 0
0 0 0
6.9136295 3.9299126 1.2618312
1.3052577 0.56173277 0.21384071
1.272242 0.60362029 0.19780585
1.2834027 0.667647 0.18922582
6.5529366 3.7171702 0.91355938
1.2487121 0.53713942 0.15369953
1.2500758 0.59307677 0.14300857
1.244772 0.64691591 0.13161929
1.2024701 0.68132776 0.1167366
1.2851743 0.55258459 0.10670902
1.2748802 0.60435414 0.093982168
1.2403815 0.64424932 0.079979785
1.16824 0.66142106 0.063826554
1.2990952 0.55808663 0.055824094
1.2828501 0.60736465 0.042472888
1.2060876 0.62566227 0.027939044
1.1636746 0.65819275 0.014584119
1.319476 0.56662399 0.0040852521
1.2501707 0.59133178 -0.009437847
1.1700401 0.60636657 -0.021208256
1.1531588 0.65168709 -0.033967804
1.3006505 0.5577333 -0.047935732
1.2176312 0.57539451 -0.058305334
1.1813463 0.61131072 -0.0703151
1.1453753 0.64691919 -0.082069159
1.2838621 0.54952645 -0.0985853
1.1935452 0.56324834 -0.1057227
1.1801389 0.61045092 -0.119072
1.1976371 0.67596853 -0.13658786
1.2194875 0.52156961 -0.14272858
1.1957737 0.56366217 -0.15482731
1.2029682 0.62186074 -0.17141077
2.1211796 1.1965498 -0.33261129
1.2279329 0.52399051 -0.19343175
1.1982026 0.5639894 -0.20451565
1.2370689 0.63888681 -0.22892216
2.1418316 1.207756 -0.42883465
1.281553 0.5457086 -0.25471568
1.2325474 0.57944602 -0.26237047
1.3197377 0.68056047 -0.30059129
1.498863 0.84457237 -0.36631724
1.2903947 0.54801083 -0.31090519
1.2839537 0.60290194 -0.32849434
1.4376248 0.7411617 -0.39090952
1.528621 0.86204338 -0.44305694
1.3834534 0.58599299 -0.39303732
1.6680911 0.78175271 -0.5006156
1.6203257 0.83481556 -0.51464909
1.5620292 0.88095534 -0.52644438
5.6580176 2.3887167 1.8973817
5.7884154 2.7092285 1.8982158
5.8779383 3.0281971 1.893872
5.9705105 3.3634717 1.8915465
0 0 0
0 0 0
6.9259839 3.5615547 1.9148055
6.9849806 3.9240575 1.8871077
0 0 0
0 0 0
0 0 0
6.0103412 3.3708634 1.3548481
1.3547851 0.5733602 0.27717271
0 0 0
1.2485065 0.640616 0.23616092
0 0 0
1.2968407 0.54870403 0.21190616
1.1835027 0.5526467 0.18347813
1.2504127 0.64076722 0.18377861
1.2208526 0.68266457 0.1696146
1.2556452 0.53101552 0.15414895
1.2545927 0.58581614 0.14311139
1.2611254 0.64561784 0.13292708
1.2396863 0.69240075 0.11993486
1.2848669 0.54313558 0.10640478
1.2821814 0.59820777 0.094248034
1.2478664 0.63844526 0.080208294
1.1801264 0.65862149 0.064253964
1.296972 0.54777241 0.055587381
1.2901767 0.60117042 0.042592525
1.2179165 0.62234437 0.02812407
1.1641979 0.6490925 0.014540487
1.3321404 0.56240654 0.0041137007
1.2628411 0.58786988 -0.0095060887
1.1603806 0.59235674 -0.020966889
1.1588824 0.64557219 -0.034019075
1.3058902 0.55051863 -0.048003443
1.2320095 0.57296801 -0.058824372
1.176178 0.59951568 -0.069787212
1.1554272 0.64327753 -0.082505032
1.2881291 0.54202533 -0.098655716
1.2024032 0.55843353 -0.10620181
1.1865246 0.60455471 -0.11933976
1.2121972 0.67441279 -0.13777386
1.2538272 0.52717954 -0.14636633
1.1947049 0.55422455 -0.1542457
1.2005727 0.61131662 -0.17053173
2.1293476 1.1839933 -0.3327466
1.2219988 0.51261783 -0.19199787
1.2159885 0.56327301 -0.20695764
1.2172194 0.61920446 -0.22454165
2.1371472 1.1878908 -0.42642933
1.2785255 0.5351761 -0.25345647
1.2476652 0.57723236 -0.26482961
1.3134024 0.6671235 -0.29821035
1.5023069 0.83440983 -0.36590075
1.2928319 0.53970671 -0.31068867
1.2902819 0.59623837 -0.32917118
1.4360788 0.72924596 -0.38926506
1.5304918 0.85076344 -0.44207782
1.3271835 0.55257887 -0.37608075
1.6982691 0.78322279 -0.50822055
1.622843 0.82355118 -0.51383388
1.568244 0.87182057 -0.52672607
5.6990423 2.3649406 1.9062368
5.7997055 2.6712542 1.8965075
5.9375577 3.0129547 1.9070889
6.0087333 3.3366013 1.8971341
0 0 0
0 0 0
6.928648 3.5093372 1.9095529
7.0029664 3.8778241 1.8855028
0 0 0
0 0 0
0 0 0
6.9969907 3.8679755 1.5718787
1.3519263 0.5623945 0.27587664
1.2852196 0.59135407 0.25195262
1.2568144 0.63516724 0.23699072
1.1481189 0.63411111 0.20811126
1.2691394 0.52782565 0.20684662
1.3002495 0.59747237 0.20100524
1.1516383 0.58125669 0.16873394
1.2337127 0.67995244 0.17081839
1.2533745 0.52101254 0.15347484
1.2437019 0.57146215 0.14146642
1.257951 0.63428152 0.13217977
1.2308177 0.67757291 0.11867239
1.2973832 0.53906745 0.10716536
1.2912685 0.59282702 0.094646819
1.2642423 0.6370663 0.081008092
1.195523 0.65762651 0.064871334
1.2966173 0.53827161 0.055429578
1.2992928 0.5957424 0.042771991
1.2270706 0.61755645 0.028247422
1.1690351 0.64241844 0.014551396
1.3364898 0.55460536 0.0041165454
1.2591515 0.57677865 -0.0094514964
1.1934729 0.60004717 -0.0214979
1.1654506 0.63989264 -0.034095984
1.3129367 0.54402578 -0.048138849
1.2545795 0.57412821 -0.05973269
1.1834043 0.59407961 -0.069998369
1.1646025 0.63905668 -0.082878642
1.2969614 0.53639877 -0.099078223
1.2103401 0.5531168 -0.10660106
1.1848706 0.59458268 -0.11880422
1.2206751 0.66935444 -0.13826802
1.2653084 0.52289391 -0.14732927
1.1962759 0.54605871 -0.15401305
1.1972066 0.60038072 -0.16952713
1.7142973 0.93948632 -0.26698214
1.2232912 0.50435567 -0.19171107
1.2095298 0.55129254 -0.20527877
1.2209959 0.61172408 -0.22454165
1.5638019 0.85669088 -0.31097385
1.2927018 0.53181219 -0.25561512
1.2476087 0.56793863 -0.26407295
1.3130883 0.65685964 -0.29721829
1.458496 0.79840606 -0.35403031
1.2906998 0.52954042 -0.30938962
1.2912555 0.58710045 -0.32849434
1.4222697 0.71129036 -0.3843317
1.5212276 0.83343673 -0.43791649
1.3484569 0.55175239 -0.38114241
1.7083156 0.77518022 -0.509794
1.6338917 0.81658983 -0.51573598
1.5727223 0.8617205 -0.52644438
5.7161002 2.3310101 1.9071224
5.7932854 2.62533 1.8891048
5.948194 2.9725981 1.9046108
6.0231738 3.2964301 1.8952715
0 0 0
0 0 0
6.943099 3.4632902 1.9076428
7.0069771 3.8240571 1.8802297
0 0 0
0 0 0
0 0 0
0 0 0
1.2825811 0.5243389 0.26106447
1.2959989 0.58670521 0.25335526
1.2527424 0.62348908 0.23549707
0 0 0
1.2961535 0.52975553 0.21071568
1.2389221 0.56011081 0.19098975
1.2493026 0.62096113 0.18248166
1.2605425 0.6846894 0.17394826
1.2593074 0.51443952 0.15381189
1.2553425 0.56750798 0.14239173
1.2707367 0.63097882 0.13311389
1.2524691 0.67951167 0.12035569
1.2942046 0.52845818 0.10663296
1.2839698 0.57996392 0.093849242
1.2681274 0.62929702 0.081008092
1.2285142 0.66598803 0.066438504
1.2989705 0.52992815 0.055390123
1.3020126 0.58734781 0.042742077
1.2496487 0.61933905 0.028679151
1.1650413 0.63094759 0.014453222
1.3380158 0.54563916 0.004110856
1.2790769 0.57643729 -0.0095743313
1.2141572 0.60114211 -0.021803632
1.161442 0.62844789 -0.033865262
1.3273576 0.5404824 -0.048545085
1.2690107 0.57134122 -0.060251728
1.1879224 0.5872497 -0.070051156
1.1720133 0.63379776 -0.083127707
1.3030007 0.52955735 -0.099289484
1.2128021 0.54527116 -0.10652121
1.1804601 0.58332998 -0.11800087
1.2177556 0.65806723 -0.13747735
1.2878382 0.52297616 -0.14957613
1.1977918 0.53789443 -0.1537804
1.1955308 0.59038788 -0.16877368
1.2954708 0.69965512 -0.20108233
1.2346181 0.50018471 -0.19300158
1.215595 0.54507369 -0.20573665
1.2273811 0.60553038 -0.22502838
1.3141701 0.70948756 -0.26046208
1.2895566 0.52128965 -0.25435591
1.2609279 0.56468755 -0.26615375
1.3030263 0.64186066 -0.29404375
1.4728364 0.79455 -0.3563211
1.2975467 0.52307099 -0.31025565
1.2752688 0.5704152 -0.32353082
1.4004471 0.68966717 -0.37728408
1.5194876 0.82040185 -0.43595827
1.3886194 0.55826366 -0.3915188
1.6989408 0.75838989 -0.50559819
1.6405983 0.80739892 -0.51627946
1.580513 0.85342193 -0.52728939
5.7276344 2.2948267 1.9062368
5.8364272 2.6018333 1.8979311
5.9516578 2.9288287 1.8999298
6.0432873 3.2594106 1.8952715
0 0 0
0 0 0
6.9589887 3.4180543 1.9062103
7.0148792 3.7726924 1.876103
0 0 0
0 0 0
0 0 0
0 0 0
1.2903337 0.5182907 0.26199022
1.2905809 0.57473689 0.25160193
1.260972 0.61796045 0.23632686
0 0 0
1.291121 0.51847607 0.20937639
1.3065788 0.58106893 0.20086615
1.2806982 0.62679619 0.18650222
1.2533419 0.67085183 0.17238332
1.2652067 0.50781327 0.15414895
1.2560743 0.55858207 0.14208329
1.2701122 0.6209833 0.13264683
1.2469485 0.66664606 0.11942987
1.2974228 0.52050716 0.10663296
1.3011817 0.578152 0.094846219
1.2755529 0.62325728 0.081236608
1.2316965 0.65796685 0.066391014
1.3031251 0.52231961 0.055429578
1.3055919 0.57934779 0.042742077
1.2687 0.61911362 0.029028647
1.1724197 0.62567031 0.014496855
1.3357689 0.53518748 0.0040937862
1.2963024 0.57465702 -0.0096766939
1.2357982 0.60244375 -0.022125458
1.1740974 0.62601292 -0.034121621
1.3287932 0.53158528 -0.048477381
1.2752329 0.56475765 -0.060381487
1.1950949 0.58169788 -0.070262313
1.1785226 0.62800258 -0.083314516
1.3080783 0.52229214 -0.099430315
1.2452973 0.55072045 -0.10907644
1.1920778 0.57999772 -0.11880422
1.2103521 0.64450258 -0.13619252
1.2965637 0.5172748 -0.15021808
1.2065209 0.53294271 -0.15447834
1.1928853 0.58000439 -0.16789465
1.3058621 0.69495142 -0.20202956
1.2339858 0.4911359 -0.19242802
1.2315761 0.54318815 -0.20787339
1.2230852 0.59410769 -0.2235682
1.2819704 0.6819784 -0.2532461
1.2835885 0.50973666 -0.25255707
1.2571801 0.55377328 -0.26464045
1.2734289 0.61760074 -0.28650418
1.4379566 0.76437992 -0.34674147
1.3079934 0.51797521 -0.31198773
1.2965795 0.57042593 -0.32804313
1.3871599 0.67257977 -0.37258565
1.4748462 0.78464991 -0.42176083
1.3875196 0.54795599 -0.39025339
2.068485 0.90817094 -0.61390316
1.650718 0.79983509 -0.51790982
1.5984259 0.85046846 -0.53151447
5.721159 2.2515917 1.8994479
5.8751078 2.5759811 1.9053338
5.9686518 2.8918357 1.8996544
6.083602 3.2331254 1.9016575
0 0 0
0 0 0
6.9658432 3.3685265 1.9023904
6.9794116 3.6985865 1.8605127
0 0 0
0 0 0
0 0 0
0 0 0
0 0 0
1.1876707 0.5201987 0.23091273
1.2656282 0.61064017 0.23649283
1.2119876 0.64056045 0.21751386
1.3053166 0.51489842 0.21116212
1.2919737 0.56510413 0.19808406
1.2666546 0.61031801 0.18390831
1.2135298 0.63999426 0.16636436
1.2682987 0.50004053 0.15414895
1.2530986 0.54807425 0.14136362
1.2747957 0.61361021 0.13274024
1.2660031 0.66687721 0.12086068
1.2987368 0.51180536 0.10648084
1.2855043 0.56176662 0.093450442
1.2784535 0.61498612 0.081179485
1.2401301 0.65272307 0.066628464
1.3016567 0.51248366 0.05523232
1.2990451 0.56692803 0.042413067
1.2787833 0.61434793 0.029172555
1.1868572 0.62404901 0.014627752
1.3390276 0.52698123 0.0040937862
1.302554 0.56789118 -0.0096971672
1.252993 0.60133892 -0.022366827
1.1752615 0.61740226 -0.034044713
1.3450526 0.52853918 -0.048951324
1.2850859 0.55971497 -0.060684264
1.19594 0.57305938 -0.070103951
1.1867721 0.62307924 -0.083625853
1.3140444 0.51534867 -0.099641569
1.2568799 0.54664719 -0.1097951
1.1875296 0.56879997 -0.11800087
1.1940165 0.62643075 -0.13391934
1.3108219 0.51366258 -0.15150198
1.2152342 0.52790397 -0.1551763
1.1955268 0.57224578 -0.16776907
1.2083122 0.6335544 -0.18633269
1.2655501 0.49472511 -0.19687308
1.2385124 0.53719413 -0.20848387
1.2186958 0.58276063 -0.22210804
1.2817681 0.67181289 -0.25238708
1.2848592 0.50113618 -0.2521973
1.2650595 0.54800051 -0.26558626
1.2798477 0.61104226 -0.28709939
1.3603079 0.71243334 -0.3269574
1.3238853 0.51489401 -0.3150188
1.306314 0.56516737 -0.32962242
1.3474 0.64312071 -0.36083955
1.4538704 0.76208156 -0.41441736
1.3836398 0.53663337 -0.38822871
2.3300591 1.006008 -0.68969047
1.6651493 0.79424888 -0.52089876
1.6078632 0.8428722 -0.5329228
5.7419963 2.2192004 1.9018092
5.8846416 2.5372269 1.9033407
5.9784741 2.8514338 1.8971763
6.1460242 3.2180936 1.9149613
0 0 0
0 0 0
6.9741058 3.3198781 1.8990479
6.9795403 3.6439795 1.8545518
1.9333228 0.74863726 0.47083122
0 0 0
0 0 0
0 0 0
0 0 0
1.2514222 0.53899443 0.24266
1.2337204 0.58594048 0.22985445
1.2982398 0.67598826 0.23224464
1.3195165 0.51116598 0.21294785
1.2681258 0.54542804 0.19391094
1.2945647 0.61400723 0.18741009
1.2147911 0.631163 0.16600321
1.2667099 0.49045506 0.15358719
1.256438 0.54037505 0.14136362
1.2659402 0.59980839 0.13143246
1.2621111 0.6549657 0.12010319
1.290694 0.49950826 0.10556815
1.2907606 0.55465627 0.093583383
1.2849097 0.60841185 0.081350863
1.2467719 0.64648086 0.066770934
1.3113006 0.50700963 0.055508479
1.307092 0.5609175 0.042562619
1.2897594 0.60990918 0.029337024
1.2093097 0.62641323 0.014856822
1.334774 0.51587129 0.0040710275
1.3142856 0.56343424 -0.0097585842
1.2557551 0.59321231 -0.022350734
1.1816912 0.61155778 -0.034121621
1.3398786 0.51703793 -0.048646644
1.285741 0.55063933 -0.060554504
1.2220135 0.57636011 -0.071423672
1.1896864 0.61532706 -0.083563581
1.3255595 0.51050264 -0.10027533
1.2739582 0.54480398 -0.11099287
1.1937001 0.56277698 -0.11826865
1.1907656 0.61543751 -0.13312869
1.3158048 0.50632405 -0.15171598
1.2284975 0.52472895 -0.15645584
1.1990156 0.56489938 -0.16776907
1.2112964 0.62567371 -0.18619737
1.2787251 0.49085182 -0.19845037
1.2308766 0.52493238 -0.2066524
1.2258197 0.57695276 -0.222757
1.2876167 0.66483939 -0.25273067
1.2851541 0.49218759 -0.25165763
1.2801425 0.54523009 -0.2680454
1.2649448 0.59442401 -0.28293279
1.3333623 0.68792886 -0.3194603
1.3215476 0.50467139 -0.31371978
1.2900345 0.54875177 -0.3246589
1.3363647 0.62781489 -0.35684589
1.4499041 0.74869788 -0.41196951
1.3688244 0.52124774 -0.38316709
2.6888371 1.1413885 -0.79379964
1.6734761 0.7856527 -0.52198571
1.6164149 0.83475178 -0.53404951
5.7403188 2.178164 1.8967912
5.8921552 2.4977043 1.9007782
5.9784532 2.8065264 1.8916693
6.1493769 3.1719255 1.9099059
0 0 0
0 0 0
0 0 0
7.1584396 3.6816633 1.8960493
1.9898362 0.75651371 0.48345461
1.195031 0.50640541 0.28113773
0 0 0
0 0 0
1.9517788 0.74255162 0.3934482
1.2664913 0.53629631 0.24493933
1.2676663 0.59255749 0.23549707
1.2821511 0.65764248 0.2286403
1.3069155 0.49708369 0.21041806
1.3015474 0.55036408 0.19850136
1.2381095 0.57795167 0.17872047
1.2531058 0.64133632 0.17069802
1.2734107 0.4840858 0.1540366
1.2661432 0.53536725 0.14208329
1.2677921 0.59118789 0.13124563
1.2749785 0.65174466 0.12094484
1.3011913 0.49441263 0.10617661
1.2923013 0.54594922 0.093450442
1.2877139 0.60009468 0.081293739
1.2613899 0.6442709 0.067340814
1.3181236 0.50037253 0.055666283
1.3003786 0.54861283 0.042233601
1.2898518 0.6002965 0.02925479
1.2371794 0.63125181 0.01515134
1.3369792 0.50731677 0.0040681828
1.3250899 0.55846626 -0.0098131774
1.2693448 0.59013277 -0.022527739
1.1818588 0.60247946 -0.034019075
1.3458296 0.5098691 -0.048748203
1.2881745 0.54235214 -0.06051125
1.2490773 0.57978249 -0.072796196
1.1943289 0.60846877 -0.083625853
1.3314661 0.50341791 -0.10048658
1.2864661 0.54084003 -0.11179138
1.1998411 0.55669957 -0.11853644
1.1909722 0.60631365 -0.13273335
1.3253976 0.50070041 -0.15246493
1.239936 0.52064186 -0.15750277
1.1961589 0.55461055 -0.16689005
1.2071651 0.61418593 -0.18497951
1.283565 0.48369443 -0.19873714
1.2276943 0.51469529 -0.20558403
1.2311275 0.57024986 -0.2230815
1.2635729 0.64263546 -0.24723278
1.260527 0.47390765 -0.24626113
1.2934273 0.54153651 -0.27012619
1.271237 0.58788544 -0.283528
1.3175036 0.66954297 -0.31467047
1.3538724 0.50751901 -0.32064801
1.2924786 0.5404501 -0.3244333
1.310194 0.60573459 -0.34885854
1.4423717 0.7336334 -0.40854254
1.4580865 0.54501843 -0.40720993
2.6646194 1.1118623 -0.78462124
1.6808861 0.77658057 -0.52280086
1.6317691 0.83003825 -0.53742957
5.7455177 2.1399 1.8941346
5.8940969 2.4559731 1.8965075
5.985961 2.7653556 1.8886403
6.1644268 3.1319509 1.9085754
0 0 0
0 0 0
0 0 0
7.1374798 3.6156774 1.8845859
2.0200222 0.75383663 0.48965561
0 0 0
0 0 0
0 0 0
2.0253441 0.75634629 0.40733463
1.2324924 0.513004 0.23775069
0 0 0
1.2412038 0.62705022 0.22064808
1.3312483 0.49701017 0.21384071
1.2637503 0.5252642 0.1922417
1.3002 0.59724694 0.1871507
1.2162397 0.6130802 0.16516057
1.2651855 0.4720946 0.15268835
1.2648116 0.52567947 0.14156924
1.2659662 0.58090633 0.13068515
1.2816236 0.6452536 0.12119734
1.2845814 0.47910219 0.1045794
1.2974699 0.53877485 0.093583383
1.2850192 0.58926898 0.080893829
1.2581807 0.63292795 0.066960894
1.3174237 0.49087974 0.055508479
1.2981803 0.53832626 0.042054139
1.3062369 0.59819877 0.029542608
1.2285209 0.61736286 0.014998627
1.3344442 0.49700952 0.004051113
1.3349586 0.55300403 -0.0098609468
1.273851 0.58274901 -0.022543829
1.1926805 0.59880471 -0.034224164
1.3545533 0.50369167 -0.048951324
1.3025558 0.53902197 -0.061030287
1.2607864 0.57584125 -0.073271289
1.1962558 0.60023385 -0.083501317
1.3289188 0.49315643 -0.10006408
1.298973 0.53674293 -0.11258989
1.2086707 0.55180895 -0.119072
1.1884432 0.59587246 -0.13204151
1.3312416 0.49359551 -0.15278591
1.2458615 0.51416063 -0.15785174
1.1995394 0.54726064 -0.16689005
1.2126825 0.60765505 -0.18525015
1.2892935 0.47683942 -0.19916731
1.2125541 0.49962246 -0.20253155
1.2381949 0.56432194 -0.22373044
1.2208091 0.61148727 -0.23812693
1.263411 0.46616429 -0.24626113
1.2930934 0.53209531 -0.26936954
1.2587624 0.57276744 -0.27995661
1.3189632 0.66013306 -0.3140457
1.3432174 0.4941462 -0.3174004
1.302078 0.53510159 -0.32601258
1.3085775 0.59526914 -0.34744903
1.431242 0.7169528 -0.40413645
1.4078155 0.51640481 -0.39227805
2.800854 1.1485819 -0.82264596
1.6952566 0.77063304 -0.52578986
1.6368314 0.8200103 -0.53742957
5.75495 2.1032939 1.892954
5.9063945 2.4186716 1.8956534
6.0063171 2.7301657 1.8897418
6.1757698 3.0901856 1.9061809
0 0 0
0 0 0
0 0 0
0 0 0
2.0438392 0.74846989 0.49430633
0 0 0
0 0 0
1.3051963 0.64998263 0.28667298
1.9791983 0.72530723 0.39715129
1.2529303 0.51251394 0.24108201
1.2775377 0.57817644 0.23599495
0 0 0
1.3649138 0.50005823 0.21875145
1.2752002 0.52087021 0.19349362
1.3201042 0.59660822 0.18948522
1.2608817 0.62591052 0.17069802
1.2839206 0.47013095 0.15459837
1.2689341 0.51828492 0.14167204
1.2704142 0.57353729 0.13077857
1.2793095 0.63427919 0.12060818
1.2912424 0.47258192 0.10488363
1.2933607 0.52778769 0.093051657
1.3004411 0.58671063 0.081636503
1.2629356 0.62563938 0.067008384
1.3204108 0.48278695 0.055508479
1.2986822 0.52921909 0.041964408
1.3089712 0.58976191 0.029522052
1.2484174 0.61779612 0.015194971
1.3337117 0.4874391 0.0040397337
1.3420314 0.5463106 -0.0098882439
1.2801381 0.57615292 -0.022592103
1.22232 0.60432386 -0.034967612
1.3585572 0.49571332 -0.048985172
1.3234227 0.53817004 -0.061852098
1.2743156 0.57259655 -0.073851973
1.1990215 0.59244037 -0.083439052
1.3394182 0.48772347 -0.10062742
1.310554 0.53213751 -0.11330854
1.2174852 0.54683077 -0.11960755
1.1876156 0.58636636 -0.13154735
1.3473259 0.49017686 -0.15428381
1.2637193 0.51247853 -0.15971293
1.2110206 0.5435462 -0.16802022
1.2039489 0.59406477 -0.18335569
1.3005679 0.47195786 -0.20045781
1.2320858 0.498849 -0.20527877
1.2380327 0.55509913 -0.2230815
1.2263051 0.60485655 -0.23847054
1.2699473 0.45974272 -0.24698067
1.2981547 0.52488726 -0.26974788
1.271199 0.56903756 -0.28194073
1.3107065 0.64597434 -0.31113017
1.3269398 0.47893476 -0.31285375
1.318887 0.53257376 -0.32939678
1.3113182 0.58683157 -0.3472141
1.4269187 0.70386809 -0.40168864
1.4537414 0.52315342 -0.40417296
1.6532028 0.66612971 -0.48435676
1.6990747 0.7598238 -0.52551812
1.6461346 0.81207395 -0.53883791
5.7731438 2.0698774 1.894725
5.9024477 2.3748708 1.8896742
6.0457735 2.7034636 1.8969009
6.1998024 3.05479 1.9077773
0 0 0
1.8785576 0.75527287 0.51834852
0 0 0
0 0 0
2.0410514 0.73327738 0.49253464
1.8814842 0.7567547 0.43927768
0 0 0
0 0 0
1.9891599 0.71514422 0.39826217
0 0 0
1.2234045 0.54465801 0.22537352
1.2523528 0.61350948 0.22127491
1.4451948 0.51943505 0.23110273
1.3077812 0.52483833 0.19794495
1.3083373 0.5816493 0.1872804
1.2887794 0.62993246 0.17394826
1.2690132 0.45586142 0.15246366
1.2767061 0.51234138 0.14218609
1.2693598 0.56371087 0.1303115
1.280491 0.6251061 0.12035569
1.3016254 0.46734568 0.10549209
1.298427 0.52058446 0.093184583
1.2967165 0.57548046 0.081179485
1.2793195 0.62400901 0.067673244
1.3214673 0.47400123 0.055429578
1.301905 0.52124053 0.041964408
1.3107371 0.58090889 0.029480932
1.2539825 0.61100036 0.015216788
1.3319709 0.47755894 0.0040255096
1.3425728 0.53695172 -0.0098677715
1.2955348 0.57354921 -0.022801289
1.2224096 0.59506226 -0.034865066
1.369101 0.49006256 -0.049255997
1.3220611 0.52818626 -0.061635833
1.2814585 0.56638151 -0.074063137
1.2035315 0.58550876 -0.083501317
1.3405068 0.47882468 -0.10048658
1.3082395 0.52187008 -0.11282944
1.226284 0.54176509 -0.1201431
1.1911912 0.57906824 -0.13154735
1.354054 0.48323736 -0.15471178
1.2945206 0.5157429 -0.16320266
1.2116102 0.53490329 -0.1676435
1.2155921 0.590563 -0.18457356
1.321154 0.47027454 -0.20318221
1.2443066 0.49493232 -0.20680501
1.243221 0.54828858 -0.22340597
1.2246765 0.59473866 -0.23743971
1.294992 0.45984176 -0.25129789
1.3095642 0.52017444 -0.27145034
1.2683874 0.55846226 -0.28055185
1.2838472 0.62297529 -0.30384132
1.3151284 0.46557096 -0.30938962
1.3185078 0.52303433 -0.32849434
1.3282388 0.58464831 -0.35073793
1.4190006 0.68916929 -0.3982617
1.3958007 0.49265 -0.38721642
1.5298464 0.60554111 -0.4471187
2.0252416 0.89081389 -0.6246981
1.6554018 0.80405426 -0.54024625
0 0 0
5.9516773 2.3523512 1.9007782
6.0719275 2.6705737 1.8999298
6.2114911 3.0133252 1.9056486
6.7195554 2.3675156 1.9021909
0 0 0
0 0 0
0 0 0
2.0473516 0.72138798 0.49297753
1.9742613 0.78003162 0.45981261
0 0 0
0 0 0
2.0037053 0.7065202 0.40029886
0 0 0
1.30441 0.5711574 0.23964608
1.2667687 0.61096215 0.22315544
1.9137307 0.67460686 0.30535915
1.3118982 0.51716721 0.19808406
1.305522 0.57082987 0.18637252
1.2979876 0.62459558 0.17467053
1.2895932 0.45433986 0.15459837
1.2890797 0.50814587 0.14321418
1.2691451 0.55431759 0.12993784
1.2869967 0.6185323 0.12060818
1.2931825 0.45537609 0.1045794
1.3025253 0.51297331 0.09325105
1.3038831 0.56911057 0.081407994
1.2885269 0.61874181 0.067958184
1.3234081 0.46555233 0.055390123
1.3032182 0.51251072 0.041904587
1.3124439 0.57205647 0.029439816
1.2721332 0.61021405 0.015391317
1.3254423 0.46605998 0.0039970605
1.3449115 0.52833813 -0.0098609468
1.3036134 0.56758493 -0.022881746
1.2476739 0.59791905 -0.035480332
1.3824553 0.48529407 -0.049628381
1.3457375 0.52809334 -0.062587403
1.2913204 0.5612945 -0.074432656
1.1981 0.57380199 -0.082878642
1.3584825 0.47586688 -0.10161328
1.3151293 0.51528764 -0.11314884
1.2542498 0.54494691 -0.1225531
1.192029 0.57045966 -0.13125084
1.3588705 0.47557682 -0.15492578
1.3078347 0.51177138 -0.16448221
1.2194196 0.52943438 -0.16827138
1.2093606 0.57839078 -0.18308505
1.3286866 0.46379 -0.20389915
1.2427173 0.48548996 -0.20604189
1.2492777 0.54182786 -0.2238927
1.2300802 0.58806276 -0.23778331
1.2866414 0.44800556 -0.24913928
1.3035834 0.50856048 -0.2695587
1.2762873 0.55261624 -0.28154391
1.272642 0.6079191 -0.30030099
1.3216497 0.45877331 -0.31025565
1.3253232 0.5163489 -0.32939678
1.3103925 0.56722039 -0.34509981
1.4179541 0.67794013 -0.39679298
1.4490808 0.50147766 -0.40113592
1.5578178 0.60558313 -0.45419919
2.156096 0.93262398 -0.66328323
1.668095 0.79760695 -0.54278129
0 0 0
5.9445519 2.3074632 1.8939451
6.0784941 2.6290689 1.8969009
6.2263846 2.9734938 1.9045843
6.7293897 2.3246632 1.9009011
0 0 0
0 0 0
0 0 0
2.0167143 0.69671202 0.48456195
1.9999667 0.77603465 0.46468171
1.1762577 0.50717145 0.26468691
0 0 0
1.9829257 0.6855427 0.39529973
1.271331 0.49292377 0.24283534
1.2924923 0.55651313 0.23682475
1.2374823 0.58750552 0.21735716
1.9654996 0.67932612 0.31294852
1.3224347 0.51196802 0.19919689
