# .PCD v0.7 - Point Cloud Data file format
VERSION 0.7
FIELDS x y z
SIZE 4 4 4
TYPE F F F
COUNT 1 1 1
WIDTH 1514
HEIGHT 1
VIEWPOINT 0 0 0 1 0 0 0
POINTS 1514
DATA ascii
0.16891277 -1.1095805 -0.21621445
0.20138657 -1.060153 -0.2184495
0.19072241 -0.83429337 -0.18222149
0.13091876 -1.1514266 -0.25699472
0.1489574 -0.98148781 -0.22990091
0.18383808 -0.96832609 -0.23821048
0.19389868 -0.84682685 -0.21932542
0.12800807 -1.1353588 -0.29889059
0.14393729 -0.95323187 -0.26197749
0.17441449 -0.92000377 -0.26438943
0.18099098 -0.79032737 -0.23801257
0.13706738 -1.2287222 0.38195577
0.18302578 -1.2162038 0.36529338
0.23221037 -1.2250488 0.35713172
0.26476181 -1.1586879 0.32807383
0.13863084 -1.2356905 0.33199346
0.18593623 -1.2377456 0.32043362
0.22606787 -1.1975546 0.29963604
0.29939157 -1.3174376 0.31822446
0.14168563 -1.2627207 0.28856683
0.18354264 -1.2206517 0.2673772
0.22498223 -1.1943192 0.25112879
0.34312358 -1.514891 0.30538583
0.14449744 -1.2851484 0.24366018
0.18646787 -1.2423177 0.2237241
0.22776122 -1.2124444 0.20761581
0.28989935 -1.2821909 0.20858139
0.14065284 -1.2519387 0.1895846
0.1819471 -1.2163926 0.17276715
0.23020054 -1.2289758 0.1635461
0.27214476 -1.208665 0.15023351
0.14189173 -1.2649559 0.14392479
0.18229707 -1.2188778 0.12738147
0.22552937 -1.2067144 0.11517855
0 -0 0
0.14007398 -1.250524 0.095984876
0.1833625 -1.2286398 0.082749501
0.22695328 -1.2159784 0.07078211
0.27523607 -1.2270906 0.059789903
0.1436381 -1.285995 0.051089894
0.18117341 -1.2180487 0.036849719
0.22373311 -1.2020984 0.025143083
0.26846281 -1.1992452 0.013406046
0.14456752 -1.2959563 0.0037097272
0.18799469 -1.2671001 -0.0087417802
0.22399907 -1.2062188 -0.019743955
0.27689007 -1.2390206 -0.032557823
0.14149114 -1.2744344 -0.043433297
0.18092369 -1.2225274 -0.053504232
0.22588739 -1.2205402 -0.065616868
0.24113445 -1.0802623 -0.069055155
0.14092426 -1.2770506 -0.090698481
0.1810395 -1.2277485 -0.099414468
0.21985674 -1.1889983 -0.10836087
0 -0 -0
0.14043488 -1.2758839 -0.13812788
0.18360865 -1.2489475 -0.14784786
0.21958108 -1.1892489 -0.15307672
0 -0 -0
0.13852933 -1.2681361 -0.1848284
0.17369831 -1.1861383 -0.18513246
0.20704027 -1.1237444 -0.18787518
0 -0 -0
0.13354234 -1.2312422 -0.2264739
0.15969038 -1.0940779 -0.21299867
0.18000974 -0.9803924 -0.20178306
0.19302368 -0.86886579 -0.18951035
0.13042468 -1.2133615 -0.27063471
0.15134832 -1.0402273 -0.24343775
0.18105094 -0.9866448 -0.24243908
0.18975201 -0.85273278 -0.22054933
0.12144918 -1.1399708 -0.29990289
0 -0 -0
0.1699803 -0.92768294 -0.2662915
0.17634666 -0.79235959 -0.23829423
0.12902501 -1.2247893 0.3804799
0.17542301 -1.2163551 0.36500865
0.21931887 -1.1971368 0.3485958
0.24949782 -1.1235905 0.31769678
0.13165711 -1.2422825 0.33354121
0.17695774 -1.2292745 0.3179535
0.22080685 -1.2103828 0.30250108
0.26611763 -1.2051936 0.29071227
0.1335239 -1.2596873 0.28768095
0.1777221 -1.2333632 0.26991764
0.2174744 -1.1947137 0.25092641
0 -0 0
0.13380642 -1.259626 0.23866105
0.17912197 -1.2453876 0.22407478
0.22401589 -1.2341951 0.21110097
0.26571092 -1.2096677 0.1965147
0.13432525 -1.2655617 0.19151913
0.17518245 -1.2223874 0.17346266
0.22124279 -1.2225595 0.16250853
0.25539023 -1.1676409 0.14493683
0.13590743 -1.2826011 0.1458348
0 -0 0
0.22024369 -1.2198329 0.1162995
0 -0 0
0.13732912 -1.2979636 0.099559583
0 -0 0
0 -0 0
0 -0 0
0.13847007 -1.3126886 0.052115638
0 -0 0
0 -0 0
0 -0 0
0.14101307 -1.3385876 0.0038292126
0 -0 -0
0 -0 -0
0 -0 -0
0.13814862 -1.3180197 -0.044888973
0 -0 -0
0 -0 -0
0 -0 -0
0.13556562 -1.3017029 -0.092388511
0 -0 -0
0 -0 -0
0 -0 -0
0.13568498 -1.3063899 -0.14133768
0 -0 -0
0 -0 -0
0 -0 -0
0.13267279 -1.2876669 -0.18755281
0 -0 -0
0.19253653 -1.0822477 -0.18073657
0 -0 -0
0.12698576 -1.2418242 -0.22827274
0.16031048 -1.1475524 -0.22321352
0.19931097 -1.1243092 -0.23114775
0.1905763 -0.88341892 -0.19242589
0.12327232 -1.2170529 -0.27128425
0.138514 -0.99482071 -0.23260827
0.17584144 -0.99252272 -0.24361369
0 -0 -0
0.11561117 -1.1522459 -0.30293989
0 -0 -0
0.16411732 -0.92776078 -0.26601976
0.17938671 -0.83000314 -0.24927944
0.12150742 -1.2255578 0.3804799
0.1680873 -1.2183582 0.36529338
0.21330871 -1.2060331 0.35079864
0.26555842 -1.2315797 0.34776357
0.1257588 -1.2603719 0.33818448
0.16795811 -1.2197803 0.31522533
0.21287069 -1.2088457 0.30178481
0.26116616 -1.2182248 0.2934635
0.12579209 -1.2604829 0.28768095
0.16761538 -1.2160349 0.26589531
0.21386798 -1.2172455 0.25537834
0.25480929 -1.1927363 0.23979443
0.12607498 -1.2604234 0.23866105
0.17228208 -1.252315 0.22512676
0.21218489 -1.2112628 0.20695198
0.25642982 -1.2025819 0.19510429
0.12636071 -1.2643942 0.19122152
0.16727532 -1.2204959 0.17304535
0.21424888 -1.2268243 0.16289762
0.25894141 -1.2196823 0.15119654
0.12675266 -1.270557 0.14437421
0.16867633 -1.2308779 0.12840956
0.20984972 -1.2044868 0.11471149
0.26055318 -1.2302334 0.106216
0.1286706 -1.2918365 0.099027179
0.17124486 -1.2525465 0.084211744
0.20961861 -1.2049015 0.069982305
0.2543712 -1.2030125 0.058460183
0.12922826 -1.3015814 0.051642213
0.16580769 -1.217209 0.036759984
0.2101607 -1.2116489 0.025286993
0.25537759 -1.2102766 0.013493311
0.13033049 -1.3145498 0.0037580905
0.17068137 -1.2564303 -0.0086530661
0.21088485 -1.2187291 -0.019904867
0.25795591 -1.2247175 -0.032096371
0.12692013 -1.2870153 -0.043805677
0.16765133 -1.2375257 -0.054066516
0.2112318 -1.2251884 -0.065722451
0.25395375 -1.2071787 -0.076963186
0.12621464 -1.2886115 -0.091402657
0.17155814 -1.2713677 -0.10276821
0.20474213 -1.1886622 -0.10809309
0 -0 -0
0.12592699 -1.2893859 -0.13941179
0.16932745 -1.2589815 -0.14877847
0.20648395 -1.2006534 -0.1542069
0.20609036 -0.98229611 -0.13707699
0.12448315 -1.2855016 -0.18712263
0.16254033 -1.2136486 -0.18910068
0.19290085 -1.1242553 -0.18755068
0 -0 -0
0.11851712 -1.2337674 -0.22665378
0.15898123 -1.1913404 -0.23153675
0.197033 -1.1525618 -0.23670323
0.19597274 -0.93626744 -0.20367156
0.1153402 -1.212927 -0.27020171
0.14948796 -1.124092 -0.26261497
0 -0 -0
0.19837466 -0.94609559 -0.24404849
0.10835759 -1.1510072 -0.30243373
0.12269871 -0.92797613 -0.25437254
0.16311437 -0.95626181 -0.27389982
0.17724459 -0.84517449 -0.25350451
0.11345468 -1.2205724 0.3787089
0.15998253 -1.2146146 0.36386979
0.20687434 -1.2130052 0.35245076
0.24970599 -1.1935579 0.33658832
0.12000348 -1.2822827 0.34385958
0.16337439 -1.2428794 0.32092965
0.20544934 -1.2101291 0.30178481
0.25011888 -1.2026508 0.28933668
0.11769202 -1.2573473 0.28679511
0.163211 -1.2402961 0.27097613
0.2039419 -1.2040515 0.25234294
0.24848151 -1.1990813 0.240759
0.11778796 -1.2553028 0.23755015
0.16305652 -1.2416351 0.22302277
0.2027784 -1.2008735 0.20496045
0.25664753 -1.2408854 0.2010593
0.1198923 -1.2789292 0.19330485
0.16170999 -1.2362281 0.1751319
0.20556512 -1.2212713 0.16198976
0.25265393 -1.2270823 0.15191883
0.12099085 -1.2930764 0.14684598
0.16215263 -1.2397802 0.12923205
0.20558763 -1.2244076 0.11648634
0.25380161 -1.2357132 0.10655265
0.12009247 -1.2856523 0.098494783
0.16071619 -1.2318068 0.082749501
0.20535804 -1.2248729 0.07106775
0.24919188 -1.2153143 0.058982577
0.12096164 -1.2993652 0.051523864
0.15704758 -1.2082913 0.03646088
0.20272221 -1.2129157 0.025286993
0.24854799 -1.2147596 0.013526034
0.12346529 -1.3282689 0.0037950741
0.16104098 -1.2425786 -0.0085507035
0.20619825 -1.2367665 -0.020178417
0.25323671 -1.2399895 -0.032455277
0.11948065 -1.2927458 -0.04397494
0.16235965 -1.2563659 -0.054845076
0.20272848 -1.2205509 -0.065405719
0.24295145 -1.1911116 -0.075842358
0.11757634 -1.281415 -0.090839311
0.16133644 -1.2536119 -0.10125104
0.2013578 -1.2134777 -0.11023531
0 -0 -0
0.11683568 -1.2772627 -0.13802089
0.16374721 -1.2767441 -0.15075597
0.20138301 -1.2156003 -0.15596497
0.19907176 -0.97868758 -0.1364004
0.11480625 -1.2665287 -0.18425485
0.15534081 -1.2165836 -0.18940592
0.18278095 -1.1059469 -0.18430586
0 -0 -0
0.1113849 -1.2393701 -0.2275532
0.15327917 -1.2049568 -0.23399588
0.19011652 -1.1547161 -0.23690163
0 -0 -0
0.10806856 -1.2155566 -0.27063471
0.15055023 -1.1878096 -0.27727991
0.16065003 -0.97638249 -0.23915017
0.19546297 -0.96154726 -0.24772024
0.10129311 -1.1516504 -0.30243373
0.12822022 -1.017753 -0.27876082
0.1566198 -0.95344609 -0.27281293
0.17339358 -0.85282803 -0.25547621
0.10654139 -1.2279086 0.38077509
0.15419765 -1.2288895 0.36785582
0.19880436 -1.2104572 0.35134932
0.24506018 -1.2082936 0.3403134
0.10952552 -1.2531577 0.33586285
0.15562481 -1.2428972 0.32068163
0.19802026 -1.211367 0.30178481
0.24292718 -1.205117 0.28956592
0.11133363 -1.2735893 0.29033855
0.15486825 -1.2354556 0.26970592
0.19796869 -1.213979 0.25416419
0.24208543 -1.2053934 0.24172358
0.11025496 -1.2579598 0.23792046
0.15763447 -1.2601963 0.22617877
0.19936177 -1.2264291 0.20910946
0.25232843 -1.2588992 0.20372337
0.11040388 -1.2609241 0.19047746
0.1549785 -1.2440758 0.17610563
0.19997063 -1.2342551 0.1635461
0.24570262 -1.2315301 0.15227997
0.11063243 -1.2660774 0.14370008
0.1498705 -1.203243 0.12532528
0.19727674 -1.2207316 0.11601927
0.2390188 -1.2010877 0.10343856
0.1111619 -1.2744451 0.097582087
0.15413907 -1.2406911 0.083281226
0.20197339 -1.251736 0.072553091
0.24367647 -1.2266177 0.059457477
0.11272706 -1.2970965 0.051405508
0.15478614 -1.2508956 0.037717119
0.19384724 -1.2052528 0.025101967
0.23992313 -1.2103767 0.013460586
0.11297894 -1.3021026 0.0037182621
0.15635213 -1.2673624 -0.0087144841
0.19923921 -1.2419573 -0.020242782
0.24659358 -1.2464232 -0.032583456
0.11094517 -1.2864845 -0.04373797
0.15391591 -1.251389 -0.054585561
0.19759913 -1.2365632 -0.066197552
0.24086185 -1.2190163 -0.077523589
0.1084358 -1.2672039 -0.089783043
0.15461074 -1.2624936 -0.10188985
0.1945363 -1.2186247 -0.11059235
0.20261604 -1.0270543 -0.10397281
0.10975678 -1.2868714 -0.13898382
0.15566957 -1.275753 -0.15052332
0.19610633 -1.2305291 -0.15772302
0.21049221 -1.0683531 -0.14871433
0.10811564 -1.2800293 -0.18611892
0.14870717 -1.2243814 -0.19047429
0.17661124 -1.1109457 -0.18495484
0 -0 -0
0.10205536 -1.2194446 -0.22377564
0.14824146 -1.2253712 -0.23777916
0.17612971 -1.1122984 -0.22797319
0.2069141 -1.0528079 -0.22845367
0.10117142 -1.2230077 -0.27215028
0.14465792 -1.2003176 -0.27998728
0.15207337 -0.9610287 -0.23515651
0 -0 -0
0.093199767 -1.1397153 -0.29914364
0.12277619 -1.0252277 -0.28059649
0.15557192 -0.98480791 -0.28150815
0.17668584 -0.89718163 -0.26843312
0.098467842 -1.2218727 0.3787089
0.14722197 -1.2345718 0.36927941
0.19332312 -1.2239987 0.35492891
0.23782742 -1.2107204 0.34057948
0.10371137 -1.2769179 0.34205386
0.14696546 -1.235171 0.3184495
0.1928454 -1.2269487 0.30536613
0.23869838 -1.2228256 0.2934635
0.10193773 -1.254809 0.28590924
0.14728472 -1.2363826 0.26970592
0.19415657 -1.2383908 0.25902084
0.22475791 -1.155808 0.23149905
0.10261397 -1.2595921 0.2381056
0.15233931 -1.28167 0.22986074
0.19091929 -1.2217834 0.20811369
0.23613234 -1.2167938 0.19667141
0.10298574 -1.2655201 0.1910727
0.15036806 -1.2705721 0.17972234
0.19056277 -1.223702 0.16198976
0.23343509 -1.2086465 0.14927047
0.10366607 -1.2766365 0.14482361
0.14914724 -1.260445 0.13118543
0.19039397 -1.2258544 0.11639293
0.23522572 -1.2211224 0.10503769
0.10277613 -1.268146 0.097049676
0.15131789 -1.282241 0.086006314
0.19245327 -1.2411127 0.07186754
0.23539102 -1.224166 0.059267513
0.1047661 -1.2977637 0.051405508
0.1493244 -1.2706835 0.038285419
0.19026583 -1.2311209 0.025615929
0.23437594 -1.2216464 0.013569667
0.10265779 -1.2738652 0.0036357606
0.14822376 -1.2653183 -0.0086940117
0.18872094 -1.2243807 -0.01993705
0.23536915 -1.2292581 -0.032096371
0.10185298 -1.2721975 -0.04323018
0.14820452 -1.2691793 -0.055320863
0.18455322 -1.2022188 -0.064297147
0.23656426 -1.2371364 -0.078582153
0.10184255 -1.2827613 -0.090839311
0.14824246 -1.2753003 -0.10284807
0.18931989 -1.2345629 -0.11193124
0.22616741 -1.1846702 -0.11978616
0.10178021 -1.2865295 -0.13887684
0.14875276 -1.2845771 -0.15145391
0.18960309 -1.2385738 -0.15860204
0.21933462 -1.1504059 -0.15994571
0.098173961 -1.254029 -0.1822474
0.14537768 -1.261597 -0.19612136
0.17172748 -1.1246892 -0.18706395
0.2138437 -1.1225647 -0.19929816
0.091530204 -1.1808181 -0.21658029
0.14004824 -1.2204045 -0.23664416
0.17327982 -1.1395205 -0.23333025
0.20319119 -1.0684706 -0.23157749
0.092547558 -1.2090039 -0.26890269
0.13729019 -1.2011826 -0.27998728
0.15493542 -1.0196028 -0.24925181
0.19290361 -1.0124481 -0.26020417
0.087225892 -1.1537714 -0.30268681
0.12094657 -1.0652742 -0.29134834
0.14635107 -0.96481115 -0.27553019
0.17027941 -0.89353615 -0.26702476
0.090401493 -1.2148315 0.37634748
0.13792133 -1.2202111 0.36472392
0.18566503 -1.2242115 0.35465357
0.23165406 -1.2187859 0.34244204
0.096019 -1.2794571 0.34256977
0.1399266 -1.2408627 0.31968957
0.18328491 -1.2146661 0.30202359
0.23173262 -1.2271366 0.29415131
0.093652487 -1.2476315 0.28413758
0.1400246 -1.2401766 0.27034101
0.18684578 -1.2414956 0.25942555
0.22618687 -1.2024877 0.2405661
0.095399804 -1.2670577 0.23940168
0.13973364 -1.2405127 0.22232144
0.18210256 -1.2141547 0.20662004
0.22957279 -1.2230732 0.19745496
0.094773777 -1.2602118 0.19017984
0.13958977 -1.2448999 0.17596653
0.18524905 -1.2395581 0.16393518
0.22783729 -1.2198147 0.15047427
0.093972206 -1.2524765 0.14201477
0.14174296 -1.2643019 0.13149387
0.18345574 -1.2309384 0.11676657
0.22918843 -1.2303796 0.10571101
0.095365226 -1.2737244 0.097429968
0.1423388 -1.2732292 0.085341655
0.18542203 -1.2462204 0.072096065
0.22294526 -1.1990722 0.057985287
0.094943926 -1.2734708 0.050419219
0.1399769 -1.2576679 0.037866671
0.18021543 -1.2154527 0.025266435
0.22705801 -1.2240447 0.013580574
0.096101128 -1.2914242 0.0036841235
0.14211085 -1.2811121 -0.0087963743
0.18515348 -1.2522217 -0.020371512
0.22927786 -1.2385429 -0.032301459
0.094192289 -1.2747918 -0.043297883
0.1395359 -1.2621206 -0.054974835
0.18139149 -1.2319794 -0.065828033
0.22661026 -1.225806 -0.077772669
0.093314156 -1.2744083 -0.090205543
0.14139572 -1.2851032 -0.10356672
0.18333542 -1.2465408 -0.1129131
0.20661297 -1.1194925 -0.11306549
0.093088657 -1.2762219 -0.1376999
0.14086795 -1.2854657 -0.15145391
0.18315259 -1.2475663 -0.15960665
0.21658182 -1.1751155 -0.16319335
0.090833463 -1.2595433 -0.18296435
0.13806236 -1.2663951 -0.19673185
0.17268564 -1.1794206 -0.19598722
0.208379 -1.1316063 -0.20067263
0.08414311 -1.1793951 -0.21622051
0.13340503 -1.2290505 -0.23815748
0.17222333 -1.1812967 -0.24166349
0.17912549 -0.97446334 -0.2109604
0.085470214 -1.2144184 -0.2699852
0.13085946 -1.2107195 -0.2820178
0.16983573 -1.1657751 -0.28472495
0.18528272 -1.0059843 -0.25824592
0.080345869 -1.1571802 -0.30344605
0.12058653 -1.1235658 -0.30708268
0.13835101 -0.95140564 -0.2714543
0.16357674 -0.88795871 -0.26505303
0.082360223 -1.2067841 0.3736909
0.1320608 -1.2362854 0.36927941
0.17842655 -1.2272303 0.35520428
0.22138447 -1.2050149 0.33818477
0.088432148 -1.2838776 0.34360158
0.13487631 -1.2657804 0.32588992
0.17652339 -1.2205732 0.30321735
0.22262597 -1.2199174 0.29208788
0.086196475 -1.2511011 0.28480193
0.13458988 -1.2614206 0.27478674
0.17754698 -1.2309873 0.25699723
0.22248903 -1.2241262 0.24461733
0.08836893 -1.2784032 0.24143833
0.13576621 -1.275611 0.22845808
0.17605205 -1.2250104 0.20827965
0.2197727 -1.2118255 0.19541773
0.086630836 -1.2548505 0.18928698
0.13539071 -1.2782303 0.18055697
0.1773587 -1.2387084 0.1636758
0.22369766 -1.2397518 0.15276147
0.086626701 -1.2579861 0.14257655
0.13649683 -1.288888 0.13396131
0 -0 0
0 -0 0
0 -0 0
0.13724774 -1.2998778 0.087069765
0 -0 0
0 -0 0
0 -0 0
0.1381076 -1.3141716 0.039541658
0 -0 0
0 -0 0
0 -0 0
0.13903825 -1.3277087 -0.0091102868
0 -0 -0
0 -0 -0
0 -0 -0
0.13572925 -1.3007125 -0.05661846
0 -0 -0
0 -0 -0
0 -0 -0
0.13402249 -1.290904 -0.10396598
0.17609996 -1.2506011 -0.11318087
0 -0 -0
0.085256159 -1.276769 -0.1376999
0.1337949 -1.2942095 -0.1523845
0.17646076 -1.2555438 -0.1604857
0.21561715 -1.2115394 -0.16806479
0.082973085 -1.2581019 -0.18267757
0.13089578 -1.2731171 -0.1976476
0.16681519 -1.1902299 -0.19760963
0.1950507 -1.0969766 -0.1943157
0.079911992 -1.2260246 -0.22467506
0.12596118 -1.2308229 -0.23834665
0.15887678 -1.1386491 -0.23273504
0.19997753 -1.126739 -0.24365616
0.079205781 -1.2334311 -0.27409884
0.12253949 -1.2027769 -0.27998728
0.16549818 -1.187012 -0.28965831
0.17791826 -1.0004201 -0.25653243
0.073549472 -1.1624792 -0.30471149
0.11543778 -1.1415665 -0.31180301
0 -0 -0
0.16283035 -0.91539675 -0.27293986
0.07453955 -1.2005916 0.37162468
0.1244726 -1.2370725 0.36927941
0.17221779 -1.2378237 0.35795778
0.21432319 -1.2082489 0.33871692
0.079948008 -1.2747535 0.34102201
0.12826788 -1.2781513 0.32886609
0.17022862 -1.2302905 0.30536613
0.21598084 -1.2260535 0.29323423
0.079495147 -1.2671787 0.28834537
0.12665196 -1.2602777 0.27436331
0.16999045 -1.2320535 0.25699723
0.21090485 -1.2022735 0.23998736
0.07996738 -1.2700944 0.23977198
0.12695479 -1.2666241 0.22670476
0.16947222 -1.2329062 0.20944138
0.21488705 -1.227744 0.19776838
0.07936395 -1.2622668 0.19032864
0.12705378 -1.2741101 0.17986144
0.17325212 -1.2653154 0.16704789
0.21540536 -1.2371889 0.15227997
0.07847096 -1.2515519 0.14179008
0.12828974 -1.2867318 0.13365288
0.16968311 -1.242962 0.11770071
0.21458384 -1.2360448 0.10596351
0.078669436 -1.2578812 0.096136987
0.12690096 -1.2768658 0.085474588
0.17240658 -1.2652186 0.07306724
0.21230666 -1.2253388 0.059125043
0.078688756 -1.264567 0.050024696
0.128861 -1.3030578 0.039182734
0.16703473 -1.2304518 0.025533697
0.21270119 -1.2306802 0.013624207
0.079068765 -1.2735426 0.0036300705
0.12784959 -1.2976869 -0.0088987369
0.16883415 -1.2474637 -0.020258874
0.20947473 -1.2146647 -0.031609286
0.077743225 -1.2628837 -0.042857796
0.12579387 -1.2816352 -0.055753395
0.16785948 -1.2459885 -0.066461496
0.21426068 -1.2442319 -0.078768961
0.078820169 -1.2943753 -0.091543496
0.12522748 -1.2827733 -0.10324732
0.16895442 -1.2556065 -0.11353791
0.20971787 -1.2200156 -0.12294883
0.076157175 -1.2564269 -0.13545306
0.12527484 -1.2890747 -0.15168656
0.16980991 -1.2644689 -0.16149029
0.20851445 -1.2147926 -0.16833542
0.07637424 -1.2773576 -0.18540198
0.12298656 -1.2729125 -0.19749497
0.16042565 -1.1980772 -0.19874531
0.19447677 -1.1340783 -0.20067263
0.067519389 -1.1440057 -0.20956481
0.11737291 -1.2208207 -0.23626584
0.14981538 -1.124058 -0.22956046
0.18695489 -1.0922748 -0.23595078
0.070787333 -1.2192743 -0.27085122
0.11552826 -1.2073853 -0.28088972
0.15449059 -1.1600635 -0.28284562
0 -0 -0
0.062222924 -1.0895022 -0.28547719
0.10806631 -1.1384106 -0.31075406
0 -0 -0
0.15915741 -0.92772698 -0.27631992
0.068131804 -1.2181975 0.37693784
0.11633903 -1.2320868 0.36757109
0.16512592 -1.2426689 0.35905918
0.20739308 -1.2123917 0.33951515
0.072288439 -1.2781138 0.34179589
0.12005962 -1.2750562 0.32787403
0.16331244 -1.2361255 0.30655989
0.21089858 -1.2417499 0.29667324
0.072654799 -1.2841939 0.29211023
0.11772382 -1.2483821 0.27161121
0.16319486 -1.2388989 0.25821137
0.2087592 -1.2345042 0.24616066
0.074290529 -1.307844 0.24680775
0.11724489 -1.2467954 0.22302277
0.16151918 -1.2309896 0.20894349
0.20422795 -1.2105356 0.19479087
0.071561337 -1.2617428 0.19017984
0.11877252 -1.2699358 0.17916593
0.16188753 -1.2388252 0.16341642
0.20649584 -1.2306551 0.15131693
0.071238853 -1.2599465 0.1426889
0.11974382 -1.2805622 0.13293321
0.16089572 -1.2350941 0.11685999
0.20716 -1.2383209 0.10604768
0.071286529 -1.2643133 0.096593335
0.11823061 -1.2686791 0.084876403
0.16361031 -1.2583324 0.072610214
0.20675796 -1.2384413 0.059694927
0.070760228 -1.2620331 0.049906347
0.12086315 -1.3038239 0.039182734
0.16063733 -1.2403771 0.025718722
0.20662411 -1.2408394 0.01372238
0.070638724 -1.2630212 0.0035987771
0.12071216 -1.3074087 -0.0089601548
0.1625849 -1.2593843 -0.020435877
0.20513076 -1.2346641 -0.032096371
0.069716424 -1.2583475 -0.04268853
0.11765307 -1.2793982 -0.055623636
0.16186535 -1.259871 -0.067147754
0.20547882 -1.2386309 -0.07833308
0.070876546 -1.2948345 -0.091543496
0.11626504 -1.2716055 -0.1022891
0.16188081 -1.2615591 -0.1139842
0.20271574 -1.2242247 -0.12324534
0.069365561 -1.273748 -0.13727194
0.11565283 -1.2710258 -0.14947641
0.16343419 -1.2763115 -0.16287163
0.20348102 -1.2307122 -0.17036518
0.067527995 -1.2590255 -0.18267757
0.1150848 -1.2726589 -0.19734235
0.1549457 -1.213721 -0.20117892
0.18205605 -1.1022035 -0.19483113
0.06330286 -1.1974435 -0.21927854
0.11014381 -1.2244519 -0.23683333
0.15576181 -1.2260758 -0.25019512
0.1721357 -1.0441837 -0.22532988
0.063405879 -1.2216356 -0.27128425
0.10655457 -1.1906054 -0.27682871
0.14859366 -1.1706324 -0.28519481
0.16515402 -0.99965829 -0.25579807
0.056472152 -1.1082212 -0.29028577
0.098093666 -1.1054094 -0.30157569
0.11065665 -0.87359238 -0.2486293
0.15330555 -0.92773938 -0.27603823
0.060655806 -1.2185926 0.37693784
0.10801858 -1.2241833 0.36500865
0.15653169 -1.2360289 0.35685638
0.2043377 -1.240273 0.34696534
0.064347446 -1.2766036 0.34127998
0.111215 -1.2641885 0.32489786
0.15584593 -1.2380677 0.30679864
0.20374665 -1.2459024 0.29736105
0.064528227 -1.2797458 0.2910029
0.10886069 -1.235451 0.2686474
0.15595587 -1.242792 0.25881845
0.20244181 -1.2435097 0.24770398
0.065866664 -1.3004236 0.24532653
0.1103679 -1.2563179 0.22460076
0.15335149 -1.2270648 0.20811369
0.20249607 -1.2468613 0.20043245
0.06441731 -1.2740093 0.19196557
0.11020263 -1.2617619 0.17791398
0.15636478 -1.2565225 0.16562124
0.19973212 -1.2367991 0.15191883
0.063456617 -1.2593675 0.14257655
0.11205725 -1.2832546 0.13313882
0.15613303 -1.2587833 0.1190085
0.1995579 -1.2395688 0.10604768
0.064377874 -1.2816563 0.097886316
0.11027095 -1.2673926 0.08474347
0.1557636 -1.2583219 0.072553091
0.19978888 -1.2436315 0.059884883
0.063463531 -1.2714252 0.050261408
0.11311923 -1.3075286 0.039272465
0.15424672 -1.2512622 0.025924306
0.19995573 -1.2480079 0.013787828
0.063732773 -1.2804097 0.00364714
0.11157206 -1.295173 -0.0088714398
0.15643953 -1.2732595 -0.020645063
0.20196922 -1.2635394 -0.032814182
0.061944876 -1.2577534 -0.042654682
0.10903218 -1.2711374 -0.055234358
0.15425305 -1.2618316 -0.067200541
0.19331336 -1.2112864 -0.076527312
0.063269109 -1.3022194 -0.092036419
0.10905311 -1.2792474 -0.10284807
0.15449908 -1.2654947 -0.11425199
0.19520022 -1.2254455 -0.12324534
0.061164901 -1.2662048 -0.136416
0.10885897 -1.2835873 -0.15087229
0.15559982 -1.2772903 -0.16287163
0.1968594 -1.2378086 -0.17117709
0.060083132 -1.2653474 -0.18353792
0.10719078 -1.2723563 -0.19718973
0.1493987 -1.2303219 -0.20377479
0.17791742 -1.1198395 -0.19775186
0.056137901 -1.2017398 -0.21999808
0.10213681 -1.2192335 -0.23569834
0.14870603 -1.2309006 -0.25098878
0.17828506 -1.124433 -0.24240664
0.055105705 -1.204447 -0.26738709
0.099894218 -1.1990036 -0.27863359
0.14525187 -1.2033674 -0.29294723
0 -0 -0
0.049454648 -1.1037145 -0.28902036
0.093214728 -1.129072 -0.30786943
0.1043737 -0.86661118 -0.24645551
0.14730892 -0.92676735 -0.27547491
0.05334409 -1.22276 0.37811852
0.099172346 -1.2085813 0.36016846
0.14951926 -1.2417384 0.35823315
0.19581853 -1.2357911 0.34536889
0.056342274 -1.2731134 0.34024814
0.10369291 -1.2677438 0.3256419
0.14963076 -1.2505711 0.30966368
0.1959469 -1.2461675 0.29713178
0.056286458 -1.2713498 0.28900975
0.10359253 -1.2643437 0.27478674
0.14844328 -1.2446979 0.25902084
0.19844925 -1.2679944 0.25233397
0.057536673 -1.2929493 0.24384531
0.10233665 -1.2530465 0.22389944
0.15047081 -1.2671528 0.21475208
0.19103318 -1.2236848 0.1965147
0.056204047 -1.2654896 0.19062626
0.10293919 -1.2683365 0.17874861
0.14713867 -1.2446573 0.16393518
0.19259627 -1.2409443 0.15227997
0.055552434 -1.2557623 0.14212714
0.10458348 -1.2888752 0.13365288
0.14596008 -1.2389531 0.11704681
0.19210061 -1.2417547 0.10613183
0.055634361 -1.2621045 0.096365161
0.1036177 -1.281969 0.085673988
0.15025452 -1.2780931 0.073638529
0.18880193 -1.223116 0.058840107
0.055617329 -1.2707925 0.050221954
0.10397367 -1.2942492 0.038853716
0.1469149 -1.2551641 0.025985984
0.19092515 -1.2403166 0.013689656
0.054611176 -1.2518042 0.0035646383
0.10266642 -1.2838718 -0.0087895505
0.14584382 -1.2503601 -0.020258874
0.19406074 -1.2637668 -0.032788545
0.05405413 -1.2541158 -0.042519268
0.1014684 -1.2747703 -0.055364117
0.14708315 -1.2677143 -0.067464493
0.18738984 -1.2223151 -0.077149987
0.055531416 -1.3085629 -0.092458926
0.10096603 -1.2769114 -0.10260852
0.14615808 -1.2614719 -0.11380569
0.18963389 -1.2394078 -0.12453017
0.054022633 -1.2814569 -0.13802089
0.099501684 -1.2654182 -0.14866215
0.14798743 -1.280192 -0.16312277
0.19210328 -1.2576025 -0.17374812
0.052399721 -1.2676699 -0.18382469
0.09953557 -1.2749606 -0.19749497
0.14308907 -1.2419984 -0.20555945
0.17416355 -1.1413612 -0.20135985
0.047646698 -1.174541 -0.21496132
0.093438342 -1.2041732 -0.23267172
0.14126214 -1.2327636 -0.25118718
0.18227775 -1.1970586 -0.25781736
0.047405243 -1.1969584 -0.26565507
0.090287574 -1.170454 -0.27186516
0.13510147 -1.1800932 -0.28707418
0.14409678 -0.94410098 -0.2411111
0.039205641 -1.0140918 -0.26548365
0.083418757 -1.0920969 -0.29764208
0.11609121 -1.0163959 -0.28884476
0.14104038 -0.92385972 -0.2743482
0.042834446 -1.1428633 0.35332385
0.090739295 -1.1957849 0.35618237
0.141461 -1.2388119 0.35713172
0.18910226 -1.2426872 0.34696534
0.049191803 -1.2908133 0.3448914
0.095693082 -1.2654582 0.32489786
0.13932781 -1.2283082 0.30393359
0.18815158 -1.246384 0.29690254
0.049041834 -1.2862881 0.2923317
0.093470111 -1.2337701 0.26801232
0.14146318 -1.251424 0.26023498
0.18993641 -1.2643365 0.25136939
0.049112581 -1.2805122 0.24143833
0.094794415 -1.2556142 0.22425009
0.13861279 -1.2317942 0.20861158
0.18557006 -1.2385082 0.19870862
0.048702784 -1.2727276 0.19166794
0.094266273 -1.2570941 0.17707935
0.14159574 -1.2642591 0.16639942
0.18717176 -1.2568312 0.15408565
0.047808349 -1.2550865 0.14201477
0.095483296 -1.273622 0.13200791
0.1403428 -1.2576361 0.11872825
0.18594068 -1.2527665 0.10697348
0.0476624 -1.2564437 0.095908813
0.095452607 -1.2786006 0.085408129
0.14163609 -1.2720454 0.073238626
0.18656109 -1.259823 0.060549747
0.048607688 -1.2920786 0.051050439
0.094847538 -1.2789139 0.03837515
0.14086261 -1.2709475 0.026294362
0.18433356 -1.2483892 0.013766012
0.048577175 -1.2960848 0.0036898132
0.094198048 -1.2764994 -0.0087349564
0.14146136 -1.2810463 -0.02074161
0.18411782 -1.2500987 -0.032404006
0.046099637 -1.2474326 -0.042282298
0.093571484 -1.2743725 -0.055320863
0.13984683 -1.273556 -0.067728437
0.18424192 -1.2530651 -0.079018027
0.046958517 -1.2939261 -0.091402657
0.091752134 -1.2586175 -0.10109134
0.1405863 -1.2821465 -0.11559088
0.18245885 -1.2435015 -0.12482666
0.044942155 -1.2479813 -0.13438313
0.091735348 -1.2660049 -0.14866215
0.14002165 -1.2800899 -0.1629972
0.18481398 -1.2616986 -0.17415409
0.04437682 -1.2610441 -0.18282098
0.090222336 -1.2548468 -0.19428986
0.13760398 -1.2624718 -0.20880426
0.16872589 -1.1531307 -0.20324977
0.038713109 -1.1246729 -0.20578724
0.086397707 -1.2096212 -0.23361754
0.13369539 -1.2336072 -0.25118718
0.16899472 -1.1575062 -0.24907075
0.042280063 -1.2635766 -0.28037757
0.086414471 -1.217631 -0.28269464
0.12555614 -1.15964 -0.28190589
0.15908144 -1.0869523 -0.27733895
0.03562367 -1.0955358 -0.2867426
0.079217076 -1.1282055 -0.30734494
0.1161564 -1.0754545 -0.30542004
0.13509107 -0.92280895 -0.27378488
0.036150344 -1.1536094 0.35657078
0.083067052 -1.1915377 0.3547588
0.13375393 -1.2387007 0.35685638
0.17938621 -1.2295163 0.34297416
0.040900178 -1.279503 0.34179589
0.087523855 -1.2602229 0.32340977
0.13458364 -1.2552098 0.31037995
0.17910655 -1.2378817 0.29460984
0.041771855 -1.3060583 0.29676098
0.086847983 -1.2479702 0.27097613
0.13398997 -1.2542161 0.26063973
0.17853989 -1.2402269 0.24635358
0.041602589 -1.2915937 0.24347502
0.087973505 -1.2689402 0.22652942
0.13470104 -1.2669427 0.21442017
0.17993218 -1.2533103 0.20090258
0.040797308 -1.2700374 0.19122152
0.087502971 -1.2714802 0.17902681
0.13560906 -1.281867 0.16860422
0.17861526 -1.2520592 0.15336338
0 -0 0
0 -0 0
0.13606685 -1.2911483 0.12181089
0 -0 0
0 -0 0
0 -0 0
0.1370644 -1.3036703 0.075009614
0 -0 0
0 -0 0
0 -0 0
0.13763915 -1.3155397 0.027198937
0 -0 0
0 -0 0
0 -0 -0
0.13629311 -1.3077468 -0.021159982
0 -0 -0
0.039214175 -1.2726659 -0.043128621
0 -0 -0
0.13419084 -1.2952491 -0.068837009
0 -0 -0
0.039348911 -1.3051575 -0.092177249
0.083894931 -1.2571677 -0.10093164
0.13312648 -1.2869477 -0.11594791
0.17593279 -1.2524811 -0.12561734
0.037907217 -1.2691038 -0.13662998
0.084819667 -1.2794273 -0.15017435
0.13216454 -1.2809249 -0.1629972
0.17816952 -1.2706585 -0.17523663
0.037701592 -1.297895 -0.18812636
0.082132101 -1.2494599 -0.19337414
0.12985501 -1.2632923 -0.20880426
0.15413193 -1.1004857 -0.19380027
0.032478891 -1.1484883 -0.21010447
0.079101883 -1.2120883 -0.23399588
0.12582473 -1.2314792 -0.25059193
0.16594999 -1.1875813 -0.25531834
0.034366138 -1.2579567 -0.27907851
0.077240549 -1.1918896 -0.27660307
0.11982015 -1.1739265 -0.28519481
0.15752071 -1.1243955 -0.2866407
0 -0 -0
0.071922943 -1.1228923 -0.3057715
0.1103351 -1.0838064 -0.30759385
0.12862734 -0.9179191 -0.27209482
0.027940165 -1.1089178 0.34269756
0.074538387 -1.1728914 0.34906444
0.12585887 -1.236629 0.35603034
0.17317177 -1.2401408 0.34563494
0.034245756 -1.3260899 0.35417792
0.08040151 -1.2704045 0.32588992
0.12707448 -1.2579443 0.31085745
0.1719081 -1.2418499 0.29529765
0.03315264 -1.2828938 0.29144585
0.078260951 -1.2338489 0.26780063
0.12658589 -1.2579377 0.26124677
0.17360364 -1.2607398 0.25021189
0.034086492 -1.3075427 0.24643746
0.080434032 -1.2733862 0.22723074
0.12751414 -1.2736328 0.21541592
0.17089511 -1.2446061 0.19933549
0.032823954 -1.2633442 0.19017984
0.079266183 -1.2650747 0.1780531
0.12597241 -1.2649149 0.1662697
0.17294192 -1.2678859 0.15516907
0.032351635 -1.2535921 0.14179008
0.079287134 -1.265763 0.13108262
0.12774889 -1.2879959 0.12143724
0.16907725 -1.2440928 0.10604768
0.032853927 -1.2808567 0.097734205
0.078886092 -1.2657336 0.084477603
0.12807968 -1.2945516 0.074438326
0.1736366 -1.2808239 0.061452053
0.032596391 -1.2865845 0.050813735
0.078837715 -1.2749932 0.038225599
0.1281935 -1.3024298 0.026911117
0.16940178 -1.2535301 0.013798737
0.03246706 -1.2885859 0.003667054
0.077790156 -1.265582 -0.0086530661
0.12729095 -1.2986075 -0.02099907
0.16475788 -1.2225425 -0.031634923
0.031429157 -1.2738817 -0.043162473
0.077499442 -1.2684443 -0.055018093
0.12498228 -1.2831274 -0.068150744
0.17004853 -1.2641342 -0.079578444
0.030693445 -1.2784492 -0.090275966
0.078228652 -1.2914883 -0.10364658
0.1247454 -1.2827837 -0.11550161
0.16943575 -1.2624135 -0.12650684
0.030213771 -1.2732884 -0.13705795
0.077146508 -1.2828979 -0.15052332
0.12238716 -1.2619628 -0.1604857
0.16839616 -1.2569973 -0.17320687
0.02978248 -1.3000805 -0.18841313
0.075933307 -1.2746036 -0.19718973
0.12229089 -1.2660297 -0.20912875
0.15390924 -1.1502322 -0.20239072
0.025561927 -1.1545666 -0.21118376
0.070910029 -1.1998078 -0.23153675
0.11770432 -1.2263743 -0.24940148
0.15943648 -1.1943941 -0.25656787
0.025447812 -1.2015324 -0.26652107
0.069013223 -1.1767803 -0.27299324
0.11335691 -1.1823801 -0.28707418
0.15550631 -1.1618593 -0.29594246
0.020121831 -0.99432957 -0.26016891
0.057502259 -0.99325478 -0.27036914
0.10221743 -1.069135 -0.30324623
0.1213375 -0.90632778 -0.26843312
0.022264129 -1.1682951 0.36099839
0.065912165 -1.1484437 0.34166175
0.11863456 -1.2412058 0.35713172
0.16606897 -1.245002 0.34669927
0.025271693 -1.2837725 0.34282774
0.072549693 -1.2699068 0.3256419
0.11917014 -1.2567669 0.31037995
0.16568805 -1.2534959 0.29781958
0.025357166 -1.2869729 0.2923317
0.071079887 -1.2411361 0.26928252
0.1186808 -1.2567408 0.26084206
0.16829441 -1.2802655 0.25387731
0.025299242 -1.2694092 0.23921652
0.071946763 -1.2620609 0.22512676
0.11868249 -1.2635912 0.21359037
0.16325513 -1.2456313 0.19933549
0.024895038 -1.2546237 0.18884054
0.071502343 -1.2655374 0.1780531
0.11857748 -1.2696129 0.16678849
0.1652872 -1.2699077 0.15528946
0.024698209 -1.255754 0.14201477
0.07095813 -1.2562946 0.13005453
0.11919818 -1.2818161 0.12078335
0.1625936 -1.2540004 0.10680515
0.02557764 -1.3109416 0.10001593
0.070894398 -1.2622091 0.084211744
0.11893548 -1.2823898 0.07369566
0.16590245 -1.282856 0.061499543
0.02441377 -1.2717746 0.050221954
0.070401795 -1.2644749 0.037896581
0.12093413 -1.3111564 0.027075585
0.16388021 -1.2714055 0.013984174
0.024045395 -1.2617658 0.0035902425
0.070188902 -1.2690309 -0.0086735385
0.11712605 -1.2754676 -0.020612881
0.1629879 -1.2681487 -0.032788545
0.023945523 -1.2920371 -0.043771826
0.067741886 -1.2329838 -0.053460974
0.11629043 -1.2749199 -0.06767565
0.16292369 -1.2701035 -0.079889782
0.023294013 -1.3035474 -0.092036419
0.070140265 -1.288958 -0.10340703
0.11633014 -1.2775736 -0.11496606
0.16168654 -1.2634294 -0.12650684
0.022575319 -1.2833909 -0.13812788
0.06793499 -1.258553 -0.14761522
0.11544892 -1.2715821 -0.16161586
0.16369295 -1.2815945 -0.17645448
0.021157602 -1.2616473 -0.18282098
0.067847475 -1.2701112 -0.19642662
0.11505345 -1.2726527 -0.2101022
0.15457751 -1.2117419 -0.21304284
0.017800396 -1.1124086 -0.20344874
0.061418202 -1.1600169 -0.22378102
0.11017722 -1.2270734 -0.24940148
0.15457404 -1.2147549 -0.26073292
0.014756492 -0.98105133 -0.2175903
0.057246353 -1.0905956 -0.25291356
0.10627349 -1.1849897 -0.28754404
0.15217881 -1.1926067 -0.30353072
0 -0 -0
0 -0 -0
0.092741184 -1.0371512 -0.29400754
0.11188661 -0.87659794 -0.25941962
0.014613818 -1.1311506 0.34948659
0.062543221 -1.2206283 0.36301562
0.11041727 -1.2352078 0.35520428
0.15599494 -1.2268724 0.34137774
0.017394139 -1.2839034 0.34282774
0.065002918 -1.2751654 0.32688197
0.11017049 -1.2429651 0.30679864
0.15714224 -1.2477288 0.2962147
0.017645154 -1.3007555 0.29543221
0.064560711 -1.2630222 0.27393991
0.11010647 -1.2476901 0.25881845
0.15836318 -1.2647225 0.25059772
0.017821524 -1.2921406 0.24347502
0.064801566 -1.2742774 0.22723074
0.11075462 -1.262331 0.21325845
0.15499733 -1.2417094 0.19855192
0.017277651 -1.2606856 0.18973342
0.064134151 -1.2738645 0.17916593
0.11181882 -1.2821703 0.16834484
0.15566078 -1.2561201 0.15348376
0.017006028 -1.2568755 0.14212714
0.063698299 -1.2656473 0.13097982
0.11176138 -1.2874829 0.12125041
0.1559947 -1.2638751 0.10756264
0.01724004 -1.2891395 0.098342665
0.063297816 -1.2656099 0.084411144
0.1097732 -1.2681757 0.072838731
0.15778382 -1.281867 0.061404567
0.017040426 -1.3048722 0.051523864
0.063581169 -1.2838513 0.038464881
0.11057245 -1.2849789 0.026520506
0.15656289 -1.2763571 0.014027806
0.016716277 -1.2938868 0.0036812786
0.06328468 -1.2874155 -0.0087963743
0.1103216 -1.2881171 -0.020805977
0.15568903 -1.2730941 -0.032891091
0.016203098 -1.30715 -0.04427962
0.060662016 -1.243355 -0.053893507
0.10956536 -1.2885447 -0.068361908
0.15440194 -1.2651349 -0.079516172
0.015096216 -1.2867092 -0.090839311
0.06078843 -1.2594947 -0.10101149
0.10857312 -1.2792557 -0.11505532
0.15429202 -1.2673612 -0.12680334
0.014540744 -1.2695866 -0.13662998
0.060828194 -1.2718432 -0.14912744
0.10622259 -1.2554612 -0.15948109
0.15510917 -1.2766734 -0.17564258
0.013794683 -1.2973794 -0.18798298
0.06023958 -1.2744523 -0.1970371
0.10616587 -1.2605522 -0.20799306
0.14951272 -1.2322268 -0.21647903
0.011760419 -1.1921717 -0.21801934
0.053519018 -1.1436969 -0.22056521
0.10240098 -1.2247962 -0.24880625
0.14864512 -1.2283033 -0.26344022
0 -0 -0
0.052492671 -1.1327727 -0.26261497
0.097382873 -1.1662467 -0.28284562
0.14439097 -1.1896679 -0.3025516
0 -0 -0
0 -0 -0
0.091644347 -1.1009985 -0.31194144
0.1003768 -0.82678455 -0.24449101
0.0076923752 -1.1340852 0.35037211
0.053411629 -1.1845988 0.35219634
0.097494997 -1.1716738 0.33675566
0.14904264 -1.2325915 0.34270811
0.0092438394 -1.247273 0.33302528
0.057350952 -1.2794114 0.32787403
0.10333972 -1.2532957 0.30918619
0.15052466 -1.2573678 0.29827815
0.0096055847 -1.2930381 0.29366049
0.056458518 -1.2555836 0.2722463
0.10292932 -1.2541984 0.26003262
0.15036814 -1.2637217 0.25021189
0.0098325787 -1.2843642 0.2419938
0.056453921 -1.2628487 0.22512676
0.10220541 -1.2531581 0.21159886
0.14865494 -1.2534256 0.20027575
0.0095194532 -1.2578013 0.18928698
0.055835694 -1.2633516 0.17763577
0.1032287 -1.2739375 0.16717757
0.14853063 -1.2619811 0.15408565
0.0093010105 -1.2579497 0.14223948
0.055931237 -1.2660142 0.13097982
0.10337933 -1.2821898 0.12068994
0.15055659 -1.284602 0.10924593
0.0093729962 -1.2952034 0.098799005
0.055705886 -1.2699617 0.084677003
0.10166978 -1.2648447 0.072610214
0.1489879 -1.2748741 0.061024647
0.0089713074 -1.2959592 0.051168796
0.055572473 -1.2812214 0.03837515
0.1036411 -1.2975924 0.026767207
0.15069446 -1.2941786 0.014213244
0.0087429089 -1.2889652 0.003667054
0.054739553 -1.2727938 -0.0086940117
0.10106924 -1.2718253 -0.020532424
0.1482203 -1.2770042 -0.032967996
0.0080759265 -1.2902348 -0.043704119
0.053712782 -1.2596744 -0.054585561
0.10110744 -1.2822241 -0.067992382
0.14778461 -1.2759728 -0.080138847
0.0072957282 -1.3037351 -0.092036419
0.054527208 -1.2947012 -0.10380628
0.098455682 -1.2511027 -0.1124668
0.14696951 -1.272238 -0.12719867
0.0068191537 -1.282577 -0.13802089
0.053519484 -1.2841007 -0.15052332
0.097431205 -1.2422426 -0.15772302
0.14591119 -1.2657896 -0.17401876
0.0056469557 -1.255874 -0.18196063
0.052337348 -1.272823 -0.19673185
0.097968601 -1.2552773 -0.20701961
0.14183645 -1.2321423 -0.21630722
0.0042031063 -1.1272985 -0.206147
0.045702811 -1.1243811 -0.21678194
0.093521878 -1.207812 -0.24523486
0.13831693 -1.2048999 -0.25823388
0 -0 -0
0.047145229 -1.1729841 -0.27186516
0.090524837 -1.1706986 -0.28378528
0.13564672 -1.1780097 -0.29936942
0 -0 -0
0 -0 -0
0 -0 -0
0.096399799 -0.83691698 -0.24730772
0 -0 0
0.046850793 -1.2031039 0.35760596
0.095620245 -1.2412622 0.35658103
0.14125709 -1.2315674 0.34217593
0.001629967 -1.2782232 0.34127998
0.050210971 -1.2981319 0.33258629
0.095352247 -1.250033 0.30823115
0.14247747 -1.2553662 0.29759035
0.0016702106 -1.2920974 0.293439
0.050042309 -1.2891109 0.27944413
0.093527228 -1.2323469 0.25537834
0.14195152 -1.2587703 0.24905439
0.0019949873 -1.312899 0.24736321
0.048855893 -1.2671065 0.2258281
0.094959021 -1.2596616 0.2125946
0.14151277 -1.2592214 0.2010593
0.0020579032 -1.4368205 0.21622168
0.048233472 -1.2676286 0.17819218
0.094299741 -1.2597151 0.16523214
0.1423243 -1.2766813 0.15577096
0.00158845 -1.2629515 0.14280125
0.047595009 -1.2514238 0.12943767
0.094622932 -1.2708855 0.11956898
0.1414625 -1.2746075 0.10832012
0.0014190158 -1.2892541 0.098342665
0.048363794 -1.2822446 0.085474588
0.093241975 -1.2564842 0.072096065
0.14357941 -1.297606 0.062069423
0.0010507171 -1.3359587 0.052746862
0.04726376 -1.2695519 0.038016222
0.093252271 -1.2653002 0.026088776
0.14406535 -1.307006 0.014344141
0.00083897746 -1.2969946 0.0036898132
0.045713227 -1.2401289 -0.0084688133
0.092971206 -1.2684327 -0.02046806
0.14114609 -1.2848456 -0.033147451
0.00016002801 -1.2982554 -0.04397494
0.046274044 -1.2679675 -0.054931585
0.092079721 -1.2668847 -0.067147754
0.14093129 -1.2857846 -0.080699258
-0.00069751398 -1.2917851 -0.091191404
0.046259552 -1.2860459 -0.10308761
0.089768566 -1.2377756 -0.11121716
0.14067423 -1.2869649 -0.12858234
-0.001065381 -1.3004915 -0.13994676
0.044969253 -1.2655458 -0.14831318
0.092381209 -1.2784392 -0.16224374
0.13953815 -1.2794657 -0.1757779
-0.0020606716 -1.2568748 -0.18210402
0.042937472 -1.2276869 -0.18971117
0.091962285 -1.2794759 -0.2109134
0.13502005 -1.2398448 -0.21750988
-0.0027399964 -1.1381236 -0.20812574
0.038938321 -1.1285659 -0.21753861
0.084506765 -1.1858773 -0.24067144
0.13387749 -1.232952 -0.26406494
-0 -0 -0
0.034278214 -1.0067568 -0.23328513
0.078993492 -1.1101496 -0.26898524
0.12757602 -1.1711088 -0.29741114
-0 -0 -0
0 -0 -0
0.077514015 -1.0934006 -0.30949593
0.093965299 -0.86229318 -0.25463119
-0 -0 0
0.040159121 -1.2244469 0.36386979
0.086031497 -1.2140163 0.3485958
0.13504921 -1.2448692 0.34563494
-0 -0 0
0.041299764 -1.2693683 0.3251459
0.087408736 -1.2467198 0.30727616
0.13601796 -1.2678305 0.30034155
-0 -0 0
0.042003859 -1.2854865 0.27859733
0.086440749 -1.2397361 0.25679487
0.13526489 -1.2693746 0.25098357
-0.0060926024 -1.3197653 0.24865927
0.041335307 -1.2752544 0.22723074
0.086410977 -1.2484152 0.21060309
0.13493067 -1.2708693 0.20278309
-0 -0 0
0.04029664 -1.2629517 0.17749667
0.086432606 -1.2582915 0.16497275
0.13656668 -1.297276 0.15817855
-0.038783159 -7.9502459 0.89894009
0.040169153 -1.2596459 0.13026015
0.087230124 -1.277402 0.12012945
0.13581958 -1.2962631 0.11008758
-0.039698429 -7.8839974 0.60138857
0 -0 0
0 -0 0
0.13706739 -1.3123713 0.062734284
-0.029479023 -5.5106277 0.21757588
0.039969955 -1.2858031 0.038494792
0 -0 0
0.13780174 -1.3247731 0.014529578
-0.029064313 -5.294899 0.015063655
0 -0 -0
0 -0 -0
0.13676389 -1.3194951 -0.034019075
-0.03154818 -5.2468963 -0.17772783
0 -0 -0
0.084569633 -1.2714113 -0.067358911
0.13427106 -1.2985384 -0.081446476
-0 -0 -0
0.038278498 -1.2833165 -0.10284807
0.083293147 -1.2551981 -0.11273457
0.13277492 -1.2878039 -0.12858234
-0 -0 -0
0.037086446 -1.2618268 -0.14784786
0.083291948 -1.2601733 -0.15985779
0.13188763 -1.282269 -0.17604853
-0.0098573156 -1.2677244 -0.18368129
0.036429089 -1.2634907 -0.19520561
0.083139338 -1.2652467 -0.20847979
0.12761123 -1.2426099 -0.21785349
-0 -0 -0
0 -0 -0
0.078056447 -1.1990882 -0.24325077
0.12272365 -1.1987227 -0.25656787
-0 -0 -0
0.028127402 -1.0079221 -0.23351075
0.068839155 -1.0592051 -0.25653437
0.11959515 -1.1641536 -0.29545289
-0 -0 -0
0.027452627 -1.0109503 -0.27482724
0 -0 -0
0.10564202 -1.0279793 -0.30336037
-0 -0 0
0.031725712 -1.1901726 0.35361993
0.080070503 -1.2375455 0.35520428
0.12711404 -1.2427975 0.34483671
-0.076335438 -6.9414101 1.8534366
0.034047063 -1.2899345 0.33035415
0.079695389 -1.2462635 0.30703738
0.12882349 -1.2744519 0.30171716
-0 -0 0
0.033804387 -1.273996 0.27605692
0.079080723 -1.2441524 0.2576043
0.12747361 -1.2701807 0.25098357
-0.10210125 -9.4953766 1.7891247
0.033561427 -1.2774523 0.22758143
0.079307728 -1.2577796 0.21209674
0.12762144 -1.276587 0.20356666
-0 -0 0
0.032240476 -1.2512959 0.17582743
0.080009706 -1.2795802 0.16769637
0.12752759 -1.2872229 0.15685439
-0 -0 0
0.032592975 -1.2658349 0.130877
0.078649677 -1.2659887 0.1190085
0.12717903 -1.2901306 0.10949843
-0 -0 0
0.032092284 -1.2617948 0.084078819
0 -0 0
0.12735198 -1.296288 0.061926953
-0.06306152 -5.4903603 0.21678685
0.03185533 -1.2770311 0.038225599
0.078269266 -1.2753305 0.026273804
0.12918372 -1.3206177 0.014475037
-0.061599154 -5.2986207 0.015075035
0.03152344 -1.2825829 -0.0087554296
0.076850951 -1.2604959 -0.020323237
0.12643498 -1.2974254 -0.033429448
-0.063499108 -5.2266164 -0.17705077
0.030710647 -1.2684399 -0.054931585
0.076826975 -1.2729032 -0.067411706
0.12630086 -1.2993379 -0.081446476
-0 -0 -0
0.030545125 -1.2895063 -0.10332717
0.076547422 -1.2715929 -0.11416272
0.12429471 -1.2826514 -0.12798934
-0.024013678 -1.8342521 -0.19740196
0.030012842 -1.290826 -0.15122128
0.076210998 -1.2715541 -0.16123913
0.12287339 -1.2712196 -0.17442471
-0.017621974 -1.2666506 -0.18353792
0.027330542 -1.2044088 -0.18604821
0.075843625 -1.2736131 -0.20977773
0.11913271 -1.2345444 -0.21630722
-0.016417531 -1.1183326 -0.20452806
0.024846192 -1.11816 -0.2154578
0.068506233 -1.1623645 -0.23571119
0.11564703 -1.2023739 -0.25719261
-0.014672231 -0.93809122 -0.20806397
0.023193203 -1.0655408 -0.246822
0 -0 -0
0.11244979 -1.1648655 -0.29545289
-0 -0 -0
0 -0 -0
0 -0 -0
0.081163026 -0.84045976 -0.24787107
-0.020141786 -1.1339325 0.35037211
0.026270743 -1.2804353 0.38038343
0.06904842 -1.1794717 0.33840778
0.12022357 -1.2512304 0.34696534
-0 -0 0
0.026347337 -1.3007733 0.33308232
0.072495148 -1.2544848 0.30894741
0.11989781 -1.2635901 0.29896593
-0.13741994 -8.0283632 1.8235297
0.027142508 -1.3308532 0.28833553
0.072792232 -1.2680792 0.26246095
0.11875763 -1.2611699 0.24905439
-0.16378054 -9.6969814 1.8272661
0.025445057 -1.2638539 0.22512676
0.072428882 -1.2730106 0.21458614
0.1194172 -1.2734128 0.20293982
-0 -0 0
0.024698084 -1.2584008 0.17680115
0.072045229 -1.278067 0.16743696
0.11696447 -1.2593154 0.15336338
-0 -0 0
0.024649832 -1.2570605 0.12995172
0.071881682 -1.2843407 0.12068994
0.11981054 -1.29684 0.11000341
-0 -0 0
0.024233961 -1.2559823 0.083680019
0.071709223 -1.2868953 0.073752783
0.11857168 -1.2880931 0.061499543
-0.097259142 -5.5188427 0.21793094
0.024319721 -1.2931924 0.038704164
0.068292856 -1.2368543 0.025472021
0.12171684 -1.3283559 0.014551396
-0.094287314 -5.3081412 0.015103483
0.023855859 -1.2937499 -0.0088304952
0.068239681 -1.2449698 -0.020065779
0.11729066 -1.2852348 -0.033096176
-0.096262202 -5.2641006 -0.17833717
0.022981225 -1.271601 -0.05506134
0.068907052 -1.2713563 -0.067306124
0.11543106 -1.2682818 -0.0794539
-0 -0 -0
0.022527348 -1.2836896 -0.10284807
0.067937419 -1.2571203 -0.11282384
0.11768079 -1.2972643 -0.129373
-0.035688527 -1.85594 -0.19975582
0.022057932 -1.2889997 -0.15098862
0.068354182 -1.2710073 -0.16111358
0.11498176 -1.2709628 -0.17428941
-0.02563173 -1.2783921 -0.18525858
0.020332497 -1.2282692 -0.18971117
0.068395734 -1.2809519 -0.2109134
0.11022635 -1.220535 -0.2137301
-0.026063673 -1.2519634 -0.22899227
0.018726956 -1.1644369 -0.22434852
0.057601582 -1.0913137 -0.22122724
0.10774124 -1.197216 -0.25594309
-0 -0 -0
0.016289361 -1.0422846 -0.24140725
0.051949885 -0.98619926 -0.23868033
0.10137434 -1.1220796 -0.28443766
-0 -0 -0
0 -0 -0
0 -0 -0
0.073067993 -0.80845094 -0.23829423
-0 -0 0
0.018041514 -1.2546924 0.37269601
0.06115621 -1.1673928 0.33482823
0.1124576 -1.2509844 0.34669927
-0.15944341 -6.8510885 1.8297044
0.018078271 -1.2805686 0.32787403
0.065547526 -1.2694528 0.31252873
0.1125723 -1.2691498 0.30011228
-0.18461534 -7.938653 1.8033766
0.018460533 -1.2948369 0.28050262
0.065060198 -1.26948 0.2626633
0.11136097 -1.2657847 0.24982606
-0.21974765 -9.542531 1.7983824
0.017896373 -1.2787523 0.22775674
0.064016782 -1.2616127 0.2125946
0.1113429 -1.2711699 0.20246968
-0 -0 0
0.016989576 -1.2595189 0.17694026
0.064350992 -1.281456 0.16782606
0.1109501 -1.2797897 0.15577096
-0 -0 0
0.016882595 -1.2532097 0.12954049
0.063306272 -1.2708361 0.11938215
0.11108083 -1.2886158 0.10924593
-0 -0 0
0.016933881 -1.2870362 0.085740454
0.06346564 -1.280331 0.073352881
0.10972583 -1.2778491 0.060977153
-0.13112029 -5.5181422 0.21793094
0.01648568 -1.301313 0.038943447
0.061976194 -1.2632133 0.026006542
0.10998844 -1.2872328 0.014093255
-0.12695126 -5.3114619 0.015114863
0.015990913 -1.2998714 -0.0088714398
0.061085369 -1.255352 -0.020226691
0.11024984 -1.2958912 -0.033352539
-0.12907279 -5.2843924 -0.17904809
0.01529763 -1.2817081 -0.05549388
0.061056931 -1.2707577 -0.067253336
0.11043082 -1.3017843 -0.081508741
-0.13184889 -5.2552643 -0.37110326
0.01482097 -1.2987548 -0.10404583
0.060127307 -1.2555238 -0.11264532
0.10753942 -1.2721814 -0.12680334
-0.049647577 -1.957068 -0.21066909
0.013919461 -1.2682545 -0.14854582
0.062347639 -1.3090593 -0.16588545
0.10751396 -1.2755936 -0.17483068
-0.031091621 -1.1871927 -0.17206679
0.011827948 -1.1354772 -0.17536455
0.058066726 -1.229108 -0.20231463
0.10570826 -1.2565283 -0.21991521
-0 -0 -0
0.010722398 -1.0781229 -0.20770207
0.050128207 -1.0750027 -0.21785428
0.10186359 -1.2153984 -0.25969166
-0.027681453 -0.9915151 -0.21997191
0 -0 -0
0.045310427 -0.97387689 -0.23562634
0.097008228 -1.1526315 -0.29202592
-0 -0 -0
0 -0 -0
0 -0 -0
0.068347566 -0.8117525 -0.23913924
-0.035002146 -1.1651152 0.36011288
0.0092284726 -1.1196201 0.33255079
0.054835692 -1.1859921 0.34005988
0.10711158 -1.279508 0.35441551
-0.20108023 -6.8364611 1.826093
0.010228242 -1.2816242 0.32812205
0.057889447 -1.2727413 0.313245
0.10438259 -1.2649662 0.29896593
-0.23438269 -7.9734359 1.8115706
0.01062632 -1.3086081 0.28346643
0.056740128 -1.2581154 0.26023498
0.10327219 -1.2625322 0.24905439
-0.28110328 -9.637269 1.8165274
0.0098950276 -1.2591486 0.22425009
0.056318395 -1.2629669 0.21276057
0.10370133 -1.2737979 0.20278309
-0.35513684 -12.139067 1.8275418
0.0096541485 -1.3130729 0.18445188
0.056268651 -1.2768737 0.16717757
0.10245799 -1.2725301 0.15480793
-0 -0 0
0.0093459385 -1.2741778 0.13169949
0.054942746 -1.2582698 0.11816778
0.1017412 -1.2713941 0.10773097
-0 -0 0
0.0091625471 -1.3050755 0.086936831
0.054698996 -1.2597504 0.072153188
0.10124824 -1.2705325 0.060597233
-0.16509597 -5.5212288 0.21808875
0.0084484303 -1.2933935 0.038704164
0.054395556 -1.2675653 0.026088776
