# .PCD v0.7 - Point Cloud Data file format
VERSION 0.7
FIELDS x y z
SIZE 4 4 4
TYPE F F F
COUNT 1 1 1
WIDTH 1514
HEIGHT 1
VIEWPOINT 0 0 0 1 0 0 0
POINTS 1514
DATA ascii
0.68893361 -2.707248 0.77109325
0.16655199 -1.2146865 0.32735017
0.20738485 -1.1822379 0.30728891
0.25722072 -1.2001915 0.30178481
0.34668544 -1.3691392 0.33266839
0.16958447 -1.2366424 0.28347316
0.20719077 -1.1801631 0.25954431
0.25483909 -1.1913111 0.25173587
0.42967364 -1.7019957 0.34512648
0.16957383 -1.2344838 0.23477286
0.20942043 -1.1946996 0.21600948
0.25621274 -1.2007033 0.20662004
0.48300409 -1.916345 0.31357729
0.17200701 -1.2530082 0.19032864
0.21600622 -1.2359483 0.17624474
0.26772279 -1.2578702 0.16821514
0.65470445 -2.6073663 0.32598746
0.16965337 -1.2374657 0.1412283
0.21283984 -1.2179562 0.1277927
0.24990384 -1.1764687 0.11284322
0.68155462 -2.719924 0.23683979
0.16855673 -1.2309036 0.09476795
0.21311669 -1.2218039 0.082616575
0.25444728 -1.1992995 0.070153691
0.68085074 -2.7209418 0.13335191
0.17069134 -1.2494118 0.049787991
0.21306655 -1.2250528 0.037208643
0.24985462 -1.1805956 0.024814146
0.67946899 -2.720258 0.030586289
0.16943206 -1.2414867 0.0035646383
0.21185282 -1.2207245 -0.0084551647
0.25208727 -1.1935103 -0.019631315
0.68457866 -2.7449934 -0.072550103
0.16841668 -1.238888 -0.042350002
0.21257623 -1.2275633 -0.053936761
0.25494984 -1.2107204 -0.065405719
0 -0 -0
0.16874567 -1.2475061 -0.088867605
0.20602831 -1.1934675 -0.097018942
0 -0 -0
0 -0 -0
0.16585231 -1.2286991 -0.1334202
0.20544042 -1.1931674 -0.14179903
0 -0 -0
0 -0 -0
0.1647407 -1.228062 -0.17952302
0.19623634 -1.1435304 -0.17918013
0 -0 -0
0 -0 -0
0.15981717 -1.1983424 -0.22107738
0.18251732 -1.0666004 -0.20845872
0.18114656 -0.86631125 -0.17916431
0.2114628 -0.8524754 -0.18701132
0.14619659 -1.1043012 -0.24703537
0.16650648 -0.97569871 -0.22922407
0 -0 -0
0 -0 -0
0.12619263 -0.96015495 -0.25333568
0.16129716 -0.94946957 -0.26171523
0.17539231 -0.84032953 -0.24237961
0.19504492 -0.78499967 -0.23744923
0.15053038 -1.1558803 0.36011288
0.1992981 -1.176713 0.35447407
0.24882841 -1.1923349 0.34887117
0 -0 0
0.15934643 -1.2176015 0.32786611
0.20448798 -1.2092783 0.31398526
0.2462936 -1.1846336 0.29748723
0 -0 0
0.16300583 -1.2453951 0.28524488
0.20434888 -1.2074301 0.26526022
0.25946304 -1.2503854 0.26387745
0.390165 -1.5864501 0.32120493
0.16225152 -1.23745 0.23514318
0.20224996 -1.1969328 0.21618481
0.25603592 -1.2370167 0.2125946
0.47924352 -1.9518838 0.31890541
0.1650863 -1.259923 0.19122152
0.20364808 -1.2089313 0.17221072
0.24797189 -1.2012246 0.16043341
0.64128798 -2.6219418 0.32731164
0.16295969 -1.2453803 0.14201477
0.20784082 -1.2339525 0.12933485
0.24227868 -1.1760297 0.1126564
0.65634704 -2.6892054 0.23380986
0.16319752 -1.2487226 0.096060924
0.20429248 -1.2152168 0.082084849
0.24929702 -1.2115948 0.07078211
0.66721731 -2.7376842 0.13396928
0.16392612 -1.2573714 0.05006415
0.20505007 -1.2233796 0.037118908
0.24361092 -1.1870034 0.024916939
0.65969223 -2.711745 0.030444484
0.16051985 -1.2325867 0.0035361894
0.20237935 -1.210166 -0.0083732754
0.24656491 -1.2038504 -0.019776138
0.66984636 -2.7578852 -0.072780833
0.15926929 -1.2280046 -0.04194377
0.20619102 -1.2357424 -0.054239534
0.24891458 -1.2191108 -0.065775238
0 -0 -0
0.16172616 -1.2534647 -0.089219697
0.20311706 -1.2212584 -0.099174924
0 -0 -0
0 -0 -0
0.16275337 -1.2642077 -0.13716495
0.19909054 -1.2002844 -0.14249696
0 -0 -0
0 -0 -0
0.15757903 -1.2319947 -0.17995319
0.18905492 -1.143738 -0.17902753
0 -0 -0
0.2059014 -0.85123253 -0.15273799
0.15370181 -1.2090588 -0.22287622
0.1836341 -1.1142063 -0.21753861
0 -0 -0
0.208295 -0.86231351 -0.18888558
0.14760466 -1.170074 -0.2615414
0.16225447 -0.98727655 -0.23170583
0.18914491 -0.93360674 -0.23022315
0.20541589 -0.84909558 -0.22054933
0.13880637 -1.1087437 -0.29231042
0.15095067 -0.92282337 -0.25411028
0 -0 -0
0.19090153 -0.78897941 -0.23829423
0.14978398 -1.2079841 0.37605229
0.19176562 -1.1760215 0.35390463
0.24265137 -1.1994927 0.35052326
0.27601957 -1.1431704 0.32461479
0.15689097 -1.2588234 0.33870038
0.19628584 -1.2057294 0.31274518
0.2395957 -1.1889784 0.2982035
0.31553599 -1.3136644 0.31822446
0.15198375 -1.2192767 0.27904391
0.19646487 -1.2057674 0.2646251
0.24734491 -1.2298719 0.25922316
0.36991319 -1.5449191 0.31233081
0.15477738 -1.2393973 0.23532832
0.19679876 -1.209812 0.21828879
0.23951954 -1.1940882 0.20496045
0.41926932 -1.7540257 0.28615299
0.1517196 -1.2157745 0.18437622
0.20050597 -1.236551 0.17596653
0.24818213 -1.2406427 0.16549154
0.33524239 -1.4080383 0.17551319
0.15531512 -1.2463567 0.14201477
0.19978794 -1.232259 0.12902643
0.24265951 -1.2155722 0.1162995
0.63476694 -2.6718538 0.23195823
0.15565558 -1.2506899 0.096136987
0.19284774 -1.191823 0.080423214
0.23756361 -1.1915615 0.069525279
0.60867548 -2.5658131 0.12537359
0.15546937 -1.2524039 0.049827438
0.19929065 -1.2354696 0.037447926
0.23983276 -1.2061263 0.025286993
1.7312107 -7.311388 0.081963405
0.15590708 -1.2573659 0.0036044668
0.19415566 -1.2064486 -0.0083391536
0.23528142 -1.1857257 -0.019454312
1.2138315 -5.1347437 -0.13530722
0.15405817 -1.2478046 -0.042586971
0.19733773 -1.229093 -0.053893507
0.24297969 -1.2284522 -0.066197552
0.25941893 -1.0985914 -0.070425048
0.15524772 -1.2643342 -0.089923881
0.19498971 -1.2185445 -0.09885551
0.19329938 -0.97808653 -0.089348622
0 -0 -0
0.15450968 -1.2612351 -0.13673697
0.19422612 -1.2171763 -0.14435814
0.19439571 -0.98498958 -0.12708257
0.20014708 -0.84964108 -0.11921503
0.15192924 -1.2486571 -0.1822474
0.1809472 -1.1380442 -0.17795914
0.19430934 -0.98654604 -0.16532366
0 -0 -0
0.14710671 -1.2168151 -0.2241354
0.17448799 -1.1007645 -0.21470116
0.20109034 -1.024274 -0.21130674
0.20188095 -0.85881472 -0.18784432
0.13925999 -1.1612643 -0.25937632
0.1561936 -0.98825359 -0.23170583
0.18285139 -0.93188828 -0.2295184
0 -0 -0
0.12994349 -1.0922824 -0.28775495
0.14738457 -0.93707818 -0.25778165
0.17172886 -0.87641752 -0.25216174
0.18847604 -0.80040956 -0.24139263
0.14482759 -1.2297559 0.38254613
0.1835068 -1.1705468 0.3519116
0.23066615 -1.1773738 0.34363946
0.29744345 -1.2658956 0.35893884
0.15030007 -1.269357 0.34127998
0.18498942 -1.1820263 0.30629683
0.23173779 -1.1875669 0.29748723
0.32807094 -1.4037232 0.33954644
0.14794001 -1.2492384 0.2856878
0.18634023 -1.1895703 0.26081452
0.23605005 -1.2121414 0.25517598
0.37445202 -1.6073642 0.3244845
0.14670651 -1.2364203 0.23458771
0.18754652 -1.1993246 0.21618481
0.23482035 -1.2090881 0.2072839
0.28277254 -1.2159356 0.19808179
0.14903052 -1.2569441 0.19047746
0.19520238 -1.252435 0.1780531
0.234155 -1.2090443 0.1610819
0 -0 0
0.14509459 -1.2255772 0.13954301
0.18839402 -1.2088907 0.12645617
0.23859675 -1.234634 0.11798094
0 -0 0
0.14786148 -1.2506312 0.096060924
0.19105117 -1.2284776 0.082815968
0.23251818 -1.2047601 0.070210822
0 -0 0
0.14836688 -1.258296 0.050024696
0.19384986 -1.2504977 0.037866671
0.2329945 -1.2105206 0.025348669
1.6744219 -7.2702279 0.081385277
0.15251663 -1.2950448 0.0037097272
0.18781915 -1.2145349 -0.008386923
0.22969878 -1.1959844 -0.019599132
1.1807345 -5.1352754 -0.13512778
0.14884275 -1.2695717 -0.043297883
0.18628906 -1.2075708 -0.052898683
0.23543748 -1.22992 -0.066197552
0.27613094 -1.2022997 -0.076963186
0.14852645 -1.2741802 -0.090557635
0.18554018 -1.20691 -0.097817451
0.22639972 -1.1837138 -0.10800382
0 -0 -0
0.14607893 -1.2562338 -0.13609502
0.1857006 -1.2114729 -0.14354388
0.20621528 -1.079713 -0.13913782
0 -0 -0
0.14312972 -1.2397344 -0.18081352
0.17038022 -1.1156862 -0.17429619
0.20728081 -1.0875579 -0.18203449
0 -0 -0
0.1410946 -1.2303995 -0.2264739
0.16580939 -1.0891945 -0.21224202
0.19388716 -1.0206741 -0.21031469
0.2024927 -0.88578111 -0.19346716
0.13477904 -1.1853776 -0.2645725
0.15714347 -1.0354263 -0.24253531
0.18927707 -0.99697477 -0.24525814
0.1990924 -0.8695097 -0.22520021
0.12649061 -1.1218998 -0.29534742
0.13875036 -0.91888118 -0.25253686
0.16616879 -0.87650925 -0.25189
0.18013422 -0.78658617 -0.23688588
0.1346311 -1.2068825 0.37516677
0.17860349 -1.1868176 0.3564671
0.22486986 -1.1863232 0.3458423
0.27463937 -1.2019156 0.3403134
0.13949256 -1.2433716 0.33405712
0.18205057 -1.2118795 0.31373727
0.22660825 -1.2004172 0.30035228
0.29745027 -1.3088952 0.31616107
0.13864097 -1.2355863 0.28236586
0.18470523 -1.2283834 0.2690708
0.22860806 -1.2135669 0.25517598
0.31711295 -1.4000541 0.28223592
0.14230143 -1.2656173 0.23995711
0.18193769 -1.212136 0.21828879
0.22503027 -1.1979067 0.20512642
0.27770224 -1.2282444 0.19980562
0.14087364 -1.2539041 0.1898822
0.18663494 -1.2477328 0.17721847
0.22800991 -1.2172806 0.16198976
0.27476156 -1.2202868 0.15167807
0.14200251 -1.2659434 0.14403714
0.18479832 -1.2356017 0.12912923
0.22351734 -1.1959488 0.114151
0.27890655 -1.2415267 0.10747847
0.14362578 -1.282233 0.09841872
0.18012236 -1.206929 0.081287265
0.22512154 -1.2061641 0.070210822
0.27632916 -1.2319639 0.060027353
0.14197434 -1.2710993 0.05049812
0.18514392 -1.2447429 0.037657298
0.22666013 -1.2178249 0.025472021
0.27021033 -1.2070516 0.013493311
0.14157417 -1.2691228 0.0036329157
0.18740767 -1.2631435 -0.0087144841
0.2272851 -1.2239139 -0.020033596
0.26424468 -1.1824354 -0.031070927
0.14226311 -1.2813877 -0.043670267
0.18033864 -1.2185742 -0.053331215
0.22261629 -1.2028655 -0.064666666
0.26744395 -1.1981268 -0.076589577
0.14059602 -1.2740761 -0.090487227
0.18060327 -1.2247902 -0.099174924
0.22148664 -1.197813 -0.1091642
0 -0 -0
0.14076123 -1.2788488 -0.13844885
0.17999716 -1.2243813 -0.14493977
0.20318905 -1.1004698 -0.14164934
0 -0 -0
0.13874426 -1.2701037 -0.18511519
0.17312552 -1.1822269 -0.18452197
0.19774312 -1.0732826 -0.17943864
0.18848655 -0.84718531 -0.15136351
0.13428484 -1.2380878 -0.22773308
0.17131971 -1.1737533 -0.22851013
0.18832876 -1.0257006 -0.21110833
0.19005407 -0.85549861 -0.1865948
0.12854657 -1.1958892 -0.26673761
0.15373288 -1.0566164 -0.24727322
0.18613863 -1.0143703 -0.24925181
0 -0 -0
0.123089 -1.1553628 -0.30395222
0.14209415 -0.98179352 -0.26958242
0.16633788 -0.90780401 -0.26058525
0.18093251 -0.81296474 -0.24449101
0.12702309 -1.2057855 0.37457642
0.17282313 -1.1983279 0.35959899
0.21983857 -1.1999736 0.34942186
0 -0 0
0.13410085 -1.265341 0.33973223
0.17530136 -1.2177681 0.31497732
0.21819273 -1.1960531 0.29891977
0 -0 0
0.13383226 -1.2625965 0.28834537
0.1721465 -1.1946692 0.26144961
0.21957901 -1.2062756 0.25335476
0 -0 0
0.13505211 -1.2713526 0.2408829
0.17365579 -1.2073827 0.2172368
0.21785194 -1.2002354 0.20529239
0 -0 0
0.1338034 -1.2606449 0.19077508
0.174761 -1.2194467 0.17304535
0.22071308 -1.2196324 0.16211945
0.25220844 -1.1530938 0.14313112
0.13506979 -1.274696 0.14493597
0 -0 0
0 -0 0
0.24982716 -1.1448869 0.098977819
0.13690947 -1.2939974 0.099255353
0 -0 0
0 -0 0
0 -0 0
0.13878453 -1.3156697 0.052233994
0 -0 0
0 -0 0
0 -0 0
0.14101307 -1.3385876 0.0038292126
0 -0 -0
0 -0 -0
0 -0 -0
0.13814862 -1.3180197 -0.044888973
0 -0 -0
0 -0 -0
0 -0 -0
0.13504899 -1.2967421 -0.092036419
0 -0 -0
0 -0 -0
0 -0 -0
0.13393885 -1.2895778 -0.13951878
0 -0 -0
0 -0 -0
0 -0 -0
0.13348424 -1.2955426 -0.18869992
0 -0 -0
0.18787001 -1.0560173 -0.17635605
0.19763964 -0.91476691 -0.16321832
0.12738602 -1.2457385 -0.22899227
0 -0 -0
0.18151841 -1.0239416 -0.21051311
0.19923885 -0.92357433 -0.20117252
0.12376422 -1.2219095 -0.27236679
0.15382981 -1.1048204 -0.25832832
0.18041974 -1.0183645 -0.24995656
0.19639401 -0.90884787 -0.23474674
0.11918478 -1.1878625 -0.31230396
0 -0 -0
0.16260858 -0.91923183 -0.26357424
0.1789813 -0.82812744 -0.24871609
0.1213189 -1.2236563 0.37988958
0.16481201 -1.1946177 0.3581754
0.21565276 -1.2192863 0.35465357
0.26312026 -1.2202721 0.34457064
0.12662213 -1.2690243 0.34050611
0.17152607 -1.2456924 0.32192171
0.21135502 -1.2002386 0.29963604
0.25708544 -1.19919 0.28887814
0.12579209 -1.2604829 0.28768095
0.16854955 -1.2228122 0.2673772
0.21335958 -1.2143519 0.25477126
0.25808921 -1.2080894 0.24288109
0.12842239 -1.2838913 0.24310471
0.16852516 -1.225006 0.22021745
0.21150427 -1.2073774 0.20628813
0.261785 -1.2276961 0.19917876
0.1254757 -1.2555383 0.1898822
0.17171268 -1.2528725 0.17763577
0.21800166 -1.2483133 0.16575094
0.25213802 -1.1876366 0.14722402
0.12675266 -1.270557 0.14437421
0.16894643 -1.2328489 0.12861519
0.21275479 -1.2211612 0.1162995
0.24672033 -1.16492 0.10057695
0.12807764 -1.2858833 0.098570831
0.16948782 -1.2396948 0.083347693
0.20876303 -1.1999835 0.069696665
0.25395793 -1.2010579 0.058365207
0.12982062 -1.3075475 0.051878925
0.16972016 -1.2459307 0.037627388
0.21391968 -1.2333207 0.025739282
0.25682274 -1.2171254 0.013569667
0.13003451 -1.3115644 0.0037495559
0.16664317 -1.226704 -0.0084483409
0.21241917 -1.2275962 -0.020049687
0.25610158 -1.2159135 -0.031865645
0.12790096 -1.2969613 -0.044144206
0.1648348 -1.2167354 -0.053158205
0.21292846 -1.2350295 -0.066250347
0.24676251 -1.1729949 -0.074783809
0.12679806 -1.2945681 -0.091825165
0.16955863 -1.2565498 -0.10157045
0.20575653 -1.1945515 -0.10862864
0 -0 -0
0.12496054 -1.2794904 -0.13834187
0.16615009 -1.2353572 -0.14598669
0.20480248 -1.1908761 -0.15295115
0 -0 -0
0.1248647 -1.2894417 -0.18769619
0.1618844 -1.2087508 -0.18833756
0.18405679 -1.0727108 -0.1789519
0 -0 -0
0.12068053 -1.2562885 -0.23079112
0.14988916 -1.1232082 -0.21829526
0.18596743 -1.0878328 -0.22340976
0.19497083 -0.93148077 -0.2026303
0.11266003 -1.184742 -0.26392299
0.14961639 -1.1250577 -0.2628406
0.17285825 -1.0117874 -0.24807718
0.19678287 -0.93850404 -0.24209023
0.109083 -1.1587127 -0.30445838
0.11991586 -0.90692931 -0.24860325
0.16133435 -0.94582641 -0.27091083
0.17724459 -0.84517449 -0.25350451
0.11159767 -1.2005942 0.37251022
0.15973215 -1.2127137 0.36330032
0.20315707 -1.1912091 0.34611765
0.24871901 -1.1888403 0.33525795
0.11964338 -1.278435 0.34282774
0.16122806 -1.2265509 0.31671342
0.20658712 -1.2168308 0.30345607
0.24972251 -1.2007449 0.28887814
0.11732849 -1.2534636 0.28590924
0.16359353 -1.243203 0.27161121
0.20426898 -1.2059826 0.25274765
0.2472869 -1.1933166 0.23960152
0.11879783 -1.2660652 0.23958682
0.16139005 -1.2289454 0.22074345
0.20376357 -1.2067077 0.20595621
0.25144655 -1.2157388 0.19698483
0.11832327 -1.262192 0.19077508
0.16170999 -1.2362281 0.1751319
0.20424844 -1.2134489 0.1609522
0.25185311 -1.2231929 0.1514373
0.11839885 -1.2653747 0.14370008
0.16460362 -1.2585198 0.13118543
0.20674168 -1.2312807 0.11714023
0.24057025 -1.1712922 0.10099778
0.11999973 -1.2846595 0.09841872
0.16136163 -1.2367537 0.083081827
0.20882469 -1.24555 0.07226745
0.25420782 -1.2397771 0.060169827
0.12096164 -1.2993652 0.051523864
0.16516407 -1.2707379 0.03834524
0.2081611 -1.2454573 0.025965424
0.24694447 -1.2069225 0.01343877
0.12355784 -1.3292645 0.0037979188
0.16451114 -1.2693542 -0.0087349564
0.20175858 -1.2101376 -0.019743955
0.2462357 -1.2057086 -0.031558014
0.11984858 -1.2967266 -0.044110354
0.15762204 -1.2197055 -0.05324471
0.20518282 -1.2353275 -0.066197552
0.24175464 -1.185244 -0.075468749
0.11766748 -1.2824082 -0.090909727
0.16019131 -1.244714 -0.10053238
0.2013578 -1.2134777 -0.11023531
0.19878614 -0.9760623 -0.098932303
0.1176508 -1.2861737 -0.13898382
0.16046217 -1.2511305 -0.14773156
0.19749154 -1.1921104 -0.15295115
0 -0 -0
0.11480625 -1.2665287 -0.18425485
0.1573436 -1.2322689 -0.19184791
0.17747129 -1.0738199 -0.1789519
0.20484287 -1.0078703 -0.17936833
0.11314592 -1.2589649 -0.23115088
0.15612915 -1.227361 -0.23834665
0.18342902 -1.1140981 -0.22856842
0 -0 -0
0.10927893 -1.2291709 -0.27366585
0.14614031 -1.1530162 -0.2691578
0.16159689 -0.98213726 -0.24055971
0.20859684 -1.026157 -0.26436546
0.10214075 -1.1612877 -0.30496454
0.12255101 -0.97275352 -0.26643556
0.16270365 -0.99048239 -0.28341025
0.16804074 -0.82650042 -0.24758941
0.10588066 -1.2202936 0.37841371
0.15193003 -1.2108175 0.36244616
0.20394585 -1.241762 0.36043593
0.23452203 -1.1563342 0.32567912
0.11204915 -1.2820324 0.34360158
0.15718947 -1.2553935 0.32390583
0.19755028 -1.2084919 0.30106854
0.2415808 -1.1984378 0.28796107
0.11031455 -1.2619317 0.28768095
0.15134297 -1.207333 0.26356661
0.20017536 -1.2275107 0.25699723
0.24498349 -1.2198236 0.24461733
0.11214259 -1.2794968 0.2419938
0.15347975 -1.2269818 0.22021745
0.19588085 -1.2050152 0.20545833
0.24417627 -1.218227 0.19714153
0.11049013 -1.2619091 0.19062626
0.1558354 -1.2509545 0.17707935
0.19790909 -1.2215308 0.16186006
0.24395452 -1.2227682 0.15119654
0.11106493 -1.2710268 0.14426185
0.15712428 -1.2614803 0.13139106
0.19759442 -1.2226974 0.1162061
0.23512916 -1.1815419 0.10175527
0.11280809 -1.2933183 0.099027179
0.15623035 -1.2575241 0.084411144
0.19847463 -1.2300524 0.07129626
0.24523351 -1.2344555 0.059837397
0.11264054 -1.296101 0.051366054
0.15625912 -1.2627994 0.038076043
0.20099148 -1.2496724 0.0260271
0.23797886 -1.2005682 0.013351505
0.11367048 -1.3100725 0.003741021
0.15708676 -1.2733171 -0.0087554296
0.19607165 -1.2222124 -0.019920956
0.25027987 -1.2650559 -0.033070542
0.11188976 -1.2974375 -0.044110354
0.15489161 -1.2593218 -0.054931585
0.19602339 -1.2267023 -0.065669663
0.23351024 -1.1818093 -0.075157411
0.11039189 -1.2900634 -0.091402657
0.15303555 -1.2496312 -0.10085179
0.19218114 -1.2038714 -0.10925347
0 -0 -0
0.10882735 -1.2759742 -0.13780691
0.15362446 -1.2589928 -0.14854582
0.19142227 -1.2011375 -0.15395576
0.20034108 -1.0168309 -0.14154246
0.10644975 -1.2603062 -0.18325114
0.15156692 -1.2479272 -0.19413726
0.18265319 -1.1489516 -0.19128223
0.19960624 -1.013941 -0.18022738
0.1038602 -1.2410104 -0.22773308
0.15012838 -1.2409686 -0.24080577
0.17383038 -1.0977775 -0.22499704
0 -0 -0
0.10149337 -1.2268995 -0.2730163
0.14349227 -1.1906455 -0.27773115
0.15799831 -0.99847144 -0.24431846
0.19012129 -0.96558243 -0.2484546
0.096747987 -1.1831056 -0.31053239
0.12782493 -1.0673865 -0.29213506
0.15587227 -0.98670912 -0.28205162
0.16741586 -0.85011017 -0.25434953
0.099005073 -1.2285392 0.38077509
0.14574635 -1.2221975 0.36557809
0.19347312 -1.2249483 0.35520428
0.23485458 -1.1955864 0.33632225
0.10441528 -1.2855847 0.34437549
0.14982693 -1.2592201 0.32464984
0.19058374 -1.2125592 0.30178481
0.2372065 -1.2151829 0.29162934
0.10185877 -1.2538371 0.2856878
0.14774716 -1.2402647 0.27055272
0.19263972 -1.2287159 0.25699723
0.23824339 -1.2251565 0.245389
0.10365129 -1.2723252 0.24051258
0.14594825 -1.2279004 0.22021745
0.18894006 -1.2091174 0.20595621
0.23632047 -1.2177633 0.19682811
0.10250451 -1.2596066 0.19017984
0.14629462 -1.2361526 0.1748537
0.1980388 -1.2717094 0.16834484
0.2358824 -1.2213178 0.15083541
0.10414862 -1.2825789 0.14549774
0.14926414 -1.2614329 0.13128825
0.19100519 -1.2297896 0.11676657
0.22787493 -1.1829624 0.10175527
0.10374268 -1.2800723 0.097962379
0.15061627 -1.2762955 0.085607521
0.19138238 -1.2342068 0.071467645
0.23199596 -1.2065098 0.058412693
0.10404246 -1.2887999 0.051050439
0.14745785 -1.2548 0.03780685
0.19454147 -1.2587866 0.026191568
0.23211507 -1.2098621 0.01343877
0.10466596 -1.2987843 0.0037068827
0.1485728 -1.2682978 -0.0087144841
0.19009179 -1.2332745 -0.02008187
0.23273721 -1.2155123 -0.031737465
0.10312913 -1.2881373 -0.043771826
0.14658226 -1.2552869 -0.05471532
0.18970497 -1.2357783 -0.066091977
0.23075326 -1.2067471 -0.076651841
0.10152676 -1.2787837 -0.090557635
0.14594054 -1.2554973 -0.10125104
0.18796113 -1.2257023 -0.11112791
0.22150224 -1.160234 -0.11731532
0.10005511 -1.2647239 -0.13652298
0.14646779 -1.2648448 -0.14912744
0.18735127 -1.223864 -0.15671842
0.19613934 -1.0287471 -0.14303097
0.100105 -1.2786952 -0.18583213
0.14402005 -1.2498155 -0.19428986
0.17813191 -1.1666335 -0.19404034
0.19669932 -1.0325658 -0.18331994
0.096091509 -1.2396629 -0.22737332
0.13982435 -1.2184534 -0.23626584
0.16959615 -1.1152961 -0.22837
0.18784221 -0.9877587 -0.21408421
0.090908222 -1.1875883 -0.26413947
0.13563076 -1.1866639 -0.27660307
0.15683377 -1.0320954 -0.25230578
0.19000007 -0.99720895 -0.25628763
0.08511088 -1.1257954 -0.29534742
0.12595426 -1.109381 -0.30341136
0.14851601 -0.97908354 -0.27960607
0.16111881 -0.84546614 -0.25265947
0.090330586 -1.2138785 0.37605229
0.14233568 -1.2592655 0.37639737
0.18191713 -1.199499 0.34749442
0.22373426 -1.1771179 0.33073458
0.094211414 -1.255371 0.33612081
0.1435089 -1.2726303 0.32787403
0.18458891 -1.223308 0.30417234
0.22920397 -1.2137462 0.29094154
0.095477365 -1.2719423 0.28967413
0.14057285 -1.2450324 0.27139953
0.18451384 -1.226001 0.25618777
0.22963317 -1.2208095 0.24423149
0.096875444 -1.2866563 0.24310471
0.14017445 -1.244426 0.22302277
0.18020111 -1.2014769 0.20446259
0.23048379 -1.2279267 0.19823851
0.094773777 -1.2602118 0.19017984
0.13859664 -1.2360429 0.1747146
0.1823179 -1.2199448 0.16134128
0.22565006 -1.2081044 0.14902972
0.095533453 -1.273285 0.14437421
0.1414105 -1.2613364 0.13118543
0.18433633 -1.236847 0.11732706
0.22115952 -1.1872771 0.10200775
0.096556358 -1.2896336 0.098646894
0.14189538 -1.2692628 0.085075796
0.18468741 -1.2412828 0.071810417
0.23061413 -1.2403179 0.059979863
0.095686838 -1.2834353 0.050813735
0.14218822 -1.2775363 0.038464881
0.18652077 -1.2579787 0.026150452
0.22979365 -1.2387923 0.013744197
0.096323751 -1.2944158 0.0036926582
0.14178011 -1.2781304 -0.008775901
0.18266723 -1.2354068 -0.020097962
0.22709425 -1.2267472 -0.031993825
0.094781451 -1.2827655 -0.043568708
0.14129247 -1.2780089 -0.05566689
0.18197332 -1.235931 -0.066039182
0.22679168 -1.2267873 -0.077834934
0.093241312 -1.2734135 -0.090135135
0.1393244 -1.2662776 -0.10204956
0.17985711 -1.222891 -0.11077087
0.22214505 -1.2036501 -0.12156516
0.092799343 -1.2722554 -0.13727194
0.13946143 -1.2726308 -0.1499417
0.1828644 -1.2456033 -0.15935551
0.2153247 -1.1682947 -0.16224611
0.090762287 -1.2585562 -0.18282098
0.13795525 -1.2654127 -0.19657925
0.1736863 -1.1862549 -0.1971229
0.20481086 -1.1122295 -0.19723643
0.088063248 -1.2343419 -0.22629401
0.13425271 -1.2368603 -0.2396708
0.16402222 -1.1250446 -0.23015571
0.18513761 -1.00717 -0.21804102
0.08608707 -1.2231832 -0.27193376
0.12897511 -1.1932852 -0.27795675
0.16282931 -1.1176821 -0.27297887
0.1882683 -1.0221945 -0.26240721
0.081418037 -1.1726222 -0.30749539
0.12367586 -1.1523507 -0.3149499
0.13765855 -0.94664383 -0.27009565
0.15957858 -0.8662551 -0.2585746
0.081709668 -1.1972519 0.37073916
0.13216262 -1.2372388 0.36956415
0.17814991 -1.2253276 0.35465357
0.21929429 -1.193638 0.33499184
0.088166587 -1.2800221 0.34256977
0.13518424 -1.2686704 0.32663396
0.17568941 -1.2148067 0.30178481
0.21948054 -1.2026815 0.28796107
0.088073231 -1.2783413 0.2910029
0.13458988 -1.2614206 0.27478674
0.17712758 -1.2280794 0.25639015
0.22441915 -1.2347456 0.2467394
0.087420188 -1.264678 0.23884621
0.13472426 -1.2658213 0.22670476
0.17507006 -1.2181776 0.20711793
0.22135885 -1.2205716 0.19682811
0.086494625 -1.2528775 0.18898936
0.13382611 -1.2634588 0.1784704
0.17482902 -1.2210405 0.16134128
0.21876186 -1.2123971 0.14939086
0 -0 0
0.13523975 -1.2770178 0.13272758
0 -0 0
0 -0 0
0 -0 0
0.13620004 -1.289955 0.086405106
0 -0 0
0 -0 0
0 -0 0
0.13873442 -1.3201361 0.03972112
0 -0 0
0 -0 0
0 -0 0
0.13862166 -1.3237306 -0.0090829898
0 -0 -0
0 -0 -0
0 -0 -0
0.13583294 -1.3017062 -0.056661714
0 -0 -0
0 -0 -0
0 -0 -0
0.13299313 -1.2809893 -0.10316747
0 -0 -0
0 -0 -0
0.084659964 -1.2678406 -0.13673697
0.13236503 -1.2803781 -0.15075597
0.17383732 -1.2368776 -0.15809976
0 -0 -0
0.083754621 -1.2699522 -0.18439823
0.13089578 -1.2731171 -0.1976476
0.16763695 -1.1960932 -0.19858308
0.19884478 -1.1183147 -0.19809549
0 -0 -0
0.12726077 -1.2435217 -0.24080577
0.16063756 -1.1512684 -0.23531437
0.18989319 -1.0699205 -0.23136923
0.077328868 -1.2042029 -0.26760361
0.1218483 -1.1959926 -0.27840799
0.16375326 -1.1744969 -0.28660432
0.17605078 -0.98991948 -0.25383982
0.0748934 -1.1837204 -0.31027928
0.11427273 -1.1300453 -0.30865616
0.13728584 -0.98655146 -0.28123644
0.15089954 -0.84832436 -0.25294116
0.073177822 -1.1786586 0.36483568
0.12408873 -1.2332574 0.36814055
0.17076056 -1.2273498 0.35492891
0.21213451 -1.1959102 0.33525795
0.079887539 -1.2737893 0.34076408
0.12875156 -1.2829709 0.33010617
0.17009553 -1.2293288 0.30512738
0.21614972 -1.2270122 0.2934635
0.078579299 -1.2525798 0.28502342
0.12684742 -1.2622228 0.27478674
0.16999045 -1.2320535 0.25699723
0.21633005 -1.2332001 0.24616066
0.081202395 -1.2897098 0.24347502
0.12607111 -1.2578076 0.22512676
0.16517498 -1.2016438 0.20413065
0.21420594 -1.2238525 0.19714153
0.079115748 -1.2583191 0.18973342
0.12499025 -1.2534169 0.17694026
0.17083089 -1.2476324 0.16471337
0.21404311 -1.2293649 0.15131693
0.077849157 -1.2416347 0.14066654
0.12592131 -1.2629768 0.13118543
0.17049113 -1.2488807 0.11826119
0.21628824 -1.2458625 0.10680515
0.08034987 -1.2847503 0.098190546
0.12788774 -1.2867948 0.086139239
0.16971064 -1.2454342 0.071924672
0.20770243 -1.1987652 0.057842813
0.079991959 -1.2855102 0.050853182
0.12836915 -1.2980844 0.039033182
0.17106938 -1.2601728 0.026150452
0.21542595 -1.2464455 0.013798737
0.080246128 -1.2925062 0.0036841235
0.12745742 -1.2937063 -0.0088714398
0.16977286 -1.2543995 -0.020371512
0.21627033 -1.2540698 -0.032634728
0.078664355 -1.2778468 -0.04336559
0.12725772 -1.2965494 -0.056402192
0.16865945 -1.2519265 -0.066778235
0.2140913 -1.2432483 -0.078706689
0.076455563 -1.2555439 -0.088797189
0.12387158 -1.2688839 -0.10212941
0.16922006 -1.2575808 -0.11371643
0.20954928 -1.2190349 -0.12284999
0.076939195 -1.2693286 -0.13684396
0.12316131 -1.2673265 -0.14912744
0.16796128 -1.2507033 -0.15973224
0.20415643 -1.1894031 -0.16481715
0.075842634 -1.2684664 -0.18411146
0.12336674 -1.2768474 -0.19810547
0.16291389 -1.2166597 -0.2018279
0.19014765 -1.1088333 -0.1962056
0.072329782 -1.2255099 -0.22449517
0.11850059 -1.2325499 -0.23853581
0.16444732 -1.2338407 -0.25198081
0.18843998 -1.1009513 -0.23782508
0.06773176 -1.1666437 -0.2591598
0.11302283 -1.1812011 -0.27479815
0.1449953 -1.0887638 -0.26546139
0.1732516 -1.0100936 -0.25873545
0.065146521 -1.1406934 -0.29889059
0.10441851 -1.0999833 -0.30026448
0 -0 -0
0.15607485 -0.90975881 -0.27096817
0.066371158 -1.186717 0.36719707
0.11597857 -1.2282693 0.36643225
0.16246669 -1.2226567 0.35327682
0.20853083 -1.2190428 0.34137774
0.072997682 -1.2906538 0.34514937
0.1199688 -1.2740918 0.32762602
0.1626765 -1.2313119 0.30536613
0.21057262 -1.2398307 0.2962147
0.071718387 -1.2676425 0.28834537
0.11928368 -1.2649233 0.27521011
0.16012539 -1.2155968 0.25335476
0.20810479 -1.2306343 0.245389
0.072730035 -1.2803725 0.24162349
0.11853532 -1.2605178 0.22547741
0.16087773 -1.2261008 0.20811369
0.20833552 -1.2348827 0.19870862
0.071561337 -1.2617428 0.19017984
0.11775815 -1.2590901 0.17763577
0.16355778 -1.2516066 0.16510244
0.20567445 -1.2257599 0.15071504
0.070902288 -1.253994 0.14201477
0.11928078 -1.2756102 0.13241915
0.16295354 -1.2508907 0.1183546
0.20436496 -1.2216134 0.10461687
0.071454912 -1.2672998 0.096821502
0.11934163 -1.2806009 0.085673988
0.16425394 -1.2632825 0.072895855
0.20708694 -1.2404118 0.059789903
0.07227052 -1.2889698 0.050971538
0.12113994 -1.3068099 0.039272465
0.16487478 -1.2730968 0.026397154
0.20613137 -1.2378803 0.013689656
0.071811378 -1.2839882 0.0036585194
0.12098797 -1.310396 -0.0089806272
0.16168875 -1.2524427 -0.020323237
0.20513076 -1.2346641 -0.032096371
0.071817309 -1.2962675 -0.04397494
0.11829349 -1.2863624 -0.055926409
0.16072008 -1.2509568 -0.066672653
0.20482548 -1.2346925 -0.078084007
0.069786139 -1.274914 -0.090135135
0.11608352 -1.2696202 -0.10212941
0.16238786 -1.2655107 -0.11434124
0.20320341 -1.2271699 -0.12354182
0.069041163 -1.2677913 -0.13662998
0.11565283 -1.2710258 -0.14947641
0.16154405 -1.2615509 -0.16098799
0.20234968 -1.2238694 -0.16941796
0.067368977 -1.2560606 -0.1822474
0.11624188 -1.2854544 -0.19932647
0.15744483 -1.2332973 -0.20442377
0.18831724 -1.14011 -0.20153168
0.064704977 -1.223966 -0.2241354
0.11137544 -1.2381438 -0.23948163
0.15440306 -1.2153804 -0.2480126
0.18470383 -1.1204227 -0.24178188
0.060774509 -1.1709373 -0.26002586
0.10750981 -1.201279 -0.27931044
0.14896084 -1.1735251 -0.28589955
0.1665764 -1.0082678 -0.25800112
0.05804766 -1.1391393 -0.2983844
0.1024439 -1.1544319 -0.3149499
0.11368006 -0.89746106 -0.25542247
0.16394308 -0.99211317 -0.29519191
0.059943326 -1.2042787 0.37251022
0.10751303 -1.2184539 0.36330032
0.15653169 -1.2360289 0.35685638
0.20167379 -1.2241039 0.34244204
0.064055614 -1.2708139 0.33973223
0.11155458 -1.2680486 0.32588992
0.15584593 -1.2380677 0.30679864
0.20343247 -1.2439812 0.29690254
0.064430006 -1.2777981 0.29055998
0.1098901 -1.2471336 0.27118781
0.15839458 -1.2622257 0.26286566
0.2043338 -1.2551311 0.25001895
0.065369554 -1.2906091 0.24347502
0.11166026 -1.2710288 0.22723074
0.15163942 -1.2133656 0.20579025
0.20075449 -1.2361377 0.19870862
0.064716928 -1.2799349 0.19285841
0.11003031 -1.2597889 0.17763577
0.15342605 -1.2329073 0.16250853
0.20020694 -1.2397392 0.15227997
0.063806653 -1.2663143 0.14336301
0.11015356 -1.2614541 0.130877
0.15466239 -1.2469268 0.11788754
0.2009833 -1.2484229 0.10680515
0.064778045 -1.2896231 0.098494783
0.11061689 -1.2713687 0.085009329
0.1560089 -1.2603035 0.072667345
0.20058106 -1.2485626 0.060122333
0.063762419 -1.2774132 0.05049812
0.11208539 -1.2955786 0.038913541
0.15754938 -1.2780538 0.02647939
0.20280319 -1.2657802 0.013984174
0.063633345 -1.2784122 0.0036414503
0.11114294 -1.2901917 -0.008837319
0.15656145 -1.2742518 -0.020661155
0.20023353 -1.2526809 -0.032532185
0.063370585 -1.2867017 -0.043636411
0.10954448 -1.2771099 -0.05549388
0.15510127 -1.2687703 -0.067570068
0.19991966 -1.252681 -0.079142563
0.062688217 -1.2902633 -0.091191404
0.10778308 -1.2643492 -0.1016503
0.15437838 -1.264506 -0.11416272
0.19692209 -1.2362553 -0.1243325
0.060157478 -1.2453498 -0.13416915
0.10835537 -1.2776493 -0.15017435
0.15344037 -1.2595639 -0.16061126
0.19468072 -1.2241094 -0.16928263
0.059942309 -1.2623818 -0.18310775
0.10627816 -1.2615235 -0.19551086
0.15082608 -1.2420765 -0.20572168
0.17822658 -1.1217854 -0.19809549
0.056321509 -1.2056704 -0.22071762
0.10484187 -1.2515247 -0.24194077
0.15140979 -1.2532806 -0.2555522
0.17384326 -1.0964189 -0.23636732
0.055239566 -1.2073728 -0.26803663
0.09843827 -1.1815282 -0.27457252
0.14350465 -1.1888922 -0.28942341
0.16084316 -1.0121435 -0.25873545
0.049757782 -1.1104798 -0.29079193
0.095358513 -1.1550387 -0.3149499
0.10471892 -0.86947757 -0.24727067
0.14233837 -0.89549607 -0.26617974
0.051678389 -1.1845785 0.36631155
0.097917989 -1.1932949 0.35561296
0.14986403 -1.2446017 0.35905918
0.19506422 -1.2310307 0.34403849
0.057452887 -1.298209 0.34695506
0.10377188 -1.2687093 0.32588992
0.14928465 -1.2476785 0.30894741
0.19579571 -1.245206 0.29690254
0.056804031 -1.2830404 0.29166731
0.10263481 -1.2526548 0.2722463
0.15006687 -1.2583117 0.26185384
0.19556656 -1.2495754 0.24866857
0.057361923 -1.2890224 0.24310471
0.10321818 -1.2638402 0.2258281
0.14570318 -1.2270035 0.20794773
0.19286124 -1.2353947 0.19839521
0.057300929 -1.2901869 0.19434653
0.10285907 -1.2673495 0.17860951
0.14911759 -1.261397 0.16614
0.19061701 -1.2281915 0.15071504
0.056518558 -1.2776016 0.1445989
0.10217001 -1.259132 0.13056858
0.14910528 -1.2656505 0.11956898
0.18996787 -1.2279683 0.10495353
0.056644298 -1.2850156 0.098114491
0.10345693 -1.2799799 0.085541055
0.1499048 -1.2751185 0.073467143
0.19383055 -1.255693 0.060407273
0.055617329 -1.2707925 0.050221954
0.10437388 -1.2992309 0.039003268
0.15086673 -1.2889265 0.026684973
0.19335926 -1.2561294 0.013864185
0.055962291 -1.2827747 0.0036528297
0.10386206 -1.2988236 -0.0088919131
0.14804481 -1.2692298 -0.020564608
0.19117792 -1.2449931 -0.032301459
0.054785751 -1.2710903 -0.043094765
0.10241966 -1.2867212 -0.055883154
0.14662279 -1.2637464 -0.067253336
0.19192711 -1.251911 -0.079018027
0.054178018 -1.2766709 -0.090205543
0.099551715 -1.2590246 -0.1011712
0.14535564 -1.254546 -0.11318087
0.18767735 -1.2266202 -0.12324534
0.054525167 -1.2933775 -0.1393048
0.099579535 -1.2664083 -0.14877847
0.14559503 -1.2594962 -0.1604857
0.18716605 -1.2252809 -0.16928263
0.052481465 -1.2696475 -0.18411146
0.098920204 -1.2670783 -0.19627398
0.14467016 -1.255722 -0.20783082
0.17728423 -1.1618122 -0.20496784
0.048085287 -1.1853527 -0.21694006
0.095869265 -1.2355014 -0.23872498
0.1415969 -1.2356849 -0.25178239
0.17270745 -1.1342082 -0.24428092
0.046825714 -1.1823256 -0.26240742
0.091186702 -1.18211 -0.27457252
0.1311214 -1.1453279 -0.27861702
0.15038729 -0.9853155 -0.25163674
0.043279439 -1.1194648 -0.29306969
0.082242802 -1.0767018 -0.29344624
0.10790039 -0.94468403 -0.26846531
0.14277804 -0.935242 -0.27772829
0.044587903 -1.1896472 0.36778742
0.089506231 -1.1795353 0.35134217
0.14080659 -1.233081 0.3554796
0.18620192 -1.2236276 0.34164378
0.048419159 -1.2705389 0.33947426
0.097007953 -1.2828461 0.32936212
0.14228292 -1.2543604 0.31037995
0.18684396 -1.2377218 0.29483908
0.047481414 -1.2453609 0.28303024
0.094503753 -1.2474138 0.27097613
0.13981314 -1.2368273 0.25719959
0.18658373 -1.2420189 0.24693233
0.048999596 -1.2775663 0.2408829
0.095609687 -1.2664131 0.22617877
0.13938469 -1.2386538 0.20977329
0.18644817 -1.2443687 0.1996489
0.048664968 -1.2717395 0.19151913
0.095228925 -1.2699318 0.17888771
0.14016101 -1.251449 0.16471337
0.18190756 -1.2214828 0.14975199
0.048375696 -1.2699808 0.14370008
0.092657462 -1.2359291 0.12810114
0.14233035 -1.2754469 0.12040969
0.17921112 -1.2074263 0.10310189
0.048115965 -1.2684003 0.096821502
0.094338372 -1.2636753 0.084411144
0.14207801 -1.2760143 0.073467143
0.1853905 -1.2519182 0.060169827
0.048269615 -1.283092 0.050695378
0.096399985 -1.2998469 0.039003268
0.1427349 -1.2878404 0.026643855
0.18783911 -1.2721304 0.014027806
0.04722885 -1.2601101 0.0035873973
0.094639599 -1.2824829 -0.008775901
0.14146136 -1.2810463 -0.02074161
0.18499181 -1.2560327 -0.032557823
0.047391459 -1.2823887 -0.043467149
0.093425162 -1.2723796 -0.055234358
0.14137283 -1.2874529 -0.068467483
0.18482265 -1.2570149 -0.079267092
0.046958517 -1.2939261 -0.091402657
0.092114508 -1.2635884 -0.10149059
0.13895789 -1.2672954 -0.11425199
0.18404795 -1.2543317 -0.12591383
0.046051398 -1.2787834 -0.1376999
0.091376439 -1.2610518 -0.14808051
0.13915865 -1.2722002 -0.16199259
0.18380877 -1.2548362 -0.17320687
0.044307206 -1.259066 -0.18253417
0.091781564 -1.2765331 -0.1976476
0.13685556 -1.2556052 -0.20766859
0.17100789 -1.1687266 -0.20599869
0.040811196 -1.1856254 -0.21694006
0.088776268 -1.2429225 -0.24004912
0.13369539 -1.2336072 -0.25118718
0.16532092 -1.1323431 -0.24365616
0.035325889 -1.0557451 -0.23426141
0.08441446 -1.1894497 -0.27615184
0.127858 -1.1809 -0.28707418
0.1543076 -1.0543342 -0.26901636
0.035969529 -1.1061721 -0.28952652
0.074891232 -1.0665971 -0.29056162
0.11016257 -1.0199596 -0.28965995
0.14787745 -1.0101529 -0.29969865
0.036659081 -1.1698439 0.36158875
0.083733723 -1.2011006 0.35760596
0.13478598 -1.2482587 0.3596099
0.17896871 -1.2266548 0.34217593
0.04040629 -1.2640524 0.33766854
0.08846353 -1.2737529 0.32688197
0.13458364 -1.2552098 0.31037995
0.18022162 -1.2455884 0.296444
0.040306725 -1.2602488 0.28635219
0.088340685 -1.2694197 0.27563351
0.13565445 -1.2697963 0.26387745
0.17881951 -1.2421693 0.2467394
0.041824047 -1.2984691 0.24477108
0.087224506 -1.2581365 0.22460076
0.13417976 -1.2620397 0.21359037
0.176283 -1.2278922 0.19682811
0.041178294 -1.2818977 0.19300723
0.087570965 -1.2724681 0.17916593
0.13529612 -1.2789088 0.16821514
0 -0 0
0 -0 0
0 -0 0
0.13554513 -1.2861975 0.12134382
0 -0 0
0 -0 0
0 -0 0
0.13654245 -1.2987058 0.074723966
0 -0 0
0 -0 0
0 -0 0
0.13743109 -1.3135511 0.027157821
0 -0 0
0 -0 0
0 -0 -0
0.13556761 -1.3007854 -0.021047344
0 -0 -0
0.039491199 -1.2816565 -0.043433297
0 -0 -0
0.13429376 -1.2962425 -0.068889797
0 -0 -0
0.039168552 -1.2991751 -0.091754749
0.084890522 -1.2720866 -0.10212941
0.13169171 -1.2730777 -0.11469828
0.17717859 -1.26135 -0.12650684
0.038174376 -1.2780482 -0.13759291
0.084228367 -1.2705081 -0.14912744
0.13206272 -1.2799381 -0.16287163
0.17528027 -1.2500532 -0.17239495
0.03729929 -1.2840455 -0.18611892
0.083558232 -1.2711552 -0.19673185
0.13096489 -1.2740898 -0.21058893
0.15932432 -1.1375588 -0.20032901
0 -0 -0
0.079933181 -1.2248265 -0.23645499
0.12552588 -1.2285541 -0.24999672
0.1655439 -1.1846753 -0.25469357
0.032446541 -1.1876907 -0.26348996
0.078815602 -1.216194 -0.28224343
0.11952405 -1.1710255 -0.28449005
0.15308163 -1.0927089 -0.27856287
0 -0 -0
0.073896818 -1.1537092 -0.31416318
0.10477936 -1.0292331 -0.29210547
0.12516533 -0.89321321 -0.26477137
0.029215645 -1.1595403 0.35834184
0.076544724 -1.2044618 0.35846013
0.12566419 -1.2347161 0.3554796
0.17183866 -1.2305939 0.34297416
0.033447605 -1.2951832 0.34592324
0.080891021 -1.278139 0.32787403
0.12785527 -1.2656736 0.31276748
0.1692387 -1.2225664 0.29071227
0.032573227 -1.2604724 0.28635219
0.079807609 -1.2582333 0.27309313
0.12815472 -1.273528 0.26448455
0.17039123 -1.2374108 0.2455819
0.034009662 -1.3045956 0.24588199
0.078261815 -1.238997 0.22109412
0.12643351 -1.2628392 0.21359037
0.1692829 -1.2328646 0.19745496
0.033517417 -1.2900345 0.19419771
0.079328105 -1.2660631 0.17819218
0.12685676 -1.2737948 0.16743696
0.16797774 -1.231492 0.15071504
0.032249093 -1.2496186 0.14134066
0.079722434 -1.2727123 0.13180229
0.12598006 -1.2701621 0.1197558
0.16988237 -1.250017 0.10655265
0.032674957 -1.2738793 0.097201802
0.076217249 -1.2229118 0.081619591
0.12748991 -1.2885904 0.074095555
0.17028195 -1.2560786 0.060264803
0.031963695 -1.2616119 0.049827438
0.078714326 -1.2729979 0.038165774
0.12838937 -1.3044198 0.026952235
0.17234789 -1.2753307 0.014038715
0.031509925 -1.2505981 0.0035589486
0.078526348 -1.2775592 -0.0087349564
0.12602292 -1.2856711 -0.020789884
0.16876332 -1.252264 -0.032404006
0.031552408 -1.2788773 -0.043331739
0.077621289 -1.2704387 -0.055104598
0.12488548 -1.2821336 -0.068097964
0.17137912 -1.2740256 -0.080201119
0.030956807 -1.2894188 -0.091050565
0.076601394 -1.2646236 -0.10149059
0.12166051 -1.2510611 -0.11264532
0.16692069 -1.2436745 -0.124629
0.030567562 -1.2881981 -0.13866284
0.075775281 -1.2600954 -0.14784786
0.12411091 -1.2797368 -0.16274604
0.16839616 -1.2569973 -0.17320687
0.029601159 -1.2921654 -0.18726604
0.075051732 -1.2598057 -0.19490038
0.12172167 -1.2601367 -0.20815532
0.15795949 -1.1805015 -0.20771679
0.026128035 -1.1801362 -0.21586074
0.069809303 -1.1811832 -0.22794263
0.11601882 -1.2088128 -0.2458301
0.16163649 -1.2108752 -0.26010814
0.022781061 -1.0756203 -0.23859157
0.067701399 -1.1544118 -0.26780412
0.11261482 -1.1746396 -0.28519481
0.15048997 -1.12438 -0.28639594
0.022862161 -1.1297442 -0.2956005
0.063302688 -1.0934474 -0.29764208
0.1001108 -1.0471008 -0.29699653
0.11458945 -0.85592335 -0.25350451
0.022500789 -1.1807137 0.36483568
0.067340262 -1.1733267 0.34906444
0.11836015 -1.2383349 0.35630566
0.16364738 -1.2268476 0.34164378
0.025328739 -1.2866703 0.34360158
0.072328664 -1.2660379 0.32464984
0.11944515 -1.2596672 0.31109622
0.16543296 -1.2515661 0.29736105
0.025145857 -1.2762481 0.28989559
0.072309256 -1.2626022 0.27393991
0.12052224 -1.2762402 0.26488927
0.1630512 -1.2403787 0.24596775
0.025123009 -1.2605666 0.23755015
0.072563134 -1.2728729 0.22705542
0.11812919 -1.2577003 0.2125946
0.16299844 -1.2436727 0.19902207
0.025718989 -1.2961479 0.19509059
0.070943728 -1.2556503 0.17666206
0.11737879 -1.2567786 0.16510244
0.16272461 -1.2502192 0.15288186
0.024893606 -1.2656887 0.1431383
0.071014218 -1.2572876 0.13015734
0.11799975 -1.2689285 0.11956898
0.16323423 -1.2589413 0.10722598
0.02499412 -1.2810341 0.097734205
0.072237305 -1.2861181 0.085806914
0.11911988 -1.2843779 0.073809914
0.16269971 -1.2580904 0.060312297
0.024548018 -1.2787679 0.05049812
0.070957452 -1.274455 0.038195688
0.12075048 -1.3091652 0.027034469
0.16503069 -1.280331 0.014082346
0.024045395 -1.2617658 0.0035902425
0.070685916 -1.278017 -0.0087349564
0.11868042 -1.2923943 -0.020886432
0.1626056 -1.265174 -0.032711636
0.023889966 -1.2890394 -0.043670267
0.070098601 -1.2758789 -0.055320863
0.11619971 -1.2739253 -0.067622855
0.16305067 -1.2710934 -0.079952046
0.023133611 -1.2945712 -0.091402657
0.070194423 -1.2899532 -0.10348687
0.11407217 -1.2527759 -0.11273457
0.16320235 -1.2752739 -0.12769283
0.022732701 -1.2923379 -0.13909082
0.069059208 -1.2793802 -0.15005803
0.11580773 -1.2755342 -0.16211817
0.16319083 -1.2776632 -0.17591321
0.021406515 -1.2764902 -0.18497181
0.068216495 -1.2770193 -0.19749497
0.1149646 -1.27167 -0.20993996
0.15707071 -1.2312863 -0.21647903
0.01822534 -1.1389648 -0.20830563
0.063702568 -1.2031621 -0.23210424
0.11052781 -1.2309781 -0.25019512
0.15346289 -1.2060226 -0.25885862
0.015094203 -1.0035032 -0.22256999
0.062965885 -1.1995578 -0.27818236
0.10462382 -1.1665952 -0.28308052
0.15193336 -1.1906831 -0.30304116
0 -0 -0
0.055046536 -1.06394 -0.28951266
0.096512541 -1.0793275 -0.30596349
0.10168196 -0.79664761 -0.23575918
0.015502497 -1.1999367 0.37073916
0.059158526 -1.1545707 0.34337008
0.11041727 -1.2352078 0.35520428
0.15866983 -1.24791 0.34723142
0.017053846 -1.2587856 0.33612081
0.063868575 -1.252913 0.32117766
0.11094211 -1.2516706 0.30894741
0.15823689 -1.2564205 0.29827815
0.017221881 -1.2695528 0.28834537
0.063463084 -1.2415489 0.26928252
0.11088126 -1.2564698 0.26063973
0.16006994 -1.2783531 0.25329855
0.017889287 -1.2970537 0.24440077
0.064551562 -1.2693613 0.22635408
0.11066843 -1.2613486 0.21309249
0.15536435 -1.2446495 0.19902207
0.017968757 -1.3111129 0.19732274
0.064383119 -1.2788095 0.17986144
0.11112964 -1.2742679 0.16730727
0.15761416 -1.2718831 0.15540983
0.016777487 -1.2399846 0.14021713
0.064348288 -1.2785621 0.13231635
0.11055593 -1.2735962 0.11994263
0.15672706 -1.2698087 0.10806762
0.017133372 -1.2811635 0.097734205
0.06439431 -1.2875338 0.08587338
0.11046197 -1.2761329 0.073295757
0.15583135 -1.2660047 0.060644723
0.016766421 -1.2838902 0.050695378
0.062740676 -1.2668797 0.037956402
0.1120296 -1.3019127 0.026869999
0.15753685 -1.2842971 0.014115071
0.016341647 -1.2648895 0.0035987771
0.06215547 -1.2644438 -0.0086394176
0.10980966 -1.2821397 -0.020709429
0.15556768 -1.2721016 -0.032865454
0.015831467 -1.2771695 -0.043264035
0.062268637 -1.2762849 -0.055320863
0.11058063 -1.3004848 -0.068995371
0.15524831 -1.2720698 -0.079952046
0.015388779 -1.3116454 -0.092599764
0.06174951 -1.2794076 -0.10260852
0.1065516 -1.2554373 -0.1129131
0.15573512 -1.2792147 -0.12798934
0.014757089 -1.2884762 -0.13866284
0.061065435 -1.2768036 -0.14970906
0.10781174 -1.2742436 -0.16186702
0.15546766 -1.2796242 -0.17604853
0.013626327 -1.2815456 -0.18568875
0.059632991 -1.261619 -0.19505301
0.10889868 -1.2930001 -0.21334702
0.15058067 -1.2410284 -0.21802531
0.011042374 -1.1193823 -0.20470794
0.052463327 -1.1211369 -0.21621445
0.10321757 -1.2345632 -0.25079036
0.14758755 -1.2195644 -0.26156592
0 -0 -0
0.05127506 -1.106497 -0.2565234
0.09794905 -1.1730272 -0.28449005
0.13925083 -1.1473173 -0.29178113
0.0079876874 -1.0032084 -0.26244667
0 -0 -0
0.087253727 -1.0482504 -0.29699653
0 -0 -0
0.0082172966 -1.2114743 0.37428123
0.052375346 -1.1616154 0.34536311
0.10211863 -1.2272396 0.35272607
0.14776975 -1.2220646 0.33978125
0.0093655633 -1.2636971 0.3374106
0.057047281 -1.2726369 0.32613793
0.1042973 -1.2649091 0.31205121
0.14925197 -1.2467366 0.29575619
0.009286847 -1.2501318 0.28391609
0.056019492 -1.2458202 0.27012932
0.10381042 -1.2649348 0.26225856
0.14700601 -1.2354658 0.24461733
0.010043223 -1.3118793 0.24717805
0.057069466 -1.2766182 0.22758143
0.10116332 -1.2403808 0.20944138
0.14470011 -1.2200793 0.19494759
0.0099011296 -1.3082319 0.19687632
0.056054313 -1.268298 0.1783313
0.1032287 -1.2739375 0.16717757
0.14853063 -1.2619811 0.15408565
0.0091173416 -1.2331088 0.13943064
0.056501962 -1.2789328 0.13231635
0.10137896 -1.2573797 0.1183546
0.14928068 -1.2737155 0.10832012
0.0092431158 -1.277256 0.097429968
0.055705886 -1.2699617 0.084677003
0.10286966 -1.279772 0.073467143
0.15061112 -1.2887636 0.061689503
0.0088744704 -1.2819705 0.050616477
0.05518264 -1.2722338 0.038105953
0.10340229 -1.2946026 0.026705531
0.14953794 -1.2842463 0.014104163
0.00862082 -1.2709657 0.0036158462
0.054395821 -1.2648014 -0.0086394176
0.10154449 -1.2778057 -0.020628972
0.14948812 -1.2879274 -0.033249993
0.0081009492 -1.2942325 -0.043839533
0.053287163 -1.2496928 -0.054153029
0.10095043 -1.2802329 -0.0678868
0.14893289 -1.2858871 -0.08076153
0.007412951 -1.3246827 -0.093515202
0.054191656 -1.2867337 -0.10316747
0.098221257 -1.2481239 -0.11219902
0.14742629 -1.2761921 -0.12759399
0.0068508703 -1.2885425 -0.13866284
0.053891722 -1.2930318 -0.15157025
0.098905094 -1.2610346 -0.16010897
0.14715926 -1.2766168 -0.17550726
0.0058160527 -1.293481 -0.18740942
0.052418556 -1.2747979 -0.1970371
0.09950415 -1.2749524 -0.21026443
0.14217442 -1.2350783 -0.21682265
0.0047092396 -1.2630465 -0.23097099
0.048853356 -1.2018908 -0.2317259
0.095110841 -1.228333 -0.24940148
0.13619757 -1.1864377 -0.25427708
0.0027569155 -0.99580282 -0.22083795
0.040259287 -1.0016603 -0.23215705
0.08887621 -1.1493781 -0.27861702
0.1337612 -1.1616352 -0.29520813
0 -0 -0
0.040464967 -1.0259653 -0.27902305
0.080228589 -1.0410898 -0.29482272
0.096070416 -0.83405739 -0.24646272
0.00078367547 -1.211502 0.37428123
0.044687301 -1.1475466 0.34109232
0.091706835 -1.1904615 0.34198737
0.14433268 -1.2583822 0.34962609
0.0016964963 -1.3303956 0.35520977
0.049724214 -1.2855475 0.32936212
0.094096646 -1.2335725 0.30417234
0.14357513 -1.2650378 0.29988301
0.0017168506 -1.3281788 0.30163318
0.048904985 -1.259813 0.27309313
0.095824651 -1.2626184 0.26165152
0.14327098 -1.2704709 0.25136939
0.0020039468 -1.3187951 0.24847411
0.047793809 -1.2395607 0.22091879
0.094069481 -1.2478615 0.21060309
0.14129215 -1.2572584 0.20074587
0.0018723661 -1.3072792 0.1967275
0.047969904 -1.2607017 0.17721847
0.094521798 -1.2626815 0.16562124
0.14199433 -1.2737215 0.15540983
0.0015659543 -1.2450655 0.14077888
0.048351087 -1.2713035 0.13149387
0.093366213 -1.2540065 0.11798094
0.14058317 -1.2666845 0.1076468
0.0014025539 -1.2742975 0.097201802
0.047574032 -1.2613059 0.084078819
0.094867423 -1.2783879 0.073352881
0.14182174 -1.281721 0.061309583
0.0010232114 -1.3009861 0.051366054
0.047189388 -1.2675542 0.037956402
0.09435454 -1.2802564 0.026397154
0.14461313 -1.3119756 0.014398681
0.00081827794 -1.2649947 0.0035987771
0.047591854 -1.2910931 -0.0088168466
0.093848296 -1.2803991 -0.020661155
0.14289267 -1.3007447 -0.033557627
0.00016323103 -1.3242406 -0.044855118
0.045618191 -1.2499963 -0.054153029
0.091645382 -1.2609087 -0.066831023
0.14256245 -1.3006665 -0.081633285
-0.00072282914 -1.3386683 -0.094501048
0.046080392 -1.2810651 -0.10268836
0.091569699 -1.2626106 -0.11344865
0.13948482 -1.2760836 -0.12749517
-0.0010531633 -1.2855775 -0.13834187
0.04535722 -1.2764642 -0.14959273
0.091594674 -1.2675546 -0.16086242
0.1403975 -1.2873453 -0.17686044
-0.0020768973 -1.2667714 -0.18353792
0.043524712 -1.2444775 -0.19230577
0.092245243 -1.2834127 -0.21156237
0.1351267 -1.2408242 -0.21768169
-0.0031520615 -1.3092848 -0.23942554
0.037922535 -1.0991249 -0.21186368
0.081093051 -1.137973 -0.23094934
0.13166028 -1.2125325 -0.25969166
-0 -0 -0
0.034974389 -1.0272034 -0.23802303
0.076716825 -1.0781541 -0.26123282
0.12747103 -1.170145 -0.29716638
-0 -0 -0
0 -0 -0
0 -0 -0
0.090639099 -0.83176953 -0.2456177
-0 -0 0
0.038053751 -1.1602545 0.34479368
0.084536485 -1.1929197 0.34253806
0.13733643 -1.2659525 0.35148868
-0 -0 0
0.04155178 -1.2771142 0.32712999
0.086661652 -1.2360641 0.30464986
0.13601796 -1.2678305 0.30034155
-0 -0 0
0.040407967 -1.2366457 0.26801232
0.087939322 -1.2612287 0.26124677
0.13807207 -1.2957183 0.2561923
-0.036215372 -7.8448896 1.4780692
0.040856887 -1.2604945 0.22460076
0.087432377 -1.2631719 0.21309249
0.13513921 -1.2728336 0.20309651
-0 -0 0
0 -0 0
0.08751981 -1.2741191 0.16704789
0.13604702 -1.2923397 0.15757665
-0.038531099 -7.8985758 0.8930977
0 -0 0
0 -0 0
0.13685796 -1.3061733 0.11092923
-0.039939422 -7.9318576 0.60503936
0 -0 0
0 -0 0
0.13634107 -1.3054168 0.062401854
-0.028917773 -5.4057112 0.21343346
0 -0 0
0 -0 0
0.1390432 -1.3367081 0.014660476
-0.028905133 -5.2658997 0.014981153
0 -0 -0
0 -0 -0
0.13521795 -1.30458 -0.033634536
-0.031542171 -5.2458968 -0.17769396
0 -0 -0
0.085166134 -1.2803791 -0.06783402
0.1352976 -1.3084661 -0.082069159
-0.019132063 -2.8658042 -0.20231111
0.038427096 -1.2882984 -0.10324732
0.084084541 -1.2671241 -0.11380569
0.13277492 -1.2878039 -0.12858234
-0 -0 -0
