# .PCD v0.7 - Point Cloud Data file format
VERSION 0.7
FIELDS x y z
SIZE 4 4 4
TYPE F F F
COUNT 1 1 1
WIDTH 1538
HEIGHT 1
VIEWPOINT 0 0 0 1 0 0 0
POINTS 1538
DATA ascii
-0.67689538 2.3192244 0.43026567
-0.76622063 2.3068976 0.40909111
-0.86194688 2.3085055 0.39099216
-0.5915553 2.347352 0.36428815
-0.6633395 2.2770629 0.33315402
-0.77483529 2.3369238 0.32203406
-0.85461771 2.2951086 0.296976
-0.58018529 2.3039315 0.26863712
-0.68045008 2.3359506 0.25147301
-0.7604897 2.2967432 0.22699422
-0.84766889 2.2798533 0.20544632
-0.5835312 2.3187563 0.18238646
-0.68015361 2.3376677 0.16217573
-0.76735038 2.3193622 0.13979323
-0.87748867 2.3624535 0.11981726
-0.59646195 2.3732889 0.096617103
-0.67379963 2.3200555 0.072293639
-0.76475906 2.315459 0.050142258
-0.87256807 2.3522239 0.027368402
-0.58733559 2.3383565 0.0068590124
-0.67239916 2.3184056 -0.016473582
-0.7645185 2.3178549 -0.039278723
-0.86105108 2.3237886 -0.063551836
-0.58602053 2.3383024 -0.081653245
-0.67593938 2.3338091 -0.10519183
-0.76806933 2.3334107 -0.12986122
-0.85840273 2.3183799 -0.15423772
-0.58649719 2.3468034 -0.17076384
-0.65769172 2.2752631 -0.18972594
-0.73551363 2.2356882 -0.21091987
-0.76713711 2.0737786 -0.21960796
-0.49001834 1.9630845 -0.21773063
-0.48606595 1.6842839 -0.20531195
-0.54956657 1.6719527 -0.22277121
-0.60563755 1.6384319 -0.23856539
-0.29885772 1.2014608 -0.17937963
-0.31041685 1.0778955 -0.17322783
-0.4102498 1.2497251 -0.21626736
-0 0 -0
-0.2374289 0.95764494 -0.1804236
-0 0 -0
-0 0 -0
-0.36916292 1.0001458 -0.2269959
-0.21460238 0.86914772 -0.19853763
-0.24696825 0.86056846 -0.2073395
-0.27860895 0.85076749 -0.21636279
-0 0 -0
-0.20907591 0.85020769 -0.22903976
-0.23098327 0.80715245 -0.22814856
-0.25916567 0.79209608 -0.23531474
-0 0 -0
-0 0 0
-0.64608932 2.2619696 0.69869834
-0.74431556 2.2750847 0.6856268
-0.84093219 2.2789564 0.67051589
-0 0 0
-0.66322726 2.3242738 0.61879402
-0.75464809 2.3125384 0.59807831
-0.84708273 2.3040407 0.57821476
-0.5790472 2.3601251 0.5518868
-0.67050064 2.3485205 0.52903855
-0.74952823 2.2998431 0.49982923
-0.842116 2.2956018 0.48074636
-0.57000214 2.3209829 0.45028993
-0.65536129 2.2977715 0.42553166
-0.74167824 2.2796721 0.40344849
-0.85558105 2.3350801 0.39459649
-0.5688895 2.3173251 0.35907978
-0.65613341 2.3049009 0.3366316
-0.75772518 2.3331468 0.32086682
-0.83881563 2.2956471 0.29637411
-0.57195616 2.3315744 0.27144596
-0.6606577 2.3209479 0.24941683
-0.74238986 2.2890544 0.22577985
-0.8326394 2.2822034 0.20519383
-0.56501937 2.3048615 0.18101743
-0.6655243 2.3408375 0.16210927
-0.75310463 2.3240268 0.13979323
-0.85921401 2.35747 0.11929487
-0.57190919 2.3361404 0.094960131
-0.65463954 2.3068376 0.071755253
-0.75176817 2.3239129 0.05022449
-0.84888422 2.3321636 0.027073884
-0.57440251 2.3477445 0.0068760822
-0.65816104 2.3224876 -0.016473582
-0.75366306 2.332968 -0.039455727
-0.84472686 2.3233912 -0.063398018
-0.58872652 2.4117601 -0.084090658
-0.66051853 2.3340676 -0.10501881
-0.75741416 2.3494849 -0.1304947
-0.84552449 2.3273556 -0.15448679
-0.56760406 2.3319428 -0.16942587
-0.64371854 2.2792559 -0.18972594
-0.73277813 2.2742877 -0.21413322
-0.74455231 2.0513201 -0.21674179
-0.4737362 1.9486642 -0.21580476
-0.47248787 1.6757634 -0.20391607
-0.53443336 1.6601835 -0.22076201
-0.55739951 1.5368652 -0.22327447
-0.27586922 1.1388282 -0.16977257
-0.30192348 1.0731204 -0.17215945
-0.39502376 1.2287338 -0.21221134
-0.48883533 1.3484805 -0.25015354
-0.23547299 0.97533953 -0.18348165
-0 0 -0
-0 0 -0
-0.34769911 0.96008933 -0.21741626
-0.20858072 0.86760038 -0.19788811
-0.24115729 0.86019158 -0.20688826
-0.2733835 0.85246098 -0.21636279
-0 0 -0
-0 0 -0
-0.22524692 0.8057664 -0.22736184
-0.23873715 0.74509794 -0.22091325
-0 0 -0
-0.53990734 2.2669189 0.71993059
-0.64713985 2.3194454 0.71521193
-0.72124928 2.2512283 0.67709094
-0.822667 2.2722905 0.66705686
-0 0 0
-0.65545589 2.3516293 0.6249944
-0.73039448 2.2856755 0.58996069
-0.83788347 2.3229291 0.58165383
-0 0 0
-0.63848788 2.2895157 0.51485461
-0.72468412 2.2708125 0.49254426
-0.82934368 2.3044188 0.481518
-0 0 0
-0.64230698 2.3055432 0.42623302
-0.73725504 2.3142471 0.40875918
-0.84123713 2.340286 0.39459649
-0.56454402 2.3621287 0.36547861
-0.64038676 2.303159 0.33579698
-0.73918819 2.324523 0.31905106
-0.81767952 2.2811263 0.29384616
-0.55671591 2.3311741 0.27099657
-0.64160812 2.3077078 0.24756625
-0.73586392 2.3172898 0.22811519
-0.8243286 2.3032184 0.20662463
-0.56220776 2.3558085 0.18474427
-0.64607614 2.3266101 0.16084643
-0.73641503 2.3209913 0.1393362
-0.83262658 2.3288372 0.11758523
-0.56057549 2.3522415 0.095473006
-0.6455453 2.3291125 0.072323553
-0.73115528 2.3084664 0.049792763
-0.82917845 2.3222609 0.026899355
-0.56601012 2.3765171 0.0069500492
-0.64496511 2.3303375 -0.016500879
-0.73270053 2.3165753 -0.039101716
-0.83448464 2.3398297 -0.06370566
-0.55751288 2.3462899 -0.081687093
-0.64671677 2.3400023 -0.10510531
-0.74118036 2.3483744 -0.13017796
-0.82318723 2.3099363 -0.15299234
-0.55328488 2.3353817 -0.16942587
-0.63343167 2.2966156 -0.19084385
-0.71641248 2.2711422 -0.21341912
-0.74263221 2.0858488 -0.21990447
-0.49015892 2.0715094 -0.22907187
-0.46615157 1.6929946 -0.20566092
-0.52513117 1.6662701 -0.22113872
-0 0 -0
-0.27841416 1.1809564 -0.1757949
-0.30266422 1.1016359 -0.17643291
-0.34481895 1.0955967 -0.18884861
-0.41883275 1.1778817 -0.21802531
-0.22813408 0.97102028 -0.18240233
-0 0 -0
-0 0 -0
-0.33623585 0.94653666 -0.21387596
-0.20102952 0.85935771 -0.19572304
-0.23510303 0.85883611 -0.20621142
-0.27164152 0.865251 -0.21918184
-0 0 -0
-0.19533466 0.83857608 -0.22524352
-0.2230936 0.81737375 -0.23024647
-0.24136135 0.76950544 -0.2277064
-0 0 -0
-0.57127559 2.4656544 0.78191721
-0.61097628 2.2429054 0.69044149
-0.74021882 2.3601823 0.70848107
-0.80870903 2.2772956 0.66705686
-0.52523667 2.2604878 0.61961794
-0.65042591 2.3901932 0.63417089
-0.72621286 2.321625 0.59807831
-0.80510986 2.2757215 0.56858552
-0 0 0
-0.61800873 2.2698152 0.50956213
-0.71599317 2.2920423 0.49618676
-0.82465976 2.3362968 0.48711258
-0.54481685 2.34216 0.45306718
-0.6136784 2.2562408 0.41641435
-0.7344901 2.355443 0.41523162
-0.81963718 2.3249116 0.39114887
-0.54735214 2.3539901 0.36369288
-0.6249457 2.3022666 0.33510149
-0.72432196 2.3271215 0.31879169
-0.81551993 2.3198159 0.29817984
-0.55207127 2.3761654 0.27582777
-0.62952071 2.3192809 0.24838872
-0.72310895 2.3265152 0.22858225
-0.80457056 2.2922492 0.20519383
-0.54255569 2.3368745 0.18299493
-0.63048285 2.3257155 0.1605141
-0.72127157 2.3226056 0.13916482
-0.80807596 2.3046815 0.11611304
-0.54590619 2.3546636 0.095433556
-0.63071984 2.3311 0.072263725
-0.71579295 2.3090894 0.049710531
-0.796408 2.2744546 0.026288502
-0.54080892 2.3341584 0.0068163397
-0.64056528 2.3709347 -0.016760198
-0.72349882 2.337265 -0.039375268
-0.81318152 2.3250899 -0.063167304
-0.54580677 2.3613517 -0.082093336
-0.62974435 2.3342807 -0.10467278
-0.72469407 2.346199 -0.12980844
-0.79813254 2.2838516 -0.1509375
-0.53513682 2.3222079 -0.16822878
-0.61699575 2.2917962 -0.19012518
-0.68277931 2.2117319 -0.20743877
-0.74359608 2.1298249 -0.22405548
-0.44220543 1.9213872 -0.21216698
-0.45498145 1.6929455 -0.20531195
-0.51460487 1.6685129 -0.22101316
-0.56330138 1.6146883 -0.23355862
-0.25523797 1.1131887 -0.1654709
-0.29820275 1.1120634 -0.17780653
-0.31804857 1.0326225 -0.17765398
-0.42067927 1.2064751 -0.22283596
-0.2219526 0.97144276 -0.18222244
-0 0 -0
-0.25481886 0.82913184 -0.17559293
-0.32463047 0.93195635 -0.21012741
-0.19791822 0.87009466 -0.19788811
-0.23058325 0.86308616 -0.20688826
-0.25804919 0.83995599 -0.21236911
-0 0 -0
-0 0 -0
-0.21832249 0.81965977 -0.23050871
-0.2321171 0.75625163 -0.22335878
-0 0 -0
-0 0 0
-0.60532945 2.2771845 0.69983721
-0 0 0
-0.78964853 2.2676494 0.6627996
-0 0 0
-0.60541487 2.2799096 0.60391325
-0.70484859 2.3028233 0.59210944
-0.79591626 2.2944129 0.57202452
-0.53120911 2.3513596 0.54745758
-0.61310452 2.3075688 0.5171833
-0.70277476 2.299202 0.49679387
-0.79490513 2.2968049 0.47785264
-0.52328199 2.3138282 0.44695717
-0.61194557 2.305639 0.42483032
-0.69412345 2.2750168 0.40029526
-0.81180954 2.3485661 0.39428306
-0.53224397 2.3544109 0.36324647
-0.61841404 2.3347759 0.33927459
-0.70136344 2.3030658 0.31490085
-0.81485677 2.3641949 0.30323574
-0.52653438 2.3310456 0.27021009
-0.61145794 2.3086765 0.24684657
-0.70418549 2.3156676 0.22708765
-0.78886926 2.2924316 0.20477299
-0.53391463 2.3654482 0.18497244
-0.62232441 2.3526909 0.16210927
-0.7101993 2.3374953 0.13979323
-0.79456884 2.3114855 0.11620802
-0.52573586 2.3326249 0.094407812
-0.6166597 2.3358924 0.072293639
-0.69783908 2.3010001 0.049443271
-0.79704702 2.3218579 0.026779367
-0.53372771 2.3696263 0.0069102207
-0.61733925 2.3419445 -0.016528176
-0.69842136 2.3062532 -0.038779892
-0.80506003 2.3480024 -0.063654386
-0.53503209 2.3812332 -0.082668833
-0.6375339 2.4221566 -0.10843582
-0.70537394 2.3343508 -0.12891102
-0.7905736 2.3075895 -0.15218286
-0.51804352 2.3127935 -0.16731334
-0.60747999 2.3128929 -0.1915625
-0.68963999 2.2835767 -0.21377619
-0.72535795 2.1192837 -0.22247414
-0.4375703 1.9560835 -0.21569775
-0.46120986 1.759114 -0.21298935
-0.50034541 1.6583419 -0.21925509
-0.54600906 1.5965519 -0.23044631
-0.26067224 1.1697944 -0.17364407
-0.29312438 1.1205651 -0.17887489
-0.3034513 1.0071555 -0.172949
-0.4110381 1.2025084 -0.2216333
-0.21961245 0.98911154 -0.18528049
-0 0 -0
-0 0 -0
-0 0 -0
-0.19025806 0.8608067 -0.19550653
-0.22380908 0.85882837 -0.20553458
-0.25400946 0.84524709 -0.2133088
-0 0 -0
-0.18315825 0.8324064 -0.22296578
-0.20892134 0.80417198 -0.2257884
-0.23466745 0.78162664 -0.23042366
-0.24926013 0.72905415 -0.22618236
-0.50360316 2.3016737 0.72790027
-0.58773679 2.2669368 0.69556642
-0.69489187 2.314764 0.69223529
-0.77509683 2.2706273 0.66226745
-0 0 0
-0.59360003 2.2920215 0.60614532
-0.67065281 2.2401245 0.57491916
-0.79843086 2.3480952 0.58417577
-0 0 0
-0.59157908 2.2829046 0.51083231
-0.6816411 2.2800138 0.49173483
-0.80034077 2.3592496 0.48981339
-0.51793194 2.3573079 0.45473355
-0.60173434 2.3246 0.42763564
-0.69622433 2.3330953 0.40975493
-0.79896837 2.35818 0.39506662
-0.51672691 2.352803 0.36250243
-0.60234278 2.3318148 0.33830088
-0.67985988 2.282618 0.31152874
-0.78222501 2.3155413 0.29637411
-0.51605505 2.3517029 0.27223244
-0.59354925 2.2979386 0.24530444
-0.69053113 2.3218532 0.22727446
-0.78243107 2.3198895 0.20679295
-0.51469201 2.3472524 0.18329917
-0.59865528 2.3207173 0.15965006
-0.69413716 2.336067 0.13945048
-0.78132761 2.3191571 0.11635049
-0.51889318 2.3699703 0.09578862
-0.59807897 2.3231764 0.071785159
-0.69109869 2.3301604 0.049977791
-0.77736491 2.3105934 0.026593929
-0.52003288 2.3767641 0.0069216001
-0.60494936 2.3534362 -0.016582768
-0.6899358 2.3296695 -0.039101716
-0.79573256 2.3680596 -0.064064562
-0.51977175 2.381542 -0.082567275
-0.59831971 2.3311882 -0.104197
-0.69556504 2.3539579 -0.12975565
-0.78847128 2.348351 -0.15454905
-0.50511509 2.3217771 -0.16773586
-0.59228772 2.3127143 -0.19124311
-0.67674363 2.2915862 -0.21413322
-0.73006207 2.1765273 -0.22800881
-0.4705222 2.1656809 -0.23848726
-0.4789423 1.873534 -0.22648294
-0.48679182 1.6499623 -0.21774818
-0.52392304 1.5632337 -0.22516891
-0.25328028 1.1704046 -0.17350067
-0.27500841 1.0782915 -0.1718542
-0.30981454 1.0515921 -0.18024984
-0.4105359 1.2255584 -0.22541308
-0.21208799 0.98370922 -0.18402128
-0 0 -0
-0 0 -0
-0.3035478 0.90711671 -0.20367156
-0.18476783 0.86100334 -0.19529003
-0.21733576 0.85546434 -0.2044065
-0.25292876 0.86077857 -0.21683262
-0 0 -0
-0.17744096 0.83067626 -0.22220653
-0.20564149 0.81198704 -0.22762407
-0.21956642 0.74796224 -0.22009808
-0.24661104 0.73602867 -0.22787237
-0 0 0
-0 0 0
-0 0 0
-0.74952936 2.2406025 0.65215653
-0 0 0
-0.56980336 2.2571099 0.59597677
-0.6754452 2.3075716 0.5911544
-0.77970046 2.3400218 0.580966
-0.516132 2.4225571 0.56251711
-0.58785254 2.3272371 0.51993543
-0.6789031 2.3226926 0.50003165
-0.76944548 2.3147666 0.47958887
-0 0 0
-0.59251761 2.3482947 0.43131763
-0.66946739 2.2947233 0.40228674
-0.77981609 2.3489778 0.39271596
-0.50413638 2.3646336 0.36384171
-0.58802372 2.3354669 0.33830088
-0.66639555 2.2886505 0.31178811
-0.77455318 2.3400886 0.29890209
-0.49768212 2.3363595 0.27009773
-0.58648086 2.3295107 0.24828592
-0.67682749 2.3279588 0.22746129
-0.76286674 2.3085625 0.20536214
-0.4984116 2.341589 0.18261464
-0.58805382 2.3388617 0.16064703
-0.6803472 2.3421996 0.13956472
-0.76739597 2.3248563 0.11639798
-0.51348114 2.4161148 0.097524494
-0.59184039 2.3587961 0.072772205
-0.67177689 2.3170724 0.049607735
-0.75002533 2.2754331 0.026135789
-0.5052318 2.378932 0.0069187554
-0.5870955 2.3435237 -0.01648723
-0.66700912 2.3040855 -0.038602889
-0.75399125 2.290288 -0.061834224
-0.50597751 2.3885972 -0.082702681
-0.58497423 2.3386922 -0.10437001
-0.67418087 2.3341966 -0.12843592
-0.76999301 2.3408196 -0.15373956
-0.49188974 2.3297124 -0.16808793
-0.57543087 2.3056662 -0.19036473
-0.6499635 2.2516763 -0.21002729
-0.65673596 1.9985096 -0.20893395
-0.44491744 2.1101551 -0.23206769
-0.49024516 1.9679943 -0.23753372
-0.47693357 1.6538714 -0.21787377
-0.52173948 1.5890117 -0.22841655
-0.254026 1.2097098 -0.17909285
-0.27005541 1.0866724 -0.17292257
-0.30745196 1.0676967 -0.18268345
-0.37935612 1.1559809 -0.2121838
-0.21088205 1.0081004 -0.1883385
-0 0 -0
-0.2427617 0.84498584 -0.17797384
-0.28731236 0.87643284 -0.19638269
-0 0 -0
-0.21184854 0.85583609 -0.2041809
-0.24576426 0.85577458 -0.21518818
-0.27756074 0.84568864 -0.22471064
-0 0 -0
-0.20597227 0.83478236 -0.23365559
-0.22054625 0.76872152 -0.22580431
-0.23730229 0.72294158 -0.22336563
-0 0 0
-0.55093592 2.2376766 0.68446237
-0.64072019 2.2334821 0.66552609
-0.73696792 2.2488234 0.65322083
-0 0 0
-0 0 0
-0.65646619 2.2948673 0.58685684
-0.73814553 2.261483 0.56033182
-0.48053649 2.3254044 0.53926343
-0.58150196 2.3630672 0.52713323
-0.67243874 2.3541222 0.50590003
-0.75310135 2.3129132 0.47823846
-0.4839879 2.3394279 0.45010477
-0.57410264 2.3356333 0.42833698
-0.66781157 2.3424118 0.4099209
-0.75500405 2.3217847 0.38738781
-0.49021855 2.3705873 0.36428815
-0.57391834 2.3399925 0.33843997
-0.65288287 2.2946038 0.31204751
-0.7610985 2.34763 0.29926324
-0.49338993 2.3880253 0.27571541
-0.56838536 2.3176084 0.24664097
-0.66361898 2.3358986 0.22783494
-0.75574458 2.3350048 0.20729794
-0.48826805 2.3651099 0.18421187
-0.56775784 2.3181975 0.15898541
-0.65015215 2.2906253 0.13625127
-0.75280917 2.3285706 0.11635049
-0.48150048 2.3360348 0.094171099
-0.57498288 2.3526733 0.072473101
-0.66463202 2.3461611 0.050142258
-0.75110221 2.3266199 0.026670286
-0.48820457 2.370234 0.0068846168
-0.57768279 2.3674829 -0.016630538
-0.66211164 2.340847 -0.039149992
-0.74759328 2.3186569 -0.062475123
-0.48608297 2.3662033 -0.081822507
-0.57084972 2.3432081 -0.10441326
-0.65821856 2.3325229 -0.12811919
-0.74184364 2.3027511 -0.1509375
-0.47878611 2.3385503 -0.16851045
-0.56480426 2.3236828 -0.1915625
-0.63586485 2.2546632 -0.20993802
-0.69049388 2.1455376 -0.22385781
-0.44271562 2.1654472 -0.23784529
-0.52218312 2.1524253 -0.25940263
-0.46435529 1.6481725 -0.21674357
-0.51470941 1.6006721 -0.22963439
-0.23218569 1.1404523 -0.16862544
-0.26803192 1.1075201 -0.17597504
-0.30276549 1.0762122 -0.18381913
-0.35266361 1.0973245 -0.20101625
-0.20762505 1.0238364 -0.19103676
-0 0 -0
-0 0 -0
-0.28222823 0.87911052 -0.19659096
-0 0 -0
-0.20659325 0.85711986 -0.2041809
-0.23919588 0.85258704 -0.21401358
-0.27414665 0.85291415 -0.22617935
-0.1660911 0.8271001 -0.22068805
-0.19904293 0.82852399 -0.23155767
-0.21738361 0.77562028 -0.22743466
-0.23961581 0.74539387 -0.22984409
-0 0 0
-0.54099423 2.2568624 0.68930256
-0.62752259 2.2392228 0.66607684
-0.73228699 2.2817559 0.66146916
-0 0 0
-0.56371766 2.3543766 0.61978608
-0.6340099 2.268924 0.57921672
-0.73047864 2.28544 0.56514651
-0 0 0
-0.56744695 2.3684916 0.5275566
-0.65245444 2.3383951 0.50165045
-0.73591477 2.3081422 0.4763093
-0.46595389 2.3240464 0.44658688
-0.55746937 2.3295372 0.42658365
-0.62988174 2.2619164 0.39515045
-0.74403977 2.3367255 0.38911161
-0.47274902 2.3590069 0.36205599
-0.55977958 2.3444333 0.33857906
-0.64171165 2.3090754 0.31347418
-0.74517769 2.3475249 0.29866135
-0.47131491 2.3539829 0.27144596
-0.54976523 2.3026695 0.24468757
-0.65060467 2.3447235 0.228302
-0.7287603 2.2997022 0.20376301
-0.47257319 2.362195 0.18375552
-0.55930811 2.345902 0.16064703
-0.64435261 2.3243959 0.13802226
-0.74483722 2.3531444 0.11734778
-0.47283334 2.3673615 0.095315196
-0.56099904 2.3581021 0.072532922
-0.65262306 2.3588674 0.050327286
-0.73349726 2.3206966 0.026550295
-0.46954173 2.3525913 0.0068248743
-0.56430078 2.3758476 -0.01666466
-0.64054781 2.3188438 -0.03871553
-0.74900025 2.3727722 -0.063808203
-0.47370121 2.3799236 -0.082194895
-0.56014955 2.3622205 -0.10510531
-0.64177167 2.3288162 -0.12769687
-0.73310399 2.3243928 -0.15205833
-0.47005627 2.3698194 -0.17055257
-0.54892939 2.3203144 -0.19100356
-0.62810117 2.2806082 -0.21199098
-0.66116822 2.0984821 -0.21852081
-0.43521547 2.1973822 -0.24105507
-0.51102042 2.1642888 -0.26044956
-0.4558126 1.6567301 -0.21749704
-0.50101054 1.5915143 -0.22787528
-0.24088521 1.2214746 -0.18038334
-0.25783277 1.0947144 -0.17368568
-0.29406515 1.0704377 -0.18252121
-0.32049704 1.0186522 -0.1862407
-0.20266609 1.0318477 -0.19229594
-0 0 -0
-0 0 -0
-0.2733098 0.86962873 -0.19409192
-0.1705734 0.87288189 -0.19723859
-0.20377728 0.86880463 -0.20666265
-0.23190546 0.84653884 -0.2121342
-0.26628888 0.84625638 -0.2239763
-0.16101298 0.82810366 -0.22068805
-0.19615202 0.83912647 -0.23418008
-0.21135026 0.77229834 -0.22607604
-0.23532568 0.74776536 -0.23012576
-0 0 0
-0.52735394 2.2610731 0.68958735
-0.65893495 2.4080825 0.7150895
-0.72347331 2.3027599 0.66625863
-0 0 0
-0.53849101 2.3115599 0.60763341
-0.63260031 2.3186767 0.59091568
-0.71295393 2.2787316 0.56239527
-0.45047909 2.3234673 0.53749168
-0.54247552 2.3271935 0.51760674
-0.64041066 2.3508584 0.50347173
-0.72320008 2.3172977 0.47727391
-0.46910071 2.416579 0.46380603
-0.54539758 2.3425026 0.42833698
-0.63203114 2.3247375 0.40543997
-0.73056954 2.3440757 0.38958174
-0 0 0
-0.55165786 2.3748326 0.34247398
-0.6264928 2.3091416 0.31295538
-0.72516322 2.3340406 0.29637411
-0.45894235 2.3675611 0.27268186
-0.54845393 2.361227 0.25054774
-0.63282144 2.3361785 0.22708765
-0.72172034 2.326972 0.20578298
-0.45996612 2.3748393 0.18451609
-0.54264891 2.3395698 0.15998237
-0.62408 2.3061407 0.1367083
-0.72920221 2.3538537 0.11715782
-0.45886767 2.3731613 0.095433556
-0.55147749 2.3829236 0.07319095
-0.62875271 2.3280799 0.049587179
-0.71510696 2.3117797 0.026397582
-0.45604613 2.360337 0.0068390984
-0.54521006 2.3597791 -0.016528176
-0.63229477 2.3449345 -0.039085627
-0.72823066 2.3572657 -0.063269846
-0.45303875 2.3513813 -0.081111595
-0.54474652 2.3617191 -0.1049323
-0.62928599 2.3394604 -0.12806639
-0.7217716 2.3383839 -0.15268101
-0.45964402 2.3942106 -0.17210175
-0.52887011 2.298382 -0.18892743
-0.60918307 2.266144 -0.21029507
-0.65590304 2.1272233 -0.22109045
-0.42247316 2.2039175 -0.24148306
-0.43748751 1.9050517 -0.22892573
-0.44821149 1.669077 -0.21875279
-0.48773524 1.5831958 -0.22625145
-0.2780965 1.4572111 -0.2149401
-0.24581507 1.0731558 -0.17002273
-0.29541352 1.1017675 -0.18755068
-0.33018461 1.0723827 -0.19569017
-0 0 -0
-0.21901223 0.95821714 -0.18935317
-0.23400496 0.87487572 -0.18333091
-0.2633684 0.85633165 -0.19075987
-0 0 -0
-0.19995904 0.87668735 -0.20824195
-0.22720894 0.84982389 -0.21260403
-0.26052064 0.84602112 -0.22348674
-0 0 -0
-0.18372743 0.80832016 -0.22526391
-0.20164102 0.75498497 -0.22064152
-0.22875614 0.74277616 -0.22815406
-0 0 0
-0.51495433 2.2708106 0.69158036
-0.60644549 2.2709036 0.67323601
-0.6991322 2.2739856 0.65667981
-0 0 0
-0.53028941 2.3412757 0.61457783
-0.61611271 2.314069 0.58876687
-0.69895846 2.2830632 0.56239527
-0.43082207 2.2974339 0.53084779
-0.529266 2.3352439 0.51866519
-0.62748361 2.3604224 0.50468588
-0.71097374 2.3282604 0.47862431
-0.43830585 2.3344185 0.44751263
-0.53840429 2.3784525 0.43429831
-0.61016887 2.2999771 0.4004612
-0.70666611 2.3173392 0.38441032
-0.43956974 2.3422768 0.35863334
-0.5233326 2.317318 0.33371043
-0.61738747 2.332113 0.31554928
-0.71284914 2.3450949 0.29721677
-0.4420262 2.3576362 0.27122125
-0.54009032 2.3917155 0.2534264
-0.61694854 2.3342421 0.22652717
-0.70569265 2.3256354 0.20527798
-0.4426319 2.362916 0.18337521
-0.52301592 2.3194952 0.15838721
-0.61297661 2.3215101 0.13739385
-0.69388556 2.2894568 0.11373854
-0.44264454 2.3670924 0.095078491
-0.5313611 2.3618832 0.072443195
-0.61037999 2.3164253 0.04925824
-0.70090866 2.316124 0.026397582
-0.44412628 2.376853 0.0068789274
-0.5335691 2.3757639 -0.01661689
-0.61992967 2.3565056 -0.039214354
-0.70160651 2.3214989 -0.062193129
-0.43805322 2.3511691 -0.081010036
-0.53024507 2.3650172 -0.1049323
-0.61111736 2.328789 -0.12727456
-0.70712149 2.3418131 -0.15261875
-0.44712946 2.4087551 -0.17294678
-0.51388729 2.2976928 -0.18860804
-0.59905672 2.2842906 -0.21163395
-0.63479209 2.1045322 -0.21832313
-0.41401547 2.2338412 -0.24447885
-0.42903545 1.9222406 -0.23067059
-0.43821317 1.6727554 -0.21887836
-0.48944747 1.6241051 -0.23166418
-0.23270072 1.2613219 -0.18583213
-0.25232509 1.1334889 -0.17933276
-0.28490222 1.0892398 -0.18511707
-0.30484727 1.0121324 -0.1843508
-0.18287945 0.99555713 -0.18510059
-0 0 -0
-0.22764267 0.87250155 -0.18253727
-0.25472772 0.8466922 -0.18826082
-0.16406012 0.89795858 -0.20243478
-0.19141391 0.86363077 -0.20485774
-0.22542435 0.86436981 -0.21589294
-0.25392637 0.84296191 -0.22226281
-0.15395239 0.84715056 -0.22524352
-0.18188582 0.82356668 -0.2291975
-0.19918828 0.76458961 -0.22308706
-0.22114964 0.73405981 -0.22505566
-0.42533275 2.3562601 0.73970723
-0.50163001 2.276736 0.69243449
-0.58910745 2.2615578 0.66938108
-0.70709807 2.3511581 0.67769998
-0 0 0
-0.5169546 2.349216 0.61581784
-0.58530474 2.2538922 0.57253158
-0.68158603 2.2761197 0.5596441
-0.41776028 2.3057914 0.53217655
-0.51303577 2.3298573 0.51675993
-0.59234256 2.2845988 0.48768765
-0.69049668 2.3118951 0.47438014
-0.41976398 2.3138578 0.44306898
-0.50772882 2.3086348 0.420973
-0.59209281 2.2884026 0.39780584
-0.69045788 2.3150065 0.38331336
-0.42660096 2.3527141 0.35982385
-0.51610702 2.3524053 0.33830088
-0.60529715 2.3444979 0.31671655
-0.68401933 2.3008947 0.29107744
-0.42631191 2.3534596 0.2704348
-0.51133722 2.3308592 0.24664097
-0.59292275 2.3003831 0.22288404
-0.69140959 2.3299217 0.20527798
-0.42581654 2.3528323 0.18238646
-0.51603293 2.3557997 0.16064703
-0.59473735 2.3097582 0.13647979
-0.69061095 2.3300633 0.11554316
-0.42704615 2.3638639 0.094841778
-0.51621866 2.3621695 0.07235346
-0.59839451 2.3288422 0.049443271
-0.68413019 2.3117516 0.02629941
-0.42615867 2.3608356 0.0068248743
-0.51770282 2.373131 -0.016575946
-0.60098678 2.3428319 -0.038924716
-0.69443202 2.3497272 -0.062834032
-0.42556575 2.3646326 -0.081382416
-0.51657391 2.3721309 -0.10510531
-0.59632164 2.33056 -0.12716898
-0.68482524 2.3193061 -0.15087524
-0.43445361 2.4232357 -0.17379181
-0.50274152 2.3144398 -0.18972594
-0.58552277 2.2898533 -0.21181247
-0.57063121 1.9346771 -0.20033544
-0.40170261 2.2441692 -0.24533482
-0.4338547 2.0015197 -0.23986019
-0.42794108 1.6754128 -0.21887836
-0.47555199 1.6137722 -0.22976972
-0.33674121 1.8901917 -0.27817464
-0.24703597 1.1427436 -0.18055376
-0.26846009 1.0527215 -0.17862743
-0.29000348 0.98468894 -0.17902473
-0 0 -0
-0.20992833 0.97331095 -0.19181231
-0.23267423 0.91472644 -0.19106892
-0.25090787 0.85293084 -0.18930209
-0.15752983 0.8931796 -0.20113572
-0.18426645 0.85621732 -0.20282722
-0.21796077 0.85725832 -0.21377864
-0.24902323 0.84543413 -0.2225076
-0.15092425 0.86046696 -0.22853361
-0.17642444 0.82278013 -0.22867304
-0.20752248 0.81709933 -0.238032
-0.2188105 0.7427662 -0.22730905
-0.40955541 2.3512955 0.73734587
-0 0 0
-0 0 0
-0.65132183 2.2148838 0.63725615
-0.41697228 2.3850112 0.64644563
-0.49362528 2.3106592 0.60490525
-0.58743083 2.320514 0.58852816
-0.67717957 2.3129542 0.56766844
-0.4057878 2.3207991 0.53505558
-0.49586993 2.319581 0.51379609
-0.57975316 2.2938871 0.48890179
-0.66942245 2.2925413 0.46955723
-0.40284687 2.3009021 0.44010654
-0.49910396 2.3377028 0.42570701
-0.58599824 2.3235469 0.40328249
-0.67983437 2.3315256 0.38535058
-0.41727054 2.3845093 0.36428815
-0.5018695 2.3564963 0.33843997
-0.58751255 2.3347058 0.31490085
-0.67653745 2.3279274 0.29396653
-0.41237667 2.3589678 0.27077183
-0.49971908 2.3466003 0.2479775
-0.59019798 2.3493621 0.22727446
-0.680987 2.3475182 0.20645629
-0.41188648 2.3583474 0.18261464
-0.49845558 2.3442822 0.15965006
-0.58079672 2.3143322 0.13653691
-0.67880273 2.3428919 0.11597057
-0.41098934 2.3575807 0.094486721
-0.50441122 2.3780038 0.072742298
-0.5874939 2.3460476 0.049731087
-0.6724335 2.3245509 0.026397582
-0.41063523 2.3574948 0.006807805
-0 0 -0
-0.59217751 2.3687859 -0.039294813
-0.68055612 2.3558645 -0.062885299
-0 0 -0
-0 0 -0
-0 0 -0
-0.67611647 2.3426428 -0.15212059
-0.41736665 2.4130778 -0.17287637
-0.48873651 2.3184564 -0.18980578
-0.57964927 2.3262625 -0.21484728
-0 0 -0
-0.39469218 2.2857823 -0.24961452
-0 0 -0
-0.42268488 1.6982239 -0.22151545
-0.46783498 1.6242764 -0.23085226
-0.28692493 1.6698375 -0.24548197
-0.22784613 1.0862037 -0.17139633
-0.27008635 1.0869083 -0.18414363
-0.307937 1.0697584 -0.19414388
-0.18491085 1.0811126 -0.2005706
-0.20133749 0.96208614 -0.18935317
-0 0 -0
-0.24377781 0.8478744 -0.18784432
-0 0 -0
-0.18139878 0.86877567 -0.20553458
-0.21293038 0.85952312 -0.21401358
-0.24624522 0.85533178 -0.22471064
-0.14209339 0.84039086 -0.22296578
-0.1676386 0.80589634 -0.22369048
-0.18840358 0.7613712 -0.22145671
-0.21053201 0.73118609 -0.22336563
-0.35921475 2.1398714 0.67034125
-0.48533872 2.3390374 0.7095176
-0.58024383 2.3451393 0.69195992
-0.6763286 2.3531733 0.6758374
-0 0 0
-0.48120719 2.3221819 0.60713738
-0.57713431 2.3401029 0.59258693
-0.66243935 2.3151941 0.56720996
-0.38700229 2.2963202 0.52885461
-0.48480305 2.3378916 0.5171833
-0.57011575 2.3154685 0.49274665
-0.64349627 2.2550895 0.46106893
-0.38839415 2.3013923 0.43973622
-0.47197306 2.2790215 0.41448572
-0.57267129 2.3309293 0.40394634
-0.65225399 2.2891109 0.37767178
-0.39457241 2.3392451 0.35699642
-0.48780152 2.3614712 0.33871818
-0.57482851 2.3450081 0.31580871
-0.65763062 2.3158002 0.2919201
-0.39211598 2.3271585 0.26683947
-0.50201136 2.4304757 0.2565107
-0.57766467 2.3606761 0.22802179
-0.66874403 2.3593221 0.20712961
-0.39277369 2.3332989 0.18048503
-0.48406196 2.3472965 0.15965006
-0.56587416 2.3149428 0.13636553
-0.65380317 2.3095298 0.11411846
-0.3999925 2.3807514 0.095315196
-0.48074743 2.3369968 0.071396321
-0.57569373 2.3602927 0.049957231
-0.66686058 2.3594251 0.026746642
-0.39864546 2.3747633 0.0068504787
-0.48331255 2.3538373 -0.016398516
-0.56982595 2.3403156 -0.038763802
-0.66608799 2.3599961 -0.062885299
-0.39354712 2.351934 -0.08077307
-0.48060539 2.3450148 -0.10363471
-0.56909108 2.3435249 -0.12748572
-0.66145873 2.3457868 -0.15205833
-0.4038642 2.4234648 -0.17343971
-0.47569928 2.3272712 -0.19028489
-0.55502981 2.2871871 -0.21091987
-0.60808712 2.1589627 -0.22277065
-0.38457537 2.3116996 -0.25218233
-0.45054364 2.2091143 -0.26405561
-0.45432383 1.8743352 -0.24411908
-0.45866492 1.6299777 -0.23125821
-0.37460828 2.2632542 -0.33237568
-0.24146308 1.1873327 -0.18711656
-0.25830632 1.0674455 -0.18057431
-0.29123279 1.0355906 -0.18761516
-0.16100602 0.97740138 -0.18114315
-0 0 -0
-0.21798252 0.90322137 -0.18809277
-0.24227364 0.86253715 -0.19075987
-0 0 -0
-0.17780404 0.87846601 -0.2075651
-0.21061563 0.87309724 -0.21706754
-0.2373171 0.84375954 -0.22128369
-0.13864391 0.85175055 -0.22574969
-0.16993821 0.84285653 -0.23365559
-0.19477458 0.80835718 -0.23477127
-0.20682105 0.73523515 -0.22421066
-0 0 0
-0.47797033 2.3767438 0.72005212
-0.54490292 2.2617373 0.66635215
-0.65562308 2.3350053 0.66945153
-0.36431372 2.2459412 0.60749382
-0.46790323 2.3298397 0.60837746
-0.55414873 2.3077188 0.58351427
-0.64586294 2.3107784 0.56514651
-0.37509128 2.3121278 0.53195512
-0.47179687 2.3475294 0.51866519
-0.55452782 2.3132091 0.4915325
-0.64940602 2.3298845 0.47553763
-0.37379304 2.3008225 0.43918082
-0.46786067 2.3311031 0.42342767
-0.55652308 2.3267267 0.40261868
-0.63184053 2.2702346 0.37391073
-0.38132104 2.3484547 0.3580381
-0.47427446 2.3692746 0.33941367
-0.56111944 2.3513844 0.31619778
-0.64765394 2.3350976 0.29384616
-0.3805339 2.3461955 0.26874951
-0.47205642 2.358408 0.24859436
-0.55717045 2.3389945 0.22559303
-0.65106469 2.3518569 0.20611963
-0.38179854 2.3563344 0.18208224
-0.47160536 2.3600068 0.16031471
-0.55350816 2.3261416 0.13682257
-0.6468066 2.3394923 0.11540069
-0.38346282 2.3713241 0.094841778
-0.46464029 2.3310802 0.071127124
-0.56096947 2.362808 0.049936671
-0.64199466 2.3258803 0.026321227
-0.38566163 2.3870363 0.0068789274
-0.47139704 2.3695083 -0.01648723
-0.56029737 2.3641992 -0.039101716
-0.64575094 2.3428366 -0.062321313
-0.38037959 2.3621981 -0.081043884
-0 0 -0
-0.55883521 2.3644655 -0.12843592
-0.64228332 2.3324807 -0.1509375
-0.38772306 2.4180179 -0.17287637
-0.46605745 2.3536139 -0.19220132
-0.5364067 2.2711627 -0.2091347
-0.57556385 2.0926116 -0.21555579
-0.38546944 2.4082651 -0.26245368
-0.4323602 2.188452 -0.26126382
-0 0 -0
-0.45390543 1.6518692 -0.23396458
-0.35666817 2.240099 -0.32864755
-0.23188113 1.1771562 -0.18528509
-0.25401366 1.0786151 -0.18219672
-0.29896018 1.0886561 -0.19689283
-0.1568529 0.99002969 -0.18330175
-0.20030768 1.0194051 -0.20013553
-0 0 -0
-0.23645923 0.86212093 -0.19034335
-0 0 -0
-0.17184831 0.87667239 -0.20688826
-0.20170026 0.85923249 -0.2133088
-0.23290579 0.8480047 -0.22201805
-0 0 -0
-0.15940067 0.81641692 -0.22605065
-0.18212183 0.77674335 -0.22526087
-0.20255999 0.73741555 -0.22449233
-0.36122197 2.3263354 0.72731
-0 0 0
-0.55273825 2.3576989 0.69361204
-0.65198851 2.3780291 0.68062681
-0.36779189 2.3588705 0.63741714
-0.45193452 2.3241081 0.60614532
-0.54439729 2.329988 0.58828938
-0.63551593 2.328783 0.56858552
-0.35774201 2.2941518 0.52730435
-0.4551436 2.3388681 0.51612484
-0.54410535 2.3327811 0.49497262
-0.63200611 2.3224638 0.47322264
-0.36285263 2.3234625 0.44306898
-0.44209236 2.2749774 0.41273239
-0.54335362 2.3349001 0.40344849
-0.63136512 2.3236294 0.38205969
-0.37102139 2.3771303 0.36205599
-0.45991638 2.3731124 0.33955282
-0.53434819 2.3016605 0.30906454
-0.63175714 2.3332782 0.2931239
-0.36812061 2.3612497 0.27021009
-0.45890126 2.3680959 0.24931403
-0.53876233 2.3249104 0.22391158
-0.64572001 2.3894758 0.20906541
-0.36319032 2.3320317 0.18002868
-0.45578912 2.3559988 0.15984945
-0.54012537 2.3333845 0.13705108
-0.62853563 2.3289516 0.11468834
-0.37120727 2.3884428 0.095433556
-0.45600954 2.3633308 0.07202445
-0.5428614 2.3506191 0.049607735
-0.62823153 2.331707 0.026343044
-0.37116122 2.3903461 0.0068817721
-0.45476913 2.3615549 -0.016412165
-0.54308522 2.355901 -0.038908623
-0.63058424 2.3438587 -0.062244404
-0.36679527 2.3704135 -0.081247009
-0.45066088 2.3448493 -0.10337519
-0.54163188 2.3561711 -0.12780245
-0.62666416 2.3315587 -0.15062617
-0.37227154 2.4164078 -0.1725947
-0.45198244 2.3583872 -0.19236101
-0.52156907 2.2705286 -0.20877767
-0.59496385 2.216238 -0.22790997
-0.37400988 2.4322047 -0.26480752
-0 0 -0
-0.37538084 1.6360954 -0.212474
-0.43939805 1.6383545 -0.23166418
-0.19689272 1.2874323 -0.18869992
-0.2307606 1.2105935 -0.19032167
-0.24915299 1.0878482 -0.18349466
-0.30349642 1.1323379 -0.20445241
-0.15343858 1.0084784 -0.18653966
-0 0 -0
-0.20382695 0.89245111 -0.18531501
-0.23723488 0.88623101 -0.19534142
-0.13395752 0.88615817 -0.19875415
-0.16519518 0.87101024 -0.20530896
-0.19296308 0.84529167 -0.20955005
-0.22845128 0.85222733 -0.22275238
-0.12832488 0.85434455 -0.22600278
-0.15277629 0.80884552 -0.22369048
-0.18933278 0.83039069 -0.24047753
-0.20126161 0.75069273 -0.22815406
-0 0 0
-0 0 0
-0.53868866 2.3629208 0.69416279
-0.60374653 2.2562742 0.64470631
-0 0 0
-0.44733578 2.3782489 0.61953807
-0.53138125 2.3389661 0.58972186
-0.60693693 2.2790256 0.5555172
-0.35073099 2.3435605 0.53815609
-0.43319049 2.3012772 0.50723344
-0.52609938 2.31984 0.4915325
-0.61623281 2.3206079 0.47206512
-0.35922325 2.3965902 0.45658508
-0.43376309 2.307642 0.41816771
-0.52749342 2.3314571 0.40228674
-0.61507076 2.3198223 0.38080597
-0.36961338 2.4673777 0.37544891
-0.44479924 2.3729699 0.3391355
-0.52763772 2.3377814 0.31347418
-0.61666787 2.3342311 0.29276276
-0.36009496 2.4067039 0.27515364
-0.44381255 2.367934 0.24900559
-0.52667493 2.3378851 0.22484572
-0.62418705 2.3673775 0.20679295
-0.3519696 2.3549254 0.18162589
-0.43765438 2.3391356 0.15852015
-0.5284279 2.3483427 0.1377366
-0.60889244 2.3124793 0.11369105
-0.35625026 2.3886988 0.095354646
-0.44094977 2.3631365 0.071934715
-0.52820909 2.3529303 0.049587179
-0.61492944 2.339386 0.026386674
-0.35928738 2.4113708 0.0069358251
-0.44063646 2.366267 -0.016425813
-0.52708906 2.3523591 -0.038795982
-0.61365288 2.3380146 -0.061988041
-0.35283083 2.3765738 -0.081382416
-0 0 -0
-0.52912426 2.3682215 -0.12827756
-0.61285245 2.3372905 -0.1507507
-0.35379189 2.3939764 -0.17083424
-0.4402273 2.375818 -0.19355877
-0.50697643 2.2707698 -0.20850988
-0.55916888 2.1351349 -0.21921264
-0.35893404 2.4334702 -0.26470053
-0.40330562 2.1818731 -0.25986794
-0.44911149 2.0140693 -0.26119736
-0.43184483 1.6506052 -0.23301736
-0.21814209 1.4873919 -0.21780787
-0.24893841 1.3509713 -0.21214685
-0.2366849 1.0633507 -0.17911416
-0.26713771 1.0217141 -0.18417898
-0.16002727 1.0970056 -0.20272923
-0.18458813 1.0044025 -0.19673057
-0.21915872 0.98745495 -0.20475921
-0.2317926 0.88766998 -0.19534142
-0.1359375 0.93817157 -0.21022907
-0.16248251 0.88638127 -0.20869318
-0.19177249 0.86448979 -0.21401358
-0.22174604 0.84798485 -0.22128369
-0.11880764 0.82543093 -0.21815722
-0.15092953 0.82685542 -0.2284108
-0.17465803 0.78831571 -0.22797813
-0.19203883 0.734276 -0.22280228
-0.33696711 2.3608601 0.73675549
-0.43173799 2.3719354 0.71606612
-0 0 0
-0.60741967 2.3270907 0.6638639
-0.35198051 2.4550185 0.6621812
-0.42372659 2.3313856 0.60664135
-0.52141541 2.3620958 0.59473574
-0.59024984 2.2723439 0.55299526
-0 0 0
-0.41521415 2.2827375 0.50257599
-0.52091646 2.3641481 0.50023395
-0.61083853 2.3585408 0.47901011
-0.35973907 2.5047767 0.47676665
-0.41572499 2.2889495 0.4143104
-0.51423645 2.3394656 0.40311655
-0.59884703 2.3159032 0.3795523
-0.35840073 2.4970067 0.37961563
-0.4319953 2.3853986 0.34052655
-0.51880485 2.3661571 0.31684625
-0.60803008 2.3600819 0.29553148
-0.37859809 2.6410007 0.30166906
-0.42980653 2.373549 0.24931403
-0.52211094 2.385813 0.22914273
-0.60344619 2.3470364 0.20468883
-0.34528697 2.4113276 0.18580906
-0.42631063 2.358469 0.15965006
-0.51464838 2.3544669 0.137908
-0.59643072 2.3229444 0.11402348
-0.34497863 2.4145803 0.096301496
-0.4246684 2.3559608 0.071635611
-0.51887387 2.379571 0.050080582
-0.59907401 2.3373034 0.026321227
-0.34109354 2.3897707 0.0068675471
-0.42681712 2.3728628 -0.016453108
-0.51349586 2.359457 -0.038860351
-0.60177404 2.3514206 -0.062244404
-0.33838254 2.3796837 -0.081416272
-0.42044002 2.3423364 -0.10302916
-0.51733607 2.3841102 -0.12896381
-0.60146612 2.3526106 -0.15149792
-0.34161201 2.4138803 -0.17210175
-0.42932877 2.3990803 -0.19523565
-0.50210923 2.3156936 -0.21234803
-0.56624532 2.2175875 -0.22731698
-0.33620933 2.3804953 -0.25870892
-0.39183018 2.1950619 -0.2611475
-0 0 -0
-0.41754556 1.6369027 -0.23071694
-0.20309481 1.4465601 -0.21164215
-0.20792362 1.168576 -0.18330099
-0.23703551 1.0966107 -0.18446811
-0.24845308 0.97464919 -0.17541674
-0.15234101 1.0911472 -0.20147002
-0.17670617 0.99584782 -0.19483893
-0 0 -0
-0.22344597 0.87770146 -0.19284239
-0 0 -0
-0.15771981 0.89119875 -0.20959564
-0.18892063 0.87705284 -0.21683262
-0.22013174 0.86342233 -0.22495542
-0 0 -0
-0.1473603 0.83631921 -0.23077096
-0.16961531 0.7884317 -0.2277064
-0.1920343 0.753106 -0.22815406
-0 0 0
-0.40506706 2.3056169 0.69528168
-0.49388272 2.2960453 0.67268527
-0.59693313 2.345721 0.66812116
-0 0 0
-0.40405729 2.3034074 0.59870493
-0.49999309 2.332967 0.58661807
-0.5906316 2.3325377 0.56675136
-0.37706044 2.7495971 0.63028491
-0.40322772 2.2967937 0.5051164
-0.49902576 2.3328247 0.49294901
-0.5783422 2.2908921 0.46454147
-0 0 0
-0.40626201 2.3176396 0.41904435
-0.49555045 2.3223243 0.39963141
-0.58366013 2.3157032 0.37892547
-0.3871839 2.8204932 0.42842549
-0.41479331 2.3733718 0.33843997
-0.50468951 2.3712356 0.31710565
-0.59111977 2.3541398 0.29432768
-0.34335575 2.5044653 0.28582722
-0.40992644 2.3457661 0.24612691
-0.50994456 2.4006584 0.2302637
-0.59169793 2.3613272 0.20561464
-0.38148478 2.7858334 0.21448284
-0.41011679 2.3512108 0.15898541
-0.49915594 2.3526974 0.13762236
-0.5867731 2.3449712 0.11492579
-0 0 0
-0.41037577 2.3595068 0.071665518
-0.50322837 2.3778195 0.049977791
-0.58981007 2.3613079 0.026550295
-0 0 0
-0.40882975 2.355732 -0.016316624
-0 0 -0
-0.5870927 2.3540986 -0.062218763
-0 0 -0
-0 0 -0
-0 0 -0
-0.58605433 2.3523829 -0.15124884
-0 0 -0
-0.41866988 2.4252439 -0.19715208
-0 0 -0
-0.54181552 2.1775653 -0.22286947
-0 0 -0
-0 0 -0
-0.41558906 1.9776813 -0.25579762
-0.40916684 1.6461648 -0.23166418
-0.16329329 1.2172723 -0.17794573
-0.1741723 1.0149564 -0.15903382
-0.21652877 1.0323741 -0.1734357
-0.24769267 0.9971891 -0.17919654
-0 0 -0
-0.1613175 0.94271219 -0.18424574
-0 0 -0
-0.21852724 0.88095456 -0.1932589
-0.11672664 0.88169891 -0.19723859
-0.15028194 0.88062572 -0.20688826
-0.18552405 0.88771009 -0.21918184
-0.21412845 0.86193389 -0.2242211
-0 0 -0
-0.14125623 0.8314994 -0.2291975
-0.16261148 0.77909476 -0.22471741
-0.18879794 0.7598573 -0.22984409
-0.31265903 2.4008205 0.74797219
-0.37618518 2.2211049 0.66908765
-0.48764083 2.3366752 0.68369937
-0.58508068 2.3596313 0.67104799
-0 0 0
-0.3915315 2.3153954 0.60118502
-0.48408753 2.3283851 0.58470809
-0.58120406 2.3559632 0.57156599
-0.30538282 2.3331816 0.53439122
-0.3871702 2.2876611 0.50257599
-0.48629421 2.3435137 0.49456787
-0.57997501 2.3582366 0.47746679
-0.32067034 2.4456689 0.46473181
-0.38645655 2.2870834 0.41308308
-0.48588866 2.3475313 0.40344849
-0.57603425 2.3460972 0.38331336
-0 0 0
-0.39676833 2.3553655 0.33551881
-0.49293682 2.3878827 0.31892139
-0.57430536 2.3480794 0.2931239
-0.32437229 2.4789374 0.28268132
-0.39618623 2.3521607 0.24653813
-0.48736989 2.3657115 0.22662057
-0.57389021 2.3513608 0.20443633
-0.32549056 2.4905241 0.19158946
-0.39584771 2.3546669 0.15905187
-0.48169252 2.3410475 0.13676542
-0.57261008 2.3494978 0.11497328
-0.32694802 2.507807 0.099852137
-0.39555991 2.3600087 0.071605697
-0.48782483 2.3769448 0.049895555
-0.573183 2.3561382 0.026452124
-0.3139371 2.4106343 0.0069159106
-0.39634684 2.3700316 -0.016398516
-0.48630863 2.3743966 -0.039005168
-0.5726372 2.3576567 -0.062218763
-0.31159702 2.4024882 -0.082059473
-0.39445952 2.3640721 -0.10376447
-0.47765231 2.3394012 -0.12621878
-0.57325667 2.3627241 -0.15168472
-0.31081548 2.408987 -0.171468
-0.40001956 2.4051514 -0.1953155
-0.46807954 2.2943554 -0.20984876
-0.54555106 2.2514484 -0.2300843
-0.30430564 2.3637333 -0.25646207
-0.39444304 2.3780329 -0.28231847
-0.44464269 2.1823933 -0.28191733
-0.39323109 1.6245695 -0.22828121
-0.30021629 2.3471706 -0.34284306
-0.22886443 1.3845762 -0.21672556
-0.25423378 1.2502831 -0.20977773
-0.24458028 1.0111378 -0.18143003
-0.1399319 1.1007411 -0.2029091
-0.16798528 1.0192565 -0.19900054
-0 0 -0
-0.21541423 0.8917861 -0.19534142
-0.11498012 0.91145664 -0.20373382
-0.14866742 0.90460294 -0.212303
-0.17814362 0.87930512 -0.21683262
-0.20792374 0.85946196 -0.22324196
-0 0 -0
-0.13334756 0.81520826 -0.2244772
-0.16317162 0.80648917 -0.23232573
-0.18300372 0.75633842 -0.22843572
-0.296276 2.3894191 0.74383974
-0.36594376 2.2441859 0.67535144
-0.46757567 2.3113556 0.67543882
-0.5423106 2.2460487 0.6377883
-0.3242971 2.602016 0.7001012
-0.37544924 2.3062804 0.5982089
-0.46979171 2.3313117 0.58470809
-0.56673723 2.3594851 0.57156599
-0.32025146 2.5691903 0.5879854
-0.36998263 2.2707014 0.49834201
-0.47345024 2.3541343 0.49618676
-0.55681187 2.3254895 0.47013599
-0.31479114 2.5207253 0.47861817
-0.37526128 2.3069029 0.41623902
-0.47244504 2.3553028 0.40427828
-0.56622022 2.3687992 0.38644755
-0.33613423 2.6935441 0.40848485
-0.38119909 2.3509133 0.33454508
-0.47866479 2.392807 0.31918079
-0.55252916 2.3206558 0.28927174
-0.33225641 2.6662569 0.30380377
-0.38079107 2.3486562 0.2459213
-0.46894684 2.3491302 0.22475231
-0.5527724 2.3267231 0.20199555
-0.30934083 2.4855483 0.19105706
-0.37963915 2.3462169 0.15832075
-0.46712387 2.3429801 0.1367083
-0.55403298 2.3354731 0.11411846
-0.29752135 2.3967223 0.095354646
-0.38282269 2.3732464 0.071934715
-0.47303602 2.3789127 0.049874995
-0.56539679 2.3878291 0.026768459
-0.30763036 2.4809904 0.0071122069
-0.38163826 2.3714318 -0.016391693
-0.46920052 2.3645859 -0.038795982
-0.55632031 2.353343 -0.062013675
-0.29954398 2.4261768 -0.08280424
-0.37820426 2.355597 -0.10328867
-0.4607701 2.3295529 -0.12553252
-0.56310654 2.3846526 -0.15286781
-0.29311061 2.3870866 -0.16977796
-0.38210422 2.3878748 -0.19371848
-0.45766187 2.3157494 -0.21154469
-0.51208335 2.1714592 -0.22158463
-0.28979632 2.365556 -0.25646207
-0.35715067 2.2381918 -0.26545149
-0.42932251 2.1753476 -0.28066158
-0.37803033 1.6047704 -0.22516891
-0.17332605 1.4245105 -0.20791404
-0.18079202 1.1370683 -0.17780653
-0.22481915 1.1414502 -0.19128223
-0.24220888 1.0289211 -0.1843508
-0.12125088 1.0029447 -0.18474083
-0 0 -0
-0 0 -0
-0.20590961 0.8759529 -0.19159287
-0.11066403 0.92280763 -0.20611541
-0.14311409 0.90549815 -0.212303
-0.16900185 0.86130518 -0.2121342
-0.20420167 0.86732799 -0.22495542
-0 0 -0
-0.13314089 0.84651625 -0.23286888
-0.15229833 0.77725393 -0.2236305
-0.18099858 0.76865464 -0.23181579
-0 0 0
-0.3684983 2.3505638 0.7066704
-0.46040815 2.3500307 0.68590224
-0.57548362 2.4492123 0.69446284
-0 0 0
-0.36428687 2.3276827 0.6031692
-0.45287442 2.320807 0.58136553
-0.54981232 2.3524923 0.56904405
-0.29083398 2.4558668 0.5616312
-0.37147042 2.3714159 0.51993543
-0.45993257 2.3618011 0.49719855
-0.54342294 2.332685 0.47090769
-0.29746568 2.5069957 0.47565573
-0.36551037 2.3373699 0.42132369
-0.44914797 2.3126593 0.39647818
-0.55010891 2.365495 0.38535058
-0.31191623 2.6307447 0.39866337
-0.368292 2.3629925 0.3359361
-0.46133432 2.3820703 0.31736502
-0.55418372 2.3926682 0.29781869
-0.29789951 2.5162818 0.28650135
-0.36606646 2.3489826 0.24571566
-0.45962465 2.3783567 0.22727446
-0.53826112 2.3291004 0.20191139
-0.2916255 2.4666052 0.18945985
-0.37290245 2.397799 0.16164401
-0.45557672 2.3605065 0.13756523
-0.54171371 2.3475883 0.11454587
-0.29217046 2.4778907 0.098510787
-0.36748791 2.3706117 0.071785159
-0.45502901 2.3640988 0.049504947
-0.55095911 2.3922276 0.026779367
-0.28514999 2.4212573 0.0069358251
-0.36769152 2.3776817 -0.016418988
-0.45298561 2.3585832 -0.038651165
-0.5387339 2.3430729 -0.061654773
-0.28348786 2.4180427 -0.082465716
-0.36191562 2.3460248 -0.10276964
-0.44965932 2.34901 -0.12642995
-0.54287881 2.3637445 -0.15131111
-0.27903569 2.3937943 -0.17013006
-0.36714238 2.3882039 -0.19355877
-0.44232142 2.3126442 -0.21100913
-0.51654649 2.2521539 -0.22949131
-0.28193691 2.4245708 -0.26266766
-0.34551746 2.2540855 -0.26708001
-0.40424153 2.1165493 -0.27275032
-0.37083167 1.6186492 -0.22679274
-0.16390112 1.4196484 -0.20705371
-0.16381566 1.0727 -0.16758074
-0.21744163 1.1408696 -0.19095775
-0.23940848 1.0457526 -0.18709974
-0.11980152 1.0447156 -0.19229594
-0 0 -0
-0.17797378 0.93690181 -0.19305301
-0.19813333 0.86671156 -0.18930209
-0.10511001 0.92443937 -0.20633192
-0.13697064 0.90250647 -0.21140055
-0.16643329 0.87665027 -0.21565802
-0.19368228 0.84588176 -0.21908064
-0 0 -0
-0.12520671 0.82918763 -0.2278863
-0.14878112 0.78479254 -0.22553259
-0.17349432 0.75759196 -0.22815406
-0 0 0
-0.37461084 2.4892838 0.74766982
-0.44365251 2.3405325 0.68232262
-0.52823526 2.3117375 0.65455115
-0 0 0
-0.37647772 2.5061474 0.64880371
-0.45555824 2.4132392 0.60380834
-0.53730869 2.3643641 0.57110751
-0 0 0
-0.36185366 2.4065104 0.52713323
-0.43890569 2.3299329 0.48991358
-0.53300124 2.3532009 0.47438014
-0.31051576 2.7617018 0.52361012
-0.35452276 2.3619616 0.42535633
-0.44022915 2.343478 0.40129101
-0.53362387 2.3601558 0.38394019
-0.27280468 2.428211 0.3677108
-0.3634547 2.429847 0.34511697
-0.44981298 2.4014246 0.31956989
-0.53425854 2.3727798 0.29492956
-0.27724823 2.4716508 0.2812207
-0.38151437 2.5508878 0.2665861
-0.44666889 2.3899405 0.22811519
-0.52658075 2.3440259 0.20292136
-0.27881604 2.4891572 0.19105706
-0.35950834 2.4089236 0.1622422
-0.44657958 2.3927 0.13927908
-0.5262059 2.3459945 0.11430842
-0.26930758 2.4111166 0.09578862
-0.3579351 2.4064369 0.072802112
-0.44179517 2.3737266 0.049648855
-0.53321213 2.3819022 0.026626654
-0.27228361 2.44085 0.0069870325
-0.34986678 2.3581316 -0.016268857
-0.44087836 2.3740981 -0.038860351
-0.52783525 2.361944 -0.062064946
-0.26930737 2.4256966 -0.082668833
-0.34751388 2.3482013 -0.10276964
-0.4366914 2.3595803 -0.12685224
-0.54141092 2.4254761 -0.15504718
-0.26510829 2.4024019 -0.17062299
-0.35219091 2.3884394 -0.19339909
-0.43228832 2.337841 -0.21306209
-0.48756266 2.1872926 -0.22257297
-0.26466155 2.4045124 -0.26031381
-0.3373141 2.2944865 -0.27161667
-0.39827216 2.157038 -0.27764779
-0.36046216 1.6189598 -0.22652209
-0.13122134 1.2012368 -0.17507796
-0.15092993 1.0306593 -0.16086531
-0.2206284 1.1974962 -0.20020549
-0.22785263 1.0241231 -0.18297632
-0.10946442 1.0092469 -0.18564025
-0 0 -0
-0.16337167 0.88977593 -0.18313251
-0.19726597 0.88796175 -0.19367541
-0.092758037 0.86294281 -0.19247542
-0.13227199 0.9091143 -0.21275423
-0.16175288 0.88147914 -0.21659771
-0.19038382 0.8555721 -0.22128369
-0 0 -0
-0.11970188 0.82707518 -0.2270996
-0.14587085 0.79610342 -0.22852157
-0 0 -0
-0 0 0
-0.33880448 2.3492162 0.70496207
-0.43517298 2.3753612 0.6916846
-0.51926476 2.3384612 0.66120315
-0 0 0
-0.35336336 2.4547136 0.63491493
-0.42279196 2.3175917 0.57921672
-0.51145798 2.3162911 0.55872697
-0 0 0
-0.40869114 2.8362515 0.62070465
-0.43284425 2.3778658 0.49942455
-0.51834136 2.355469 0.47418723
-0.25951594 2.4430296 0.46288022
-0.3639904 2.5307288 0.45533815
-0.41985369 2.3131454 0.39564836
-0.51807272 2.3585625 0.38315666
-0.26134455 2.4622893 0.37262154
-0.36104161 2.5192747 0.35749722
-0.43224451 2.3885281 0.31749475
-0.52202272 2.3866813 0.29625377
-0.25548083 2.4110529 0.27414244
-0.35005277 2.4429007 0.25507137
-0.43111154 2.387737 0.22764811
-0.5204733 2.385181 0.20620379
-0.25913134 2.4491751 0.18786262
-0.37847251 2.647155 0.17812745
-0.42374098 2.350199 0.13665117
-0.51414019 2.359915 0.11483081
-0.25597569 2.4266355 0.096340947
-0.35303187 2.4778571 0.074895851
-0.42669123 2.3734407 0.049587179
-0.51837456 2.3841517 0.026615744
-0.25667313 2.4365079 0.0069699632
-0.33876741 2.3839948 -0.016432637
-0.42524374 2.3708537 -0.038763802
-0.50972819 2.3485305 -0.061629131
-0.24910508 2.3766103 -0.080942325
-0.33716467 2.3789756 -0.10402399
-0.4186911 2.3425548 -0.12579647
-0.55316144 2.5516534 -0.16289295
-0.25356558 2.4347401 -0.17280595
-0.33766845 2.3915424 -0.19347893
-0.41741017 2.337508 -0.21279432
-0.46929014 2.1678736 -0.2202998
-0.24733494 2.3813679 -0.25763899
-0.30786356 2.1873429 -0.25870472
-0.38816389 2.1770213 -0.27990812
-0.3440305 1.59112 -0.22232725
-0.12181959 1.1823303 -0.17221019
-0.15695059 1.1196504 -0.17460144
-0.18873417 1.0608747 -0.17716725
-0.22759765 1.0534263 -0.18795879
-0.10507096 1.0275141 -0.18887815
-0 0 -0
-0.16064635 0.90620279 -0.18630707
-0.19098881 0.88533109 -0.19284239
-0.091396637 0.9023481 -0.20113572
-0.12427299 0.89254045 -0.20869318
-0.15701945 0.88628352 -0.21753739
-0.1839018 0.85103798 -0.219815
-0 0 -0
-0.11369826 0.82110286 -0.22526391
-0.14031276 0.7931928 -0.22743466
-0 0 -0
-0 0 0
-0.32254946 2.3379562 0.70097607
-0.40635809 2.2975214 0.66827965
-0.5020619 2.3284111 0.65747803
-0 0 0
-0.32944104 2.3925354 0.61829799
-0.4078899 2.3163168 0.57826173
-0.51151842 2.3860075 0.57477582
-0.2526494 2.5316398 0.57779807
-0 0 0
-0.4082472 2.3235693 0.48748529
-0.50428867 2.3605239 0.47457305
-0.24236915 2.4230638 0.45880693
-0.34644264 2.5182846 0.45270815
-0.40582275 2.3166494 0.39581433
