# .PCD v0.7 - Point Cloud Data file format
VERSION 0.7
FIELDS x y z
SIZE 4 4 4
TYPE F F F
COUNT 1 1 1
WIDTH 1522
HEIGHT 1
VIEWPOINT 0 0 0 1 0 0 0
POINTS 1522
DATA ascii
0.18192813 -0.99142504 -0.24361369
0.18722481 -0.84137565 -0.21761195
0.12134668 -1.1390088 -0.2996498
0 -0 -0
0.17292894 -0.94377536 -0.27091083
0.18510148 -0.83169663 -0.25012445
0.1263224 -1.1991342 0.37251022
0.1707706 -1.184096 0.35532823
0.22053152 -1.2037559 0.35052326
0 -0 0
0.13481362 -1.2720666 0.34153795
0.17750987 -1.23311 0.31894553
0.21819273 -1.1960531 0.29891977
0.28227779 -1.2783798 0.30836594
0.13444901 -1.268415 0.28967413
0.17758271 -1.2323958 0.26970592
0.22256051 -1.2226546 0.25679487
0 -0 0
0.1349483 -1.2703755 0.24069774
0.17772037 -1.2356427 0.22232144
0.22119808 -1.2186706 0.20844561
0.28075516 -1.2781576 0.20764112
0.13349029 -1.257695 0.19032864
0.17630631 -1.2302296 0.17457549
0.21947709 -1.2128024 0.16121158
0.26726884 -1.2219498 0.15167807
0.1354886 -1.2786485 0.14538538
0 -0 0
0.22130512 -1.2257116 0.11685999
0 -0 0
0.13607018 -1.2860649 0.098646894
0 -0 0
0 -0 0
0 -0 0
0.13815559 -1.3097074 0.051997282
0 -0 0
0 -0 0
0 -0 0
0.14132737 -1.3415711 0.0038377473
0 -0 -0
0 -0 -0
0 -0 -0
0.1368984 -1.3060919 -0.044482734
0 -0 -0
0 -0 -0
0 -0 -0
0.13566895 -1.302695 -0.092458926
0 -0 -0
0 -0 -0
0 -0 -0
0.13445242 -1.2945225 -0.14005375
0.1728964 -1.2284133 -0.14528875
0 -0 -0
0 -0 -0
0.13226706 -1.2837291 -0.18697923
0.16641702 -1.1871817 -0.18513246
0.19115385 -1.0744758 -0.17943864
0 -0 -0
0.1292873 -1.2643317 -0.23241007
0.15338181 -1.0979548 -0.21356617
0.18733519 -1.056754 -0.21725903
0.19284508 -0.89393586 -0.19471668
0.12169822 -1.2015121 -0.26782015
0.13770792 -0.98903137 -0.23125461
0.17397618 -0.98199445 -0.24102955
0 -0 -0
0.11580433 -1.1541711 -0.30344605
0 -0 -0
0.16964936 -0.95903367 -0.27498674
0.1785759 -0.82625175 -0.24815275
0.12150742 -1.2255578 0.3804799
0.16572911 -1.2012651 0.36016846
0.21297385 -1.2041398 0.35024792
0.25743118 -1.1938878 0.33712047
0.12643027 -1.2671015 0.3399902
0.16729738 -1.2149819 0.31398526
0.21169183 -1.2021513 0.30011353
0.26014596 -1.213466 0.29231715
0.12763201 -1.2789196 0.29188877
0.17508869 -1.2702531 0.27775052
0.21641 -1.2317135 0.25841373
0.25562927 -1.1965747 0.2405661
0.12724869 -1.2721574 0.2408829
0.16906187 -1.2289073 0.22091879
0.21354616 -1.2190336 0.20827965
0.26157904 -1.2267301 0.19902207
0.12636071 -1.2643942 0.19122152
0.16848551 -1.2293259 0.17429727
0.20998438 -1.2024051 0.15965524
0.25378731 -1.1954052 0.14818706
0.12596354 -1.2626469 0.14347537
0.1716474 -1.2525587 0.13067138
0.21292569 -1.2221422 0.11639293
0.25828212 -1.2195103 0.10529018
0.12758352 -1.2809224 0.098190546
0.16908234 -1.236729 0.083148301
0.21697666 -1.247196 0.072438829
0.26057032 -1.2323303 0.059884883
0.12903082 -1.2995927 0.051563311
0.16904558 -1.2409787 0.037477836
0.2101607 -1.2116489 0.025286993
0.25042281 -1.186795 0.013231516
0.13161308 -1.3274863 0.0037950741
0.16987374 -1.2504851 -0.0086121215
0.21122581 -1.2206995 -0.01993705
0.25898606 -1.2296085 -0.032224551
0.12711629 -1.2890044 -0.043873381
0.16765133 -1.2375257 -0.054066516
0.20682055 -1.1996022 -0.064349934
0.25148818 -1.1954585 -0.076215968
0.12640911 -1.2905971 -0.091543496
0.16689262 -1.2367928 -0.099973433
0.21488625 -1.2475554 -0.11344865
0 -0 -0
0.12428403 -1.2725635 -0.13759291
0.16495857 -1.226498 -0.14493977
0.20782912 -1.2084754 -0.15521151
0 -0 -0
0.12496009 -1.2904269 -0.18783958
0.15663692 -1.1695693 -0.1822326
0.18739417 -1.0921615 -0.18219672
0 -0 -0
0.11964586 -1.2455175 -0.2288124
0.15521452 -1.1631142 -0.22605099
0.18860996 -1.1032906 -0.22658433
0.18595368 -0.88840097 -0.1932589
0.1130297 -1.1886295 -0.26478902
0.15346918 -1.1540291 -0.26960903
0.16598321 -0.97154593 -0.23821048
0 -0 -0
0.10890165 -1.1567863 -0.30395222
0.11966287 -0.90501589 -0.24807878
0.16505621 -0.96764594 -0.27716056
0.18374355 -0.8761642 -0.26279968
0.11433898 -1.2300857 0.38166064
0.15497525 -1.1765984 0.35248104
0.20994511 -1.2310107 0.35768244
0.24753462 -1.1831791 0.33366147
0.11955335 -1.277473 0.34256977
0.16211183 -1.2332745 0.3184495
0.20804998 -1.2254473 0.30560488
0.25388452 -1.2207572 0.29369277
0.11969142 -1.2787076 0.29166731
0.1647411 -1.2519238 0.27351651
0.21015663 -1.2407427 0.26003262
0.25126898 -1.2125326 0.24345984
0.11925686 -1.2709574 0.24051258
0.16228738 -1.2357782 0.22197077
0.20688325 -1.2251828 0.20910946
0.25244674 -1.2205746 0.19776838
0.11887705 -1.2680993 0.19166794
0.16093932 -1.2303365 0.17429727
0.20605887 -1.2242047 0.16237885
0.25025147 -1.2154142 0.15047427
0.11765828 -1.2574599 0.14280125
0.16189463 -1.2378076 0.12902643
0.20113623 -1.1978967 0.11396418
0.2465845 -1.2005745 0.10352272
0.11916512 -1.2757244 0.097734205
0.16110346 -1.2347749 0.082948901
0.20981516 -1.2514577 0.072610214
0.24618232 -1.2006365 0.058270227
0.11929447 -1.2814566 0.050813735
0.16297391 -1.2538872 0.037836764
0.2048648 -1.2257351 0.025554253
0.25055239 -1.2245561 0.013635115
0.12457593 -1.3402172 0.0038292126
0.16412558 -1.2663791 -0.0087144841
0.20537609 -1.2318351 -0.020097962
0.2468358 -1.208647 -0.031634923
0.11902076 -1.2877699 -0.043805677
0.16376814 -1.2672651 -0.055320863
0.20469195 -1.2323722 -0.066039182
0.24674134 -1.2096921 -0.077025458
0.11721176 -1.2774415 -0.090557635
0.16133644 -1.2536119 -0.10125104
0.20298822 -1.2233034 -0.11112791
0 -0 -0
0.11656396 -1.2742922 -0.1376999
0.16084121 -1.2540858 -0.14808051
0.2005723 -1.2107066 -0.1553371
0.20124419 -0.98936772 -0.13788889
0.11614639 -1.2813131 -0.18640569
0.15458976 -1.2107017 -0.18849017
0.18036747 -1.0913438 -0.18187225
0.19581722 -0.96346217 -0.17146513
0.11270566 -1.2540661 -0.23025146
0.15761609 -1.23905 -0.24061662
0.17881143 -1.0860522 -0.22281452
0 -0 -0
0.10754984 -1.209722 -0.26933569
0.14957024 -1.1800777 -0.275475
0.15891413 -0.96583229 -0.23656605
0.19700813 -0.9691484 -0.24967851
0.10425985 -1.1853807 -0.31129161
0.12665214 -1.0053064 -0.2753517
0.15989572 -0.97338873 -0.27851918
0.17606999 -0.86599189 -0.25941962
0.10497217 -1.209823 0.37516677
0.1481109 -1.1803807 0.3533352
0.20223203 -1.2313272 0.35740709
0.24640138 -1.2149066 0.34217593
0.10994613 -1.2579702 0.33715263
0.15526372 -1.2400135 0.31993759
0.1991169 -1.2180755 0.30345607
0.23888803 -1.1850796 0.2847513
0.11184316 -1.279418 0.29166731
0.15851505 -1.2645479 0.27605692
0.20064819 -1.2304102 0.2576043
0.24401747 -1.2150135 0.24365275
0.11042656 -1.2599177 0.23829076
0.15445735 -1.234797 0.22162011
0.20015289 -1.2312959 0.20993926
0.2418471 -1.2066065 0.195261
0.10997262 -1.2559986 0.18973342
0.15216294 -1.2214741 0.17290623
0.19806767 -1.2225096 0.16198976
0.24298337 -1.2179004 0.15059465
0.11132442 -1.2739966 0.1445989
0.15466537 -1.2417388 0.12933485
0.20093001 -1.2433378 0.11816778
0.24679808 -1.2401792 0.10680515
0.11072868 -1.2694783 0.097201802
0.15869066 -1.2773277 0.085740454
0.20101918 -1.2458223 0.072210319
0.23900534 -1.2031041 0.058317713
0.11099679 -1.2771871 0.050616477
0.15515438 -1.2538716 0.03780685
0.1976575 -1.2289432 0.025595371
0.24342282 -1.2280322 0.013656932
0.11401623 -1.3140576 0.0037524004
0.15708676 -1.2733171 -0.0087554296
0.1971803 -1.2291231 -0.020033596
0.24271329 -1.22681 -0.032070734
0.11068756 -1.2834972 -0.043636411
0.15428181 -1.2543638 -0.05471532
0.19885974 -1.244452 -0.066619866
0.23447756 -1.186705 -0.075468749
0.11039189 -1.2900634 -0.091402657
0.1563071 -1.2763455 -0.10300777
0.19406527 -1.215674 -0.11032458
0 -0 -0
0.10806691 -1.2670581 -0.13684396
0.15338387 -1.2570211 -0.14831318
0.19392043 -1.2168131 -0.15596497
0.20263946 -1.0284964 -0.1431663
0.10753257 -1.2731261 -0.18511519
0.15061367 -1.2400786 -0.19291626
0.17816046 -1.1206908 -0.18657725
0.19503948 -0.99074322 -0.17610398
0.10262963 -1.2263064 -0.22503482
0.14906698 -1.2321951 -0.2391033
0.17383038 -1.0977775 -0.22499704
0.19880351 -1.0115402 -0.21949878
0.10197628 -1.2327373 -0.27431536
0.14290944 -1.1858094 -0.27660307
0.15435219 -0.97542971 -0.23868033
0 -0 -0
0.093120925 -1.1387511 -0.29889059
0.13103776 -1.0942149 -0.29947776
0.1521181 -0.96294439 -0.27525845
0.17242165 -0.87552881 -0.26195467
0.099926054 -1.2399675 0.38431719
0.14517879 -1.2174382 0.36415449
0.19137339 -1.2116542 0.35134932
0.23448297 -1.1936947 0.3357901
0.10238173 -1.260547 0.33766854
0.1513149 -1.2717258 0.32787403
0.19450396 -1.2375011 0.30799243
0.23478222 -1.2027636 0.28864887
0.10154292 -1.2499492 0.28480193
0.15098418 -1.2674378 0.27648032
0.19233634 -1.2267808 0.25659248
0.23768149 -1.222267 0.24481024
0.1023746 -1.2566538 0.23755015
0.14815608 -1.2464755 0.22354877
0.19289853 -1.2344494 0.21027118
0.23575601 -1.2148546 0.19635798
0.10354719 -1.2724193 0.19211437
0.14687654 -1.2410697 0.17554922
0.19239363 -1.2354589 0.1635461
0.23136432 -1.1979247 0.14794631
0.10262056 -1.263761 0.14336301
0.14984857 -1.2663718 0.13180229
0.19329725 -1.2445472 0.11816778
0.23371786 -1.2132947 0.10436437
0.10374268 -1.2800723 0.097962379
0.14804362 -1.2544954 0.084145278
0.19566593 -1.2618309 0.07306724
0.23784301 -1.2369177 0.059884883
0.10163035 -1.2589204 0.049866892
0.14897443 -1.2677053 0.038195688
0.19087663 -1.2350732 0.025698163
0.22853537 -1.1912035 0.013231516
0.10257746 -1.2728684 0.0036329157
0.14775838 -1.2613455 -0.0086667147
0.19131032 -1.2411801 -0.0202106
0.23668511 -1.236131 -0.032275822
0.10265057 -1.2821598 -0.043568708
0.14611876 -1.2513175 -0.054542303
0.18849279 -1.227882 -0.065669663
0.23431483 -1.2253727 -0.077834934
0.10176361 -1.2817669 -0.090768889
0.14605565 -1.2564875 -0.1013309
0.19445297 -1.2680359 -0.11496606
0.2119853 -1.110384 -0.11227482
0.10060401 -1.2716621 -0.13727194
0.14532529 -1.2549787 -0.14796419
0.19050382 -1.2444578 -0.15935551
0.21655118 -1.1358069 -0.15791593
0.099564306 -1.2717887 -0.1848284
0.14220992 -1.2341069 -0.19184791
0.17530204 -1.1480999 -0.19095775
0.19098453 -1.0025662 -0.17799386
0.095103219 -1.2269131 -0.22503482
0.14049605 -1.2243067 -0.23740083
0.16753331 -1.1017305 -0.22559227
0.19643033 -1.0329189 -0.22387211
0.093814313 -1.2255523 -0.27258331
0.13496698 -1.1808563 -0.27524936
0.14704992 -0.96770966 -0.23656605
0.19000007 -0.99720895 -0.25628763
0.084746227 -1.1209719 -0.29408199
0.12595426 -1.109381 -0.30341136
0.14534076 -0.95815074 -0.27362812
0.16830359 -0.8831681 -0.26392636
0.08813259 -1.1843414 0.36690187
0.138998 -1.2297366 0.36757109
0.18825974 -1.24132 0.3596099
0.22409426 -1.1790119 0.33126673
0.094934449 -1.2650055 0.33870038
0.14513721 -1.2870702 0.33159423
0.18386446 -1.2185068 0.30297858
0.22685593 -1.2013122 0.28796107
0.095258377 -1.269025 0.28900975
0.14331412 -1.2693115 0.276692
0.1843681 -1.2250327 0.25598544
0.22781932 -1.2111664 0.24230234
0.094588205 -1.2562783 0.23736499
0.13918264 -1.2356211 0.22144477
0.18561298 -1.2375603 0.21060309
0.23103037 -1.2308387 0.19870862
0.096182771 -1.2789474 0.19300723
0.13859664 -1.2360429 0.1747146
0.18568872 -1.2425001 0.16432428
0.22820185 -1.2217664 0.15071504
0.094641306 -1.2613943 0.14302595
0.14085637 -1.2563939 0.13067138
0.18213487 -1.2220758 0.11592586
0.2249915 -1.2078488 0.10377522
0.094769657 -1.2657698 0.096821502
0.1421171 -1.271246 0.085208729
0.18909521 -1.2709076 0.073524274
0.23116191 -1.2432641 0.060122333
0.095166795 -1.2764601 0.050537568
0.14152484 -1.2715758 0.038285419
0.1830015 -1.2342432 0.025657047
0.22249861 -1.1994654 0.013307872
0.095655866 -1.2854406 0.003667054
0.1424416 -1.2840937 -0.0088168466
0.18720101 -1.2660694 -0.020596791
0.22836804 -1.233628 -0.03217328
0.094339579 -1.2767853 -0.04336559
0.13997506 -1.2660928 -0.055147853
0.18386434 -1.2487745 -0.06672544
0.22334446 -1.2081403 -0.076651841
0.093387 -1.2754031 -0.090275966
0.14041457 -1.2761859 -0.10284807
0.17898753 -1.2169785 -0.11023531
0.22178385 -1.2016929 -0.1213675
0.092799343 -1.2722554 -0.13727194
0.1384877 -1.2637451 -0.14889479
0.18300849 -1.2465849 -0.15948109
0.2235857 -1.2131166 -0.16847073
0.091830075 -1.2733629 -0.18497181
0.13827656 -1.26836 -0.1970371
0.17111316 -1.1686808 -0.19420257
0.2058813 -1.1180425 -0.1982673
0.083863102 -1.1754704 -0.21550098
0.13351099 -1.2300268 -0.23834665
0.16515341 -1.1328036 -0.23174299
0.19698501 -1.0716212 -0.23199399
0.08649832 -1.2290264 -0.27323282
0.13002197 -1.202971 -0.28021291
0.16591214 -1.1388429 -0.27814716
0.19933259 -1.0822675 -0.27782854
0.080747932 -1.162971 -0.30496454
0.1212044 -1.1293228 -0.30865616
0.13405782 -0.92188251 -0.2630308
0.17365906 -0.94268942 -0.28139001
0.082165055 -1.2039244 0.37280536
0.13267171 -1.2420046 0.37098774
0.17939475 -1.2338896 0.35713172
0.21999101 -1.1974303 0.33605614
0.087635465 -1.2723112 0.34050611
0.13446574 -1.2619272 0.32489786
0.17735735 -1.2263396 0.30464986
0.22437343 -1.2294929 0.29438058
0.086665675 -1.2579112 0.28635219
0.13583416 -1.2730825 0.27732712
0.17754698 -1.2309873 0.25699723
0.22459462 -1.2357111 0.24693233
0.087216884 -1.2617369 0.23829076
0.13357811 -1.2550524 0.2247761
0.17815624 -1.2396519 0.21076906
0.22347374 -1.232233 0.19870862
0.087584317 -1.2686616 0.19137031
0.13340887 -1.2595197 0.17791398
0.17482902 -1.2210405 0.16134128
0.22122978 -1.2260745 0.15107618
0.086899757 -1.2619513 0.14302595
0.1358683 -1.2829529 0.13334444
0 -0 0
0 -0 0
0 -0 0
0.13651435 -1.2929318 0.086604506
0 -0 0
0 -0 0
0 -0 0
0.13894336 -1.3221241 0.039780941
0 -0 0
0 -0 0
0 -0 0
0.13830921 -1.320747 -0.0090625174
0 -0 -0
0 -0 -0
0 -0 -0
0.13541819 -1.2977315 -0.056488704
0 -0 -0
0 -0 -0
0 -0 -0
0.13422836 -1.292887 -0.10412568
0.17540556 -1.2456696 -0.11273457
0 -0 -0
0.085189909 -1.275777 -0.13759291
0.1325693 -1.2823541 -0.15098862
0.17452769 -1.2417897 -0.15872763
0.21249226 -1.1939808 -0.16562906
0.084145397 -1.2758774 -0.18525858
0.13018823 -1.2662354 -0.19657925
0.16558257 -1.1814352 -0.19614947
0 -0 -0
0.081639469 -1.252528 -0.22953191
0.12696087 -1.2405913 -0.24023829
0 -0 -0
0.19467898 -1.0968852 -0.2372003
0.077328868 -1.2042029 -0.26760361
0.12204578 -1.1979309 -0.2788592
0.15972655 -1.1456158 -0.27955669
0.18538809 -1.0424224 -0.26730284
0.069945306 -1.1055138 -0.2897796
0.11650575 -1.1521277 -0.31468767
0.1221645 -0.87788785 -0.25025967
0.16635919 -0.93523508 -0.27885497
0.074361928 -1.1977308 0.37073916
0.12514438 -1.243749 0.37127244
0.17221779 -1.2378237 0.35795778
0.21095598 -1.1892662 0.33339536
0.078375652 -1.2496827 0.33431506
0.12894502 -1.2848986 0.33060217
0.17142648 -1.2389479 0.30751491
0.21598084 -1.2260535 0.29323423
0.08004465 -1.2759379 0.29033855
0.12772693 -1.2709746 0.276692
0.16891964 -1.2242925 0.25537834
0.2156519 -1.2293342 0.245389
0.07959687 -1.2642097 0.23866105
0.12538381 -1.2509505 0.22389944
0.17121798 -1.2456065 0.21159886
0.21641952 -1.2364997 0.19917876
0.080418825 -1.2790444 0.19285841
0.12528504 -1.256373 0.17735757
0.16598845 -1.2122664 0.16004433
0.21489452 -1.234255 0.15191883
0.080025449 -1.2763449 0.1445989
0.12661211 -1.2699054 0.13190511
0.1688751 -1.237043 0.11714023
0.21731088 -1.2517531 0.10731015
0.078918383 -1.2618617 0.096441217
0.12759171 -1.2838162 0.085939854
0.17011504 -1.2484019 0.072096065
0.22032146 -1.2715966 0.061357073
0.078564636 -1.2625724 0.049945794
0.12895937 -1.3040526 0.039212644
0.16905206 -1.2453123 0.025842074
0.2121903 -1.2277242 0.013591482
0.078820907 -1.2695504 0.0036186911
0.12824178 -1.3016676 -0.008926034
0.16950466 -1.2524179 -0.020339331
0.2135521 -1.2383078 -0.032224551
0.077988863 -1.266874 -0.04299321
0.12530592 -1.2766637 -0.055537127
0.16759282 -1.2440091 -0.066355921
0.20833251 -1.2098064 -0.076589577
0.077001244 -1.2645051 -0.089430951
0.12464638 -1.2768207 -0.10276821
0.16616507 -1.2348771 -0.11166346
0.21477537 -1.2494372 -0.12591383
0.077600911 -1.2802455 -0.13802089
0.12431414 -1.2791891 -0.15052332
0.16782925 -1.24972 -0.15960665
0.20650306 -1.2030745 -0.16671161
0.077023983 -1.2882245 -0.18697923
0.12336674 -1.2768474 -0.19810547
0.15806837 -1.1804729 -0.19582498
0.1924787 -1.1224267 -0.19861092
0.067983046 -1.1518615 -0.21100388
0.11925238 -1.2403694 -0.24004912
0.15732558 -1.1804067 -0.24106824
0.18018954 -1.0527484 -0.2274124
0.067505427 -1.1627452 -0.25829378
0.11617782 -1.2141739 -0.28246903
0.1564153 -1.1745161 -0.28636941
0.17161252 -1.0005373 -0.25628763
0.062498733 -1.0943316 -0.2867426
0.10852229 -1.143214 -0.31206527
0 -0 -0
0.16370012 -0.95420647 -0.28420672
0.06455715 -1.1542827 0.35716113
0.1173303 -1.2425848 0.37070301
0.16347973 -1.2302803 0.3554796
0.20804323 -1.2161924 0.34057948
0.071415521 -1.2626801 0.33766854
0.12042288 -1.2789142 0.32886609
0.16191335 -1.2255356 0.30393359
0.21106157 -1.2427096 0.29690254
0.071883634 -1.2705634 0.28900975
0.11992598 -1.2717344 0.276692
0.16319486 -1.2388989 0.25821137
0.2085956 -1.2335367 0.24596775
0.072339915 -1.2735046 0.24032743
0.11742923 -1.2487557 0.22337344
0.16344355 -1.2456559 0.21143289
0.20981425 -1.2436477 0.20011903
0.071561337 -1.2617428 0.19017984
0.1167438 -1.2482443 0.17610563
0.16304386 -1.2476739 0.16458367
0.20846716 -1.2424035 0.15276147
0.071743689 -1.2688752 0.14370008
0.11946599 -1.277591 0.13262478
0.16398245 -1.2587889 0.11910191
0.20140554 -1.2039231 0.10310189
0.071118131 -1.2613268 0.096365161
0.11878613 -1.2746401 0.085275196
0.16258049 -1.2504121 0.072153188
0.2097187 -1.2561755 0.060549747
0.071319595 -1.2720096 0.050300863
0.12086315 -1.3038239 0.039182734
0.16294867 -1.2582242 0.026088776
0.20416038 -1.2260439 0.013558758
0.070471197 -1.2600259 0.0035902425
0.12080409 -1.3084043 -0.0089669786
0.16412114 -1.271284 -0.020628972
0.2061138 -1.2405809 -0.032250185
0.070324577 -1.2693244 -0.043060914
0.11673819 -1.2694496 -0.055191103
0.16033833 -1.2479855 -0.066514291
0.20384544 -1.2287848 -0.077710398
0.069459014 -1.2689378 -0.08971262
0.11744493 -1.2845101 -0.10332717
0.15871166 -1.2368615 -0.11175273
0.20726749 -1.2517133 -0.12601267
0.069960274 -1.2846687 -0.13844885
0.11673286 -1.2828952 -0.15087229
0.160662 -1.2546625 -0.16010897
0.20283453 -1.2268021 -0.16982391
0.068111047 -1.2698961 -0.18425485
0.11481778 -1.2697061 -0.19688448
0.15507066 -1.2147 -0.20134118
0.18623018 -1.1274745 -0.19929816
0.062783562 -1.1876203 -0.21747971
0.11225519 -1.2479237 -0.24137327
0.15267375 -1.2017682 -0.24523486
0.18088567 -1.0972615 -0.23678382
0.061533559 -1.1855619 -0.26327348
0.10690193 -1.1944867 -0.27773115
0.14798166 -1.1658109 -0.28402022
0.16388969 -0.99200535 -0.25383982
0.057604551 -1.1304436 -0.29610667
0.10124972 -1.1409746 -0.31127855
0 -0 -0
0.1576857 -0.95424622 -0.28392503
0.059373338 -1.1928275 0.3689681
0.10928244 -1.2385068 0.36927941
0.15604858 -1.232214 0.35575497
0.20449442 -1.2412242 0.34723142
0.062936954 -1.2486205 0.33379915
0.11248845 -1.278664 0.32861808
0.15669489 -1.2448121 0.30846992
0.20327537 -1.2430205 0.29667324
0.064822875 -1.2855895 0.2923317
0.11203472 -1.2714728 0.27648032
0.15619974 -1.2447354 0.25922316
0.20307249 -1.2473836 0.24847566
0.06467361 -1.2768688 0.2408829
0.11105717 -1.2641637 0.22600342
0.15371835 -1.2300005 0.20861158
0.20107116 -1.2380875 0.19902207
0.065116413 -1.2878357 0.19404891
0.11080577 -1.2686676 0.17888771
0.15526275 -1.2476668 0.16445397
0.20099826 -1.2446394 0.15288186
0.064506732 -1.2802081 0.14493597
0.1102401 -1.2624451 0.13097982
0.1530692 -1.234082 0.11667316
0.19860761 -1.2336661 0.10554268
0.063677564 -1.2677144 0.096821502
0.1112223 -1.2783269 0.085474588
0.15674479 -1.2662483 0.073010117
0.20580947 -1.2811081 0.061689503
0.064011492 -1.2824031 0.050695378
0.11182693 -1.2925911 0.038823809
0.15546992 -1.2611849 0.026129892
0.19869019 -1.2401091 0.013700563
0.063782483 -1.2814085 0.003649985
0.11165789 -1.2961694 -0.0088782646
0.15473247 -1.2593657 -0.020419786
0.1996024 -1.2487323 -0.032429643
0.062682316 -1.2727267 -0.043162473
0.10928833 -1.2741237 -0.055364117
0.15304133 -1.2519194 -0.066672653
0.20007697 -1.2536666 -0.079204828
0.061768465 -1.2713327 -0.089853458
0.10930711 -1.2822269 -0.10308761
0.15196434 -1.2447326 -0.11237754
0.19973975 -1.2539442 -0.12611149
0.06150071 -1.2731565 -0.13716495
0.10852324 -1.2796288 -0.150407
0.15368031 -1.2615335 -0.16086242
0.1953032 -1.2280235 -0.16982391
0.060364768 -1.2712786 -0.18439823
0.10661003 -1.2654628 -0.19612136
0.14951766 -1.2313015 -0.20393704
0.17467132 -1.099408 -0.19414388
0.055219866 -1.1820874 -0.2164004
0.1036123 -1.2368469 -0.2391033
0.1462374 -1.2104667 -0.24682215
0.17675342 -1.1147729 -0.24032411
0.053544007 -1.1703129 -0.25980935
0.10013688 -1.2019161 -0.27931044
0.14175743 -1.174417 -0.28589955
0.15521289 -0.97671378 -0.24967851
0.048805069 -1.0892174 -0.28522411
0.091309153 -1.1059905 -0.30157569
0.10621491 -0.88189864 -0.25080311
0.14474833 -0.91065788 -0.27068648
0.051720034 -1.1855332 0.36660674
0.099642724 -1.2143136 0.36187673
0.14974912 -1.2436473 0.35878384
0.19717628 -1.2443597 0.34776357
0.055957831 -1.2644266 0.33792651
0.10424573 -1.2745025 0.327378
0.15113053 -1.2631058 0.31276748
0.19670288 -1.2509754 0.29827815
0.056588374 -1.2781693 0.29055998
0.10207614 -1.2458364 0.27076441
0.14960299 -1.2544222 0.26104444
0.1942011 -1.2408508 0.24693233
0.056968734 -1.2801868 0.24143833
0.10161541 -1.2442153 0.22232144
0.1483777 -1.2495263 0.2117648
0.19453698 -1.2461288 0.20011903
0.056818303 -1.2793201 0.19270962
0.10181767 -1.254518 0.17680115
0.14702226 -1.2436725 0.16380548
0.19168276 -1.2350583 0.15155768
0.056430731 -1.2756163 0.14437421
0.10184821 -1.2551662 0.13015734
0.14968772 -1.2705944 0.12003604
0.18920617 -1.2230446 0.1045327
0.055897817 -1.2680812 0.096821502
0.10289422 -1.2730181 0.085075796
0.14710721 -1.2513217 0.072096065
0.19565913 -1.2675391 0.060977153
0.056272682 -1.2857666 0.050813735
0.10197264 -1.2693406 0.038105953
0.14784475 -1.2631081 0.026150452
0.19183794 -1.2462465 0.013755104
0.056005877 -1.2837738 0.0036556746
0.10202873 -1.2758974 -0.0087349564
0.1472339 -1.2622777 -0.020451969
0.19117792 -1.2449931 -0.032301459
0.055302195 -1.2830724 -0.043501001
0.10067568 -1.2648112 -0.054931585
0.14593226 -1.2577946 -0.066936597
0.18996096 -1.2390862 -0.078208543
0.054262612 -1.2786644 -0.090346389
0.10025886 -1.2679679 -0.10188985
0.1459288 -1.259493 -0.11362717
0.18873087 -1.2335057 -0.12393717
0.053980753 -1.2804636 -0.1379139
0.09989097 -1.2703689 -0.14924377
0.14525326 -1.2565396 -0.16010897
0.191056 -1.2507465 -0.1728009
0.0528902 -1.2795357 -0.18554536
0.098843284 -1.266093 -0.19612136
0.14207265 -1.233176 -0.20409927
0.17312333 -1.1345443 -0.2001572
0.049082082 -1.2099247 -0.22143714
0.095945224 -1.2364804 -0.23891413
0.13903052 -1.2132887 -0.24721897
0.1712351 -1.1245389 -0.24219839
0.043966718 -1.1101373 -0.24638584
0.092460468 -1.1986227 -0.27840799
0.13244808 -1.1569164 -0.28143606
0.1487781 -0.97477233 -0.24894416
0.041597594 -1.0759622 -0.28168094
0.087093584 -1.1402069 -0.31075406
0.11128593 -0.97432494 -0.27688882
0.14292285 -0.93619049 -0.27800995
0.043550141 -1.1619587 0.35922733
0.090086497 -1.1871822 0.35361993
0.14320609 -1.2540941 0.36153737
0.18779711 -1.2341104 0.34457064
0.047646515 -1.2502643 0.33405712
0.097007953 -1.2828461 0.32936212
0.1440341 -1.2697988 0.31420001
0.18844217 -1.2483089 0.29736105
0.048596002 -1.2745947 0.28967413
0.096201867 -1.2698283 0.27584523
0.14498326 -1.2825637 0.26671052
0.18731257 -1.2468706 0.24789691
0.049903505 -1.301134 0.24532653
0.093979135 -1.2448153 0.22232144
0.14236204 -1.2651123 0.2142542
0.18644817 -1.2443687 0.1996489
0.049269974 -1.2875497 0.19390011
0.095006786 -1.2669693 0.1784704
0.13982992 -1.2484928 0.16432428
0.18336983 -1.2313018 0.1509558
0.048224404 -1.2660091 0.14325067
0.09384729 -1.2517998 0.12974609
0.14199908 -1.2724783 0.12012945
0.18374626 -1.2379817 0.10571101
0.048002578 -1.2654113 0.096593335
0.0941898 -1.2616851 0.084278211
0.14108369 -1.2670842 0.072952986
0.18875591 -1.2746444 0.061262093
0.048232049 -1.2820935 0.050655924
0.094182193 -1.2699424 0.038105953
0.14306532 -1.2908216 0.026705531
0.18520994 -1.2543246 0.01383146
0.047378667 -1.2641075 0.0035987771
0.092063874 -1.2475786 -0.008537055
0.14124186 -1.2790587 -0.020709429
0.18499181 -1.2560327 -0.032557823
0.047170006 -1.2763963 -0.043264035
0.092620403 -1.2614194 -0.054758571
0.13919283 -1.2676002 -0.067411706
0.18482265 -1.2570149 -0.079267092
0.047284111 -1.3028978 -0.092036419
0.091317296 -1.2526526 -0.10061224
0.13895789 -1.2672954 -0.11425199
0.1810142 -1.2336559 -0.12383833
0.047303766 -1.31356 -0.14144465
0.092883833 -1.2818546 -0.15052332
0.13915865 -1.2722002 -0.16199259
0.18553197 -1.2666003 -0.17483068
0.04601267 -1.3075297 -0.18956025
0.090151466 -1.2538611 -0.19413726
0.13674864 -1.2546242 -0.20750634
0.16801277 -1.1482569 -0.20239072
0.041386478 -1.2023382 -0.21999808
0.086117879 -1.2057034 -0.23286089
0.13401221 -1.2365304 -0.25178239
0.16517963 -1.1313752 -0.2434479
0.036501244 -1.0908716 -0.2420557
0.083517902 -1.1768167 -0.27321887
0.12963672 -1.1973283 -0.29106784
0.14841048 -1.0140411 -0.25873545
0.034460321 -1.0597593 -0.27737856
0.079217076 -1.1282055 -0.30734494
0.10799239 -0.99986655 -0.2839537
0.13731478 -0.93799919 -0.27829161
0 -0 0
0.08206705 -1.1771934 0.35048804
0.13478598 -1.2482587 0.3596099
0.18216954 -1.2485933 0.34829572
0.040591501 -1.2698463 0.33921629
0.087121144 -1.2544245 0.32192171
0.13520479 -1.2610031 0.31181249
0.18398494 -1.2715983 0.30263424
0.040930185 -1.2797422 0.29078147
0.088272832 -1.2684448 0.27542183
0.13523833 -1.2659012 0.26306802
0.1796584 -1.2479964 0.24789691
0.042646609 -1.3240063 0.24958503
0.087020233 -1.2551901 0.22407478
0.13386698 -1.2590978 0.21309249
0.1813357 -1.2630866 0.20246968
0.041337039 -1.2868395 0.19375129
0.086959049 -1.2635766 0.17791398
0.1344616 -1.2710204 0.16717757
0 -0 0
0.040455412 -1.2662811 0.14325067
0 -0 0
0.1354408 -1.2852075 0.12125041
0 -0 0
0 -0 0
0 -0 0
0.13664684 -1.2996986 0.07478109
0 -0 0
0 -0 0
0 -0 0
0.13815932 -1.3205116 0.027301729
0 -0 0
0 -0 0
0 -0 -0
0.13598217 -1.3047633 -0.021111708
0 -0 -0
0 -0 -0
0 -0 -0
0.13305888 -1.2843231 -0.068256333
0 -0 -0
0.038747706 -1.2852162 -0.090768889
0.083961308 -1.2581624 -0.10101149
0.1324091 -1.2800127 -0.1153231
0.17288755 -1.2308017 -0.123443
0.038975861 -1.3048812 -0.14048173
0.083439954 -1.2586157 -0.14773156
0.13196088 -1.2789512 -0.16274604
0.17748161 -1.2657524 -0.17456004
0.036839515 -1.2682174 -0.18382469
0.083428584 -1.2691829 -0.19642662
0.13015771 -1.2662371 -0.209291
0.15836783 -1.1307296 -0.19912635
0.031811517 -1.1248893 -0.20578724
0.078654252 -1.2052292 -0.23267172
0.12632285 -1.2363544 -0.25158396
0.15633951 -1.1188062 -0.24053237
0.031486746 -1.1525578 -0.2556957
0.077429555 -1.1948061 -0.27727991
0.12189281 -1.1942332 -0.29012814
0.16048013 -1.1455201 -0.29202592
0 -0 -0
0.072046317 -1.1248183 -0.30629599
0.11618325 -1.1412519 -0.32389739
0.1319562 -0.94167477 -0.27913663
0 -0 0
0.074963972 -1.1795881 0.35105744
0.12731895 -1.250975 0.36016062
0.17517145 -1.2544611 0.34962609
0.032175548 -1.2459257 0.33276734
0.080095567 -1.2655703 0.32464984
0.12922166 -1.2792 0.31611004
0.17337625 -1.2524557 0.29781958
0.032522839 -1.2585226 0.28590924
0.080488145 -1.2689625 0.27542183
0.12746836 -1.2667072 0.26306802
0.17172976 -1.2471312 0.24751107
0.033292592 -1.277089 0.24069774
0.079813398 -1.2635608 0.22547741
0.12574583 -1.2559706 0.21242866
0.1739852 -1.2671108 0.20293982
0.033491731 -1.2890459 0.19404891
0.078894623 -1.2591447 0.17721847
0.1267585 -1.2728082 0.16730727
0.16878273 -1.2373937 0.1514373
0.032710526 -1.2674987 0.14336301
0.078851826 -1.2588137 0.13036296
0.12588179 -1.2691712 0.11966238
0.16760118 -1.2332317 0.10512186
0.032751657 -1.2768695 0.097429968
0.078513704 -1.2597586 0.084078819
0.12788311 -1.2925645 0.074324071
0.17041615 -1.2570684 0.060312297
0.032849468 -1.2965735 0.05120825
0.077727318 -1.2570356 0.037687209
0.1284873 -1.3054147 0.026972793
0.16859828 -1.2475846 0.013733288
0.032441877 -1.2875862 0.0036642095
0.077360719 -1.2585953 -0.0086052967
0.12641308 -1.2896514 -0.02085425
0.17143363 -1.2720783 -0.032916725
0.031355206 -1.2708843 -0.043060914
0.077194802 -1.2634584 -0.054801825
0.12382057 -1.2712007 -0.067517281
0.16805266 -1.2492968 -0.078644417
0.030406145 -1.2664825 -0.089430951
0.075998709 -1.2546738 -0.10069209
0.12426338 -1.277827 -0.11505532
0.16824441 -1.2535371 -0.12561734
0.0310157 -1.3070837 -0.14069571
0.076967649 -1.2799237 -0.15017435
0.12411091 -1.2797368 -0.16274604
0.16892239 -1.2609254 -0.17374812
0.028694537 -1.2525891 -0.18153046
0.07522805 -1.2627653 -0.19535825
0.12418835 -1.2856733 -0.21237357
0.15038159 -1.1238686 -0.19775186
0.025801435 -1.1653845 -0.21316248
0.070794158 -1.1978472 -0.23115841
0.11723613 -1.2214961 -0.24840944
0.15193053 -1.1381644 -0.24448916
0.023463255 -1.1078305 -0.24573635
0.068728045 -1.1719176 -0.27186516
0.11205823 -1.1688341 -0.28378528
0.14804612 -1.1061207 -0.28174505
0 -0 -0
0.063581556 -1.0982643 -0.29895329
0.1001108 -1.0471008 -0.29699653
0.11102445 -0.82929462 -0.2456177
0.022045676 -1.156832 0.35745633
0.068988062 -1.2020377 0.35760596
0.11881749 -1.2431197 0.35768244
0.16619641 -1.2459574 0.34696534
0.025043506 -1.2721808 0.33973223
0.073157497 -1.2805457 0.32837006
0.12082019 -1.2741683 0.31467751
0.16390236 -1.2399864 0.29460984
0.025222698 -1.2801481 0.29078147
0.071638688 -1.2508935 0.27139953
0.11950945 -1.2655156 0.2626633
0.16458578 -1.2520529 0.24828273
0.026160825 -1.3126398 0.24736321
0.071834698 -1.2600951 0.2247761
0.11914357 -1.2685003 0.21442017
0.16453858 -1.255424 0.20090258
0.025483573 -1.2842838 0.19330485
0.0718375 -1.2714695 0.17888771
0.11931513 -1.277511 0.16782606
0.16131517 -1.2393905 0.15155768
0.0252844 -1.2855582 0.14538538
0.070789851 -1.2533152 0.12974609
0.11882943 -1.2778506 0.12040969
0.15990292 -1.2332486 0.10503769
0.024857966 -1.2740558 0.097201802
0.070670575 -1.258224 0.083945878
0.11939647 -1.2873603 0.0739813
0.16346836 -1.264034 0.060597233
0.024758976 -1.2897574 0.050932083
0.070790753 -1.2714609 0.038105953
0.12267882 -1.330072 0.027466198
0.16272971 -1.2624798 0.013886
0.024597943 -1.2907604 0.0036727437
0.069084436 -1.2490618 -0.008537055
0.11822326 -1.2874159 -0.020805977
0.16311535 -1.2691402 -0.032814182
0.024056638 -1.2980325 -0.04397494
0.069166876 -1.2589204 -0.054585561
0.11592759 -1.270942 -0.067464493
0.16228876 -1.2651538 -0.079578444
0.023614818 -1.3214998 -0.093303941
0.068190426 -1.2531259 -0.10053238
0.11488504 -1.2617031 -0.11353791
0.15865491 -1.23974 -0.12413483
0.022872595 -1.3002907 -0.13994676
0.06911274 -1.2803719 -0.15017435
0.11544892 -1.2715821 -0.16161586
0.16331637 -1.2786461 -0.17604853
0.021937529 -1.3081551 -0.18956025
0.066951275 -1.2533343 -0.19383201
0.11576421 -1.2805147 -0.21140014
0.15470219 -1.2127192 -0.21321467
0.017942045 -1.1212606 -0.20506771
0.064429402 -1.21689 -0.23475254
0.11210553 -1.2485496 -0.25376651
0.15556175 -1.2225169 -0.26239896
0.015710894 -1.0445025 -0.23166333
0.058625165 -1.1168633 -0.25900513
0.10575254 -1.1791809 -0.28613448
0.14996976 -1.1752946 -0.29912463
0.01430677 -1.0147487 -0.26548365
0.055445425 -1.0716498 -0.29161057
0.098826781 -1.1052083 -0.31330007
0.11516667 -0.90229625 -0.26702476
0.014885359 -1.1521686 0.35598046
0.059550956 -1.1622295 0.34564784
0.11041727 -1.2352078 0.35520428
0.15964252 -1.25556 0.34936005
0.017132374 -1.2645819 0.33766854
0.064608365 -1.2674254 0.32489786
0.11197095 -1.2632782 0.31181249
0.15689899 -1.2457974 0.29575619
0.01698379 -1.2520014 0.28435901
0.064909965 -1.2698547 0.27542183
0.11217258 -1.2711027 0.26367512
0.15519348 -1.2394085 0.2455819
0.018079022 -1.3108104 0.24699292
0.064201549 -1.2624786 0.22512676
0.10980653 -1.2515249 0.21143289
0.15475267 -1.2397493 0.19823851
0.017955204 -1.3101242 0.19717392
0.063586421 -1.2629851 0.17763577
0.11052661 -1.2673533 0.16639942
0.15529451 -1.2531645 0.15312262
0.017463105 -1.290657 0.14594714
0.063248314 -1.2567064 0.13005453
0.1094366 -1.2607015 0.11872825
0.15416376 -1.2490407 0.10630016
0.016973371 -1.2691991 0.096821502
0.06269972 -1.2536513 0.083613552
0.11037587 -1.2751383 0.073238626
0.15522121 -1.2610478 0.060407273
0.016844708 -1.2898849 0.050932083
0.062345147 -1.258893 0.037717119
0.11134388 -1.2939438 0.026705531
0.15619767 -1.2733797 0.013995083
0.016483748 -1.2758884 0.0036300705
0.061222654 -1.2454672 -0.0085097589
0.10870047 -1.2691888 -0.020500243
0.15811598 -1.2929395 -0.03340381
0.016376525 -1.3211408 -0.044753559
0.061489668 -1.2603189 -0.054628812
0.1088039 -1.2795894 -0.0678868
0.15549013 -1.2740513 -0.080076575
0.014955787 -1.2747399 -0.089994296
0.060932588 -1.2624815 -0.10125104
0.10747813 -1.266354 -0.11389495
0.15345019 -1.2604463 -0.12611149
0.014791249 -1.2914587 -0.13898382
0.061207779 -1.2797798 -0.15005803
0.10806266 -1.2772093 -0.16224374
0.15439217 -1.270772 -0.17483068
0.013941994 -1.3112339 -0.18999042
0.059353024 -1.2556958 -0.19413726
0.10840181 -1.2871004 -0.21237357
0.1483261 -1.2224472 -0.21476093
0.010537802 -1.0682331 -0.19535398
0 -0 -0
0.10493243 -1.2550743 -0.25495696
0.14523743 -1.2001445 -0.25740087
0.008806142 -0.98893332 -0.21932237
0.05127506 -1.106497 -0.2565234
0.099162295 -1.1875567 -0.28801388
0.1401854 -1.1550175 -0.29373941
0 -0 -0
0 -0 -0
0.094198897 -1.1316885 -0.32063669
0.10153321 -0.83630973 -0.24730772
0.0079710372 -1.1751683 0.36306462
0.052893486 -1.173107 0.34877971
0.10172004 -1.2224495 0.35134932
0.15112554 -1.2498171 0.34749752
0.0093798833 -1.2656294 0.33792651
0.056396551 -1.2581202 0.32241774
0.10310031 -1.2503922 0.30846992
0.15191305 -1.2689654 0.30102935
0.0092506269 -1.2452561 0.28280878
0.057336569 -1.2751107 0.27648032
0.10308952 -1.2561505 0.26043734
0.15129562 -1.2715164 0.25175521
0.0099755162 -1.3030353 0.2455117
0.057377234 -1.2835028 0.22880875
0.10148396 -1.2443122 0.21010521
0.14958547 -1.2612716 0.20152941
0.009803839 -1.295377 0.19494177
0.055529624 -1.2564263 0.17666206
0.10106643 -1.2472529 0.1636758
0.14760232 -1.2540938 0.15312262
0.0095287608 -1.2887527 0.14572245
0.055931237 -1.2660142 0.13097982
0.1010589 -1.25341 0.11798094
0.145105 -1.2380871 0.10529018
0.0092070382 -1.2722707 0.097049676
0.055006284 -1.2540125 0.083613552
0.10326962 -1.2847478 0.073752783
0.14817631 -1.2679292 0.060692217
0.008812217 -1.2729777 0.050261408
0.054922752 -1.2662421 0.037926491
0.10244708 -1.2826432 0.02645883
0.14861272 -1.2763005 0.014016898
0.0086682998 -1.2779655 0.0036357606
0.055126257 -1.2817854 -0.0087554296
0.099168256 -1.2479038 -0.020146236
0.14706773 -1.2670742 -0.032711636
0.0082635935 -1.3202171 -0.044719707
0.05426608 -1.2726505 -0.055147853
0.10032245 -1.2722689 -0.067464493
0.14744012 -1.2729985 -0.079952046
0.0073013105 -1.3047327 -0.092106842
0.05347861 -1.2698032 -0.10181
0.099705905 -1.2669896 -0.11389495
0.14514238 -1.2564216 -0.12561734
0.0069460212 -1.3064389 -0.14058872
0.053229965 -1.2771542 -0.14970906
0.10037897 -1.2798264 -0.1624949
0.14670542 -1.2726797 -0.17496599
0.0057359543 -1.2756672 -0.1848284
0.051200464 -1.2451744 -0.19245839
0.099734493 -1.2779038 -0.21075116
0.14228708 -1.2360569 -0.21699445
0.0041150833 -1.1036901 -0.20182981
0.045264132 -1.1135887 -0.21470116
0.094808176 -1.2244242 -0.24860783
0.13775921 -1.2000414 -0.25719261
0.003332624 -1.2037498 -0.26695409
0.04362401 -1.0853753 -0.25155988
0.087827072 -1.1358103 -0.2753281
0.13265206 -1.152003 -0.29276028
0 -0 -0
0 -0 -0
0.084813081 -1.1005807 -0.31166974
0.092556983 -0.80355471 -0.23744923
0.00075833587 -1.1723288 0.36217913
0.04603016 -1.1820306 0.35134217
0.094660357 -1.2288017 0.35300145
0.14367363 -1.2526362 0.34802967
0.0016201108 -1.270494 0.33921629
0.049274899 -1.2739311 0.32638597
0.095943123 -1.2577791 0.31014118
0.14324583 -1.2621363 0.2991952
0.0016298735 -1.2608922 0.28635219
0.049208272 -1.2676258 0.27478674
0.095231764 -1.2548064 0.26003262
0.14426057 -1.2792461 0.25310561
0.0019710951 -1.2971756 0.24440077
0.049993839 -1.2966199 0.23108807
0.093402326 -1.2390115 0.20910946
0.14283633 -1.270999 0.20293982
0.0018652845 -1.3023349 0.19598344
0.048760615 -1.2814825 0.18013965
0.094373763 -1.2607039 0.16536185
0.14078447 -1.2628688 0.15408565
0.0016309421 -1.2967361 0.14662127
0.048577908 -1.2772675 0.13211073
0.094253309 -1.2659211 0.11910191
0.14003359 -1.2617327 0.10722598
0.0013926767 -1.2653235 0.09651728
0.047649246 -1.2633001 0.084211744
0.094350234 -1.2714186 0.072952986
0.14171189 -1.2807282 0.061262093
0.0010027785 -1.2750063 0.05034031
0.047449693 -1.2745461 0.038165774
0.094134085 -1.2772652 0.026335478
0.14406535 -1.307006 0.014344141
0.00082992145 -1.2829946 0.003649985
0.047002479 -1.2751043 -0.0087076593
0.091728672 -1.2514805 -0.02019451
0.14256521 -1.2977637 -0.033480719
0.00016470934 -1.3362336 -0.045261353
0.045727499 -1.2529914 -0.054282788
0.091428205 -1.2579207 -0.066672653
0.14190999 -1.2947137 -0.081259675
-0.00069751398 -1.2917851 -0.091191404
0.045184582 -1.2561611 -0.10069209
0.090489015 -1.2477096 -0.11210976
0.13797103 -1.2622344 -0.12611149
-0.0010539778 -1.2865717 -0.13844885
0.046168432 -1.2992936 -0.15226819
0.092810221 -1.2843763 -0.1629972
0.14082719 -1.2912853 -0.17740172
-0.0020460682 -1.2479677 -0.18081352
0.043351997 -1.2395391 -0.19154266
0.091750063 -1.2765232 -0.21042667
0.13704643 -1.2584523 -0.22077425
-0 -0 -0
0.038024113 -1.102069 -0.21243118
0.084646098 -1.1878326 -0.24106824
0.13261051 -1.2212837 -0.26156592
-0 -0 -0
0.037924834 -1.1138586 -0.25810269
0.078303598 -1.100454 -0.26663601
0.12883604 -1.1826755 -0.30034855
-0.0042195851 -0.97904497 -0.25611961
0 -0 -0
0 -0 -0
0.091366708 -0.83844662 -0.24758941
-0 -0 0
0.039404958 -1.2014526 0.35703653
0.08569172 -1.2092216 0.34721905
0.13619281 -1.2554108 0.34856182
-0 -0 0
0.040984739 -1.2596859 0.32266575
0.088223733 -1.2583442 0.31014118
0.13570647 -1.264927 0.29965374
-0 -0 0
0.041684683 -1.2757183 0.27648032
0.087530628 -1.2553672 0.26003262
0.13651253 -1.2810829 0.25329855
-0.036346931 -7.8733878 1.4834386
0.042005092 -1.2959182 0.23091273
0.087364294 -1.2621882 0.21292654
0.13555631 -1.2767621 0.20372337
-0.037377633 -7.9464374 1.1958413
0.040896669 -1.2817575 0.18013965
0.086296707 -1.2563131 0.16471337
0.13604702 -1.2923397 0.15757665
-0.038385682 -7.8687658 0.88972706
0 -0 0
0 -0 0
0.13488504 -1.2873437 0.1093301
-0 -0 0
0 -0 0
0 -0 0
0.13696364 -1.3113776 0.062686794
-0.029104855 -5.4406834 0.21481426
0 -0 0
0 -0 0
0.13852592 -1.3317351 0.014605936
-0.029185072 -5.3168988 0.015126243
0 -0 -0
0 -0 -0
0.13542408 -1.3065686 -0.033685807
-0.031554189 -5.2478957 -0.17776169
0 -0 -0
0.083973147 -1.2624438 -0.06688381
0.13396309 -1.2955601 -0.081259675
-0 -0 -0
0.038100179 -1.2773383 -0.10236896
0.08322721 -1.2542043 -0.11264532
0.1316523 -1.2769153 -0.12749517
-0 -0 -0
0.037845097 -1.2876391 -0.15087229
0.084011674 -1.2710626 -0.16123913
0.13259724 -1.2891682 -0.17699575
-0.0091955448 -1.1826156 -0.17134984
0.035717025 -1.2387938 -0.19139004
0.083398134 -1.2691852 -0.20912875
0.13063043 -1.2720093 -0.22300777
-0.0090090064 -1.0544749 -0.1928356
0 -0 -0
0.078311116 -1.2030003 -0.24404439
0.12322171 -1.2035877 -0.25760913
-0 -0 -0
0 -0 -0
0.064741589 -0.99615717 -0.24126448
0.11909973 -1.1593311 -0.29422897
-0 -0 -0
0 -0 -0
0 -0 -0
0.094656043 -0.92107701 -0.27181315
-0 -0 0
0.031776801 -1.1920891 0.35418937
0.077153198 -1.1924566 0.34226272
0.1284872 -1.2562228 0.34856182
-0.07553862 -6.8689528 1.8340896
0.033484727 -1.2686293 0.32489786
0.080624968 -1.2608001 0.31061873
0.12999816 -1.286073 0.30446836
-0.08802776 -8.017354 1.8208721
0.033648849 -1.2681341 0.27478674
0.080633767 -1.268586 0.2626633
0.12855139 -1.28092 0.25310561
-0 -0 0
0.033509713 -1.275484 0.22723074
0.079307728 -1.2577796 0.21209674
0.12644249 -1.2647941 0.20168613
-0 -0 0
0.033566825 -1.3027734 0.18306084
0.077782057 -1.2439539 0.16302733
0.12664673 -1.2783318 0.15577096
-0 -0 0
0.032823406 -1.2747843 0.13180229
0.078032337 -1.2560515 0.11807436
0.12590821 -1.2772392 0.10840429
-0 -0 0
0.031940069 -1.2558099 0.083680019
0.078432567 -1.2674984 0.072667345
0.12598471 -1.2823708 0.061262093
-0.062327046 -5.426414 0.21426193
0.031680848 -1.2700363 0.038016222
0 -0 0
0.13064398 -1.3355455 0.014638659
-0.061622404 -5.3006206 0.015080724
0.031326879 -1.2745855 -0.0087008355
0 -0 -0
0.12662891 -1.2994155 -0.033480719
-0.064239733 -5.2875776 -0.1791158
0.031194279 -1.2884152 -0.055796649
0.076706648 -1.2709095 -0.067306124
0.1244662 -1.2804636 -0.080263384
-0.036754284 -2.8686252 -0.20252238
0.030309072 -1.279541 -0.10252866
0.075170889 -1.2487261 -0.11210976
0.12285501 -1.2677945 -0.12650684
-0.023388932 -1.7865318 -0.1922663
0.029758887 -1.2799035 -0.1499417
0.076270357 -1.2725445 -0.16136472
0.12544715 -1.2978473 -0.17807831
-0.017677043 -1.2706088 -0.18411146
0.027532326 -1.2133009 -0.18742181
0.073907942 -1.2411079 -0.20442377
0.12225533 -1.2669033 -0.22197691
-0 -0 -0
0 -0 -0
0.064296678 -1.0909398 -0.22122724
0.11555339 -1.2014003 -0.25698435
-0 -0 -0
0.023320403 -1.0713847 -0.24817567
0.063537523 -1.0799845 -0.26146773
0.11161131 -1.1561798 -0.29324985
-0 -0 -0
0 -0 -0
0 -0 -0
0.081716411 -0.84619015 -0.2495611
-0.019276386 -1.0852125 0.33531821
0.023242529 -1.1328402 0.33653682
0.069610246 -1.1890688 0.34116131
0.12059236 -1.2550685 0.34802967
-0.11789947 -6.880918 1.8374431
0.025484132 -1.2581567 0.32216972
0.072383106 -1.2525458 0.30846992
0.12118506 -1.2771564 0.3021757
-0.13777041 -8.0488386 1.8281804
0.02586709 -1.2683167 0.27478674
0.072623856 -1.265146 0.26185384
0.12022945 -1.2768003 0.25214106
-0.16446096 -9.7372665 1.8348575
0.026158471 -1.299289 0.23143873
0.071756683 -1.2611961 0.2125946
0.1194172 -1.2734128 0.20293982
-0.20918332 -12.32147 1.8544767
0.0254365 -1.2960241 0.18208709
0.071542978 -1.2691573 0.1662697
0.11880065 -1.2790848 0.15577096
-0 -0 0
0.024942353 -1.2719781 0.13149387
0.069878787 -1.2485541 0.11732706
0.11761051 -1.2730266 0.10798346
-0 -0 0
0.024541939 -1.2719439 0.08474347
0.070709407 -1.2689525 0.072724469
0.11857168 -1.2880931 0.061499543
-0.096220352 -5.459898 0.21560329
0.024432488 -1.2991887 0.03888363
0.069450364 -1.2578179 0.02590375
0.12226429 -1.3343306 0.014616843
-0.094091959 -5.2971435 0.01507219
0.024335189 -1.3197449 -0.0090079242
0.069115251 -1.2609438 -0.020323237
0.11792664 -1.2922037 -0.03327563
-0.096444935 -5.2740936 -0.17867571
0.023486705 -1.2995703 -0.056272436
0.069123231 -1.2753448 -0.067517281
0.11751171 -1.2911427 -0.080886066
-0 -0 -0
0.022632288 -1.2896695 -0.10332717
0.067668676 -1.2521476 -0.11237754
0.11507365 -1.2685244 -0.12650684
-0.034579832 -1.7982836 -0.19355023
0.022227868 -1.2989303 -0.15215187
0.068407454 -1.2719978 -0.16123913
0.11587447 -1.2808306 -0.17564258
-0.024421563 -1.2180346 -0.17651185
0.019907199 -1.2025774 -0.18574294
0.066975206 -1.2543474 -0.20653288
0.11447945 -1.2676296 -0.22197691
-0 -0 -0
0.017637445 -1.0966914 -0.2112962
0.057653248 -1.0922925 -0.22142565
0.10905622 -1.2118281 -0.25906688
-0 -0 -0
0 -0 -0
0.058085699 -1.1026795 -0.26687092
0.09936779 -1.0998697 -0.27880767
-0 -0 -0
0 -0 -0
0 -0 -0
0.07539995 -0.8342526 -0.24589936
-0 -0 0
0.016015463 -1.1137912 0.33084247
0.06115621 -1.1673928 0.33482823
0.11357959 -1.2634655 0.35015827
-0.15993795 -6.8723383 1.8353795
0.018078271 -1.2805686 0.32787403
0.065247081 -1.2636341 0.31109622
0.11248631 -1.2681803 0.29988301
-0.18649711 -8.0195704 1.8217582
0.018209748 -1.2772467 0.276692
0.064408593 -1.2567656 0.26003262
0.11144696 -1.266762 0.25001895
-0.2201549 -9.560216 1.8017153
0.018034142 -1.2885965 0.22951007
0.064266652 -1.266537 0.2134244
0.11005022 -1.2564118 0.20011903
-0.28391412 -12.282388 1.8488219
0.017416984 -1.2912048 0.18139158
0.063356385 -1.2616498 0.16523214
0.10897803 -1.2570423 0.15300223
-0 -0 0
0.016909393 -1.2551988 0.12974609
0.062860452 -1.2618865 0.11854143
0.10988273 -1.274717 0.10806762
-0 -0 0
0.016579449 -1.2600981 0.083945878
0.062378224 -1.258394 0.072096065
0.11023857 -1.2838203 0.061262093
-0.12834312 -5.4012661 0.21331508
0.016245106 -1.2823231 0.03837515
0.062221162 -1.2682062 0.026109336
0.11245722 -1.3161258 0.01440959
-0.12690347 -5.3094625 0.015109174
0.016052417 -1.304871 -0.0089055607
0.061328348 -1.2603455 -0.020307148
0.11016509 -1.2948951 -0.033326901
-0.1291216 -5.2863913 -0.1791158
0.01544071 -1.293696 -0.056012917
0.06129656 -1.275745 -0.067517281
0.10857484 -1.2799057 -0.080138847
-0.13234925 -5.2752085 -0.3725116
0.014274994 -1.2509112 -0.10021298
0.059889086 -1.2505494 -0.11219902
0.1078747 -1.2761476 -0.12719867
-0.048638996 -1.9173104 -0.20638938
0.014170163 -1.291097 -0.15122128
0.059657391 -1.2525744 -0.15872763
0.10859576 -1.2884285 -0.1765898
-0.030832525 -1.1772994 -0.1706329
0.012733831 -1.2224416 -0.18879543
0.05895146 -1.2478353 -0.2053972
0.10686444 -1.2702715 -0.22232053
-0.030723138 -1.1396803 -0.2084855
0.01052709 -1.058485 -0.2039188
0.049626011 -1.0642331 -0.21567175
0.10006648 -1.1939559 -0.25511009
-0 -0 -0
0 -0 -0
0.049014769 -1.053496 -0.25488991
0.087006539 -1.0337936 -0.26191765
-0 -0 -0
0 -0 -0
0 -0 -0
0 -0 -0
-0.0313011 -1.0419188 0.32203537
0.0091573624 -1.1109928 0.3299883
0.054125272 -1.1706271 0.33565429
0.10485999 -1.2526115 0.34696534
-0.20116544 -6.8393579 1.8268667
0.010065889 -1.2612809 0.32291377
0.056609884 -1.2446091 0.30632114
0.1055833 -1.2795173 0.30240494
-0.23819357 -8.1030779 1.8410254
0.010443792 -1.2861302 0.27859733
0.056872495 -1.2610503 0.26084206
0.10383216 -1.2693781 0.2504048
-0.27981395 -9.5930653 1.8081955
0.0099414466 -1.2650554 0.2253021
0.056977347 -1.2777442 0.21524997
0.10386161 -1.2757666 0.20309651
-0 -0 0
0.0087950304 -1.1962233 0.16803761
0.056617875 -1.2847985 0.16821514
0.10293603 -1.2784673 0.1555302
-0 -0 0
0.0092729796 -1.264231 0.13067138
0.054812446 -1.2552857 0.11788754
0.10253605 -1.2813269 0.10857262
-0 -0 0
0.0090924967 -1.2950979 0.08627218
0.055262011 -1.2727169 0.072895855
0.10180368 -1.2775025 0.060929667
-0.1622289 -5.4253464 0.21430139
0.0085267778 -1.305388 0.039063092
0.05388118 -1.2555789 0.025842074
0.101772 -1.2838962 0.014049623
-0.15923911 -5.3005877 0.015086415
0.0079839258 -1.2949454 -0.008837319
0.054018535 -1.2706877 -0.02046806
0.10103825 -1.280598 -0.032942362
-0.16103677 -5.2685165 -0.17854029
0.0075024497 -1.2937664 -0.056012917
0.053091343 -1.2671175 -0.067042179
0.10017164 -1.2735828 -0.079702973
-0.16471484 -5.2742968 -0.3725116
0.0067780628 -1.2848661 -0.10292792
0.052671656 -1.2618399 -0.11318087
0.099265039 -1.2668649 -0.12621033
-0.059776213 -1.8971004 -0.2042495
0.0062142317 -1.2842073 -0.150407
0.052176192 -1.2578731 -0.15935551
0.10084238 -1.2910463 -0.17686044
-0.039079063 -1.2087408 -0.17522134
0.0050424691 -1.1780242 -0.18192737
0.049916223 -1.2146523 -0.19988102
0.099604107 -1.2777784 -0.2235232
-0.038789373 -1.1719142 -0.21442167
0.0040695546 -1.068349 -0.20581044
0.043650109 -1.078228 -0.2184495
0.094555542 -1.2179508 -0.26010814
-0 -0 -0
0.0031740791 -0.94595921 -0.21907143
0.043530125 -1.0780574 -0.26076296
0.078400128 -1.0053087 -0.25457415
-0 -0 -0
0 -0 -0
0 -0 -0
0 -0 -0
-0 -0 0
0 -0 0
0.04759606 -1.1872669 0.34033525
0.095309176 -1.2292047 0.3403134
-0.24426006 -6.8698578 1.8353795
0.0023337731 -1.2651941 0.32390583
0.049964454 -1.2701615 0.31252873
0.097730346 -1.280141 0.30240494
-0.28257507 -7.9513822 1.8069199
0.002441512 -1.230462 0.26653042
0.049324352 -1.2662684 0.26185384
0.096115433 -1.2709696 0.25059772
-0.33939886 -9.6117916 1.8120837
0.0022095486 -1.2828138 0.22845808
0.049401373 -1.2849675 0.21641168
0.095290713 -1.2665313 0.20152941
-0.42912433 -12.122824 1.8254585
0.0015597643 -1.2824088 0.18013965
0.048620712 -1.2821492 0.16782606
0.096046343 -1.2919449 0.15709513
-0 -0 0
0.0015335167 -1.2791846 0.13221353
0.047221113 -1.2585833 0.11816778
0.093938157 -1.2719945 0.10773097
-0 -0 0
0.0010874956 -1.2292753 0.081885457
0.047265787 -1.2680436 0.072610214
0.094036393 -1.2790993 0.060977153
-0.19576709 -5.4312387 0.21457754
0.00050978322 -1.2874237 0.038524702
0.046506692 -1.2648778 0.0260271
0.09258008 -1.2665454 0.013853277
-0.19389339 -5.3584719 0.015254263
3.8228369e-05 -1.2979698 -0.0088577922
0.046911124 -1.2899802 -0.020773793
0.091873527 -1.2632471 -0.032480914
-0.19259083 -5.2464557 -0.17782938
-0.00044350143 -1.3157674 -0.056964483
0.04560091 -1.2754033 -0.067464493
0.093221024 -1.2861189 -0.080450192
-0.19658992 -5.2602282 -0.37159619
-0.0011436036 -1.3287431 -0.10644136
0.045140758 -1.2681116 -0.11371643
0.091489837 -1.2674501 -0.12621033
