# .PCD v0.7 - Point Cloud Data file format
VERSION 0.7
FIELDS x y z
SIZE 4 4 4
TYPE F F F
COUNT 1 1 1
WIDTH 1630
HEIGHT 1
VIEWPOINT 0 0 0 1 0 0 0
POINTS 1630
DATA ascii
-1.3066235 2.0555422 0.4337723
-1.4063778 2.04282 0.41738909
-1.4313079 1.923998 0.38049257
-0.94040805 1.6082561 0.280359
-1.3068628 2.0582192 0.34247398
-1.3961786 2.0302804 0.32229346
-1.3925658 1.8754034 0.28325278
-0.94920611 1.6239526 0.21268511
-1.3057328 2.0565188 0.25178146
-1.4242126 2.0728283 0.23596188
-0 0 0
-0.9512254 1.6279944 0.14382519
-1.3347968 2.1037545 0.16596428
-1.3801489 2.0097492 0.13950759
-1.4995672 2.0229697 0.11972228
-0.95978701 1.6438327 0.0751554
-1.3366613 2.1089709 0.074716389
-1.4348238 2.0916333 0.052156996
-0 0 0
-0.97038311 1.6625137 0.0054763998
-1.0175891 1.6068442 -0.0129796
-1.4431459 2.1055765 -0.041080941
-1.4783634 1.9976428 -0.06373129
-0.95486677 1.6378995 -0.064218991
-1.0320984 1.6310775 -0.083565213
-1.4095763 2.0592942 -0.13191999
-0 0 -0
-0.94744182 1.6276433 -0.13294932
-1.0086768 1.5959119 -0.15123776
-1.0827354 1.5823355 -0.17182428
-0 0 -0
-0.89839953 1.5443838 -0.1922663
-0 0 -0
-0 0 -0
-0 0 -0
-0.81546623 1.4044676 -0.23530133
-0.70958382 1.1251688 -0.2054314
-0.66470724 0.9727664 -0.19371584
-0.63385707 0.85819155 -0.18606888
-0 0 -0
-0.6270414 0.9953227 -0.22661848
-0.59611529 0.87353045 -0.21408448
-0 0 -0
-0.81132799 1.4029171 -0.35940292
-0 0 -0
-0 0 -0
-0.59277219 0.80250728 -0.25188154
-0.69919688 1.211658 -0.36595747
-0 0 -0
-0 0 -0
-0 0 -0
-0 0 0
-0.58194858 0.92724258 0.32514811
-0 0 0
-0.58496976 0.79268396 0.27193144
-0.56010514 0.97185832 0.29949057
-0.59403932 0.94705784 0.28620774
-0.63115776 0.92715758 0.27576065
-0 0 0
-0 0 0
-0.71111226 1.1333519 0.28981742
-0 0 0
-1.530103 2.0816975 0.5079475
-0.73292476 1.2710057 0.2764321
-0 0 0
-1.369432 2.0155215 0.41008687
-1.4411067 1.9621968 0.38629085
-0.62775677 1.0888476 0.18913816
-1.2689768 2.0259156 0.33579698
-1.3881491 2.0453722 0.32333103
-1.4637886 1.9968034 0.30022627
-0.94120842 1.63319 0.21313451
-1.2740813 2.0341442 0.2480803
-1.4025269 2.0683434 0.2344673
-0 0 0
-0.94171607 1.6346643 0.14390126
-1.3335096 2.1305122 0.16742651
-1.3705919 2.0223117 0.13979323
-1.4694294 2.0079503 0.11829758
-0.94968259 1.6496909 0.0751554
-1.0613942 1.6976049 0.059910696
-1.4387774 2.1252351 0.052773751
-1.4737006 2.015558 0.027237507
-0.94470149 1.6415682 0.0053882082
-1.0077106 1.6130577 -0.0129796
-1.421796 2.1019688 -0.040839572
-0 0 -0
-0.94529688 1.6445941 -0.064252846
-1.0194257 1.6331421 -0.083348945
-1.3840574 2.0488722 -0.13070585
-1.4155494 1.9385097 -0.14975442
-0.94687086 1.6498642 -0.13428725
-0.98884517 1.5859995 -0.14972059
-1.105893 1.6376495 -0.17709057
-0 0 -0
-0.94777119 1.6525017 -0.20499846
-0.87956595 1.4120996 -0.19484279
-0 0 -0
-0.7286737 0.99900919 -0.16887668
-0.89484245 1.5631868 -0.26096797
-0.7292906 1.1722984 -0.21321522
-0.68851763 1.0210048 -0.20247686
-0.62799895 0.86126864 -0.18589707
-0.65056503 1.138489 -0.23978531
-0.62869692 1.0116616 -0.22945593
-0.59457666 0.88286239 -0.21547335
-0 0 -0
-0.67552912 1.184815 -0.30246139
-0.59760076 0.96259773 -0.26238939
-0 0 -0
-0 0 -0
-0.71423334 1.2554471 -0.37785232
-0.54954678 0.88667804 -0.28348115
-0 0 -0
-0 0 -0
-0.92550343 1.6312807 0.57942754
-0.55909187 0.90308386 0.31546769
-0 0 0
-0.58009493 0.79625833 0.27193144
-0 0 0
-0.63867939 1.0322428 0.31076109
-0.62329084 0.9277885 0.27480564
-0 0 0
-0.58292389 1.0259101 0.26797071
-0.71186 1.1501595 0.29299292
-0.69098151 1.029402 0.25618777
-0 0 0
-0.58669496 1.0320017 0.22366375
-0.918248 1.484491 0.3108643
-1.3394653 1.9976764 0.40477616
-1.4499102 1.9997878 0.39193243
-0.64500737 1.1348044 0.19642988
-1.2700555 2.0555675 0.33941367
-1.3181884 1.9681714 0.30984271
-1.4835188 2.0499799 0.30684713
-0.92135239 1.6216552 0.21088745
-1.2992195 2.1028512 0.25548261
-1.3582478 2.0297453 0.22914273
-0 0 0
-0.93511522 1.646481 0.14443365
-1.2449298 2.016397 0.15785548
-1.3670379 2.0439613 0.14070728
-1.4260794 1.9740155 0.11578061
-0.94841999 1.6711293 0.075865529
-1.0095073 1.636875 0.05754777
-1.3746134 2.0575409 0.050882366
-1.4665726 2.0318596 0.027335677
-0.94842809 1.6716874 0.0054678652
-1.0030401 1.6277237 -0.013047841
-1.3533608 2.0274913 -0.039230451
-0 0 -0
-0.94011527 1.6590587 -0.064591371
-1.0051954 1.6325607 -0.083002925
-1.3625972 2.0440316 -0.12986122
-0 0 -0
-0.92592317 1.6365428 -0.13273807
-0.96917349 1.5759044 -0.14820342
-1.0312011 1.5474309 -0.16664723
-0 0 -0
-0.91216707 1.6132803 -0.19943483
-0 0 -0
-0 0 -0
-0.67389834 0.93592077 -0.15750998
-0.8351357 1.4798729 -0.24619891
-0.70864487 1.1548504 -0.20924699
-0.6871599 1.0326036 -0.20393704
-0.63133514 0.87709886 -0.18847419
-0.71984887 1.2778747 -0.26820698
-0.61785913 1.0079657 -0.22775348
-0.64122772 0.96485811 -0.23452072
-0 0 -0
-0.70268726 1.2502145 -0.31804994
-0.58761311 0.95959979 -0.26058447
-0 0 -0
-0.58004731 0.80578655 -0.25065762
-0.58016706 1.0345091 -0.31027928
-0 0 -0
-0 0 -0
-0.46753889 0.649445 -0.23491418
-0.91174573 1.6302575 0.57706612
-0 0 0
-0 0 0
-0.60727876 0.84441006 0.28709784
-0 0 0
-0.57732618 0.94600701 0.28372762
-0.73885 1.1145152 0.32876399
-0.69900376 0.97438961 0.28245863
-0.58805513 1.0498868 0.27328587
-0 0 0
-0.70898825 1.0703626 0.26529399
-0 0 0
-0.71198779 1.2704743 0.27439544
-0 0 0
-1.3636405 2.0609589 0.41589546
-1.4485339 2.0239062 0.39490992
-0.78013939 1.3923693 0.24018016
-1.2502042 2.0514829 0.33746624
-0 0 0
-0 0 0
-0.90992808 1.6246771 0.21055038
-1.2671403 2.0793552 0.25167865
-1.3611294 2.0613046 0.23175831
-0 0 0
-0.93278855 1.6661083 0.14565058
-0 0 0
-1.3302739 2.0156476 0.13819364
-1.4510576 2.0347772 0.11881997
-0.95083255 1.6995902 0.076891273
-0 0 0
-1.3603117 2.0634325 0.05082069
-1.4152019 1.9862572 0.026604837
-0.91716409 1.639946 0.005345535
-0.98628187 1.6227388 -0.012959126
-1.3579447 2.0616424 -0.039729275
-1.4825075 2.0823362 -0.065551452
-0.91724592 1.64211 -0.063711196
-0.99360347 1.6361359 -0.082873166
-1.3615544 2.069874 -0.13096981
-0 0 -0
-0.91975105 1.6491629 -0.13330141
-0.94397676 1.5562533 -0.14580789
-0 0 -0
-0 0 -0
-0.9361338 1.6796405 -0.20692435
-0 0 -0
-0 0 -0
-0 0 -0
-0.81256902 1.4607532 -0.24218401
-0.74913394 1.2378081 -0.223441
-0.72522354 1.1044358 -0.21724081
-0.66417128 0.93476117 -0.19998538
-0.68191022 1.2280873 -0.25687429
-0.67414981 1.1150963 -0.25102064
-0.63690782 0.97123325 -0.23511595
-0.59230465 0.83417028 -0.21783276
-0.68979865 1.2451086 -0.31566834
-0.61545843 1.0190604 -0.2757006
-0 0 -0
-0 0 -0
-0.58644539 1.0609102 -0.31711251
-0.51520604 0.85451353 -0.27115586
-0 0 -0
-0.46132192 0.64917296 -0.23378749
-0.90726042 1.6458621 0.58060825
-0 0 0
-0 0 0
-0.61547822 0.86698496 0.29348373
-0 0 0
-0.5894953 0.97941196 0.29265609
-0 0 0
-0.6688239 0.94450241 0.27260005
-0.57406104 1.0398159 0.26974243
-0.72088134 1.1973238 0.30273113
-0.7817027 1.1960157 0.29524326
-0 0 0
-0.72936207 1.3204097 0.28420848
-0.76494217 1.2712582 0.26422587
-1.3245535 2.0288262 0.40776342
-1.3990462 1.980324 0.38472375
-0.89252931 1.6161348 0.27782923
-1.2462653 2.0735445 0.33983099
-1.3600147 2.0855272 0.32566556
-1.4439486 2.0477481 0.30383766
-0.90378392 1.6371891 0.21144922
-1.0048183 1.6718895 0.20161022
-1.3446513 2.0637782 0.23110442
-0 0 0
-0.92254794 1.6718004 0.14565058
-0.96785384 1.6115319 0.12522094
-1.3222394 2.0304649 0.13865066
-1.4419949 2.0485432 0.11910491
-0.90564638 1.6423917 0.074050754
-0.98008847 1.6337115 0.057009384
-1.3776088 2.117835 0.051951408
-1.4121915 2.0079901 0.026779367
-0.91722202 1.6639335 0.0054052775
-0.96396762 1.6081754 -0.012795347
-1.3044043 2.0070579 -0.038522433
-0 0 -0
-0.91149098 1.6555867 -0.064015873
-0.97430563 1.626774 -0.082094602
-1.1291883 1.7397821 -0.109643
-1.230479 1.751887 -0.13356476
-0.91057569 1.6565236 -0.13344225
-0.95897281 1.6030767 -0.14964074
-0.98448604 1.5173558 -0.16209501
-0 0 -0
-0.93059713 1.6940672 -0.20799427
-0.8427251 1.4101464 -0.19239998
-0 0 -0
-0.71528316 1.0195524 -0.17009455
-0.82071871 1.4969522 -0.247346
-0.75418741 1.2635969 -0.22725658
-0.69804454 1.077396 -0.21107565
-0.65842319 0.93881887 -0.19998538
-0.78203321 1.4289938 -0.29788783
-0.71355814 1.196806 -0.26842371
-0.66927183 1.034371 -0.24940148
-0.57594812 0.82177001 -0.21366771
-0.71255702 1.3050144 -0.32974136
-0.60819697 1.0211436 -0.27524936
-0.5522331 0.85368162 -0.24572797
-0.56677485 0.80808115 -0.24918891
-0.75950235 1.3941149 -0.41530856
-0.58245134 0.97958893 -0.30970511
-0 0 -0
-0.44961599 0.64099395 -0.22984409
-0.89942497 1.6555958 0.58208412
-0 0 0
-0.6273458 0.97041124 0.33097327
-0 0 0
-0 0 0
-0.61462629 1.0354934 0.30828094
-0.58978331 0.91381103 0.26740426
-0.66357356 0.9493863 0.27282935
-0 0 0
-0.74445701 1.2538272 0.31585655
-0.76161158 1.1810371 0.29038662
-1.2011502 1.7211282 0.41264707
-0 0 0
-0.78074062 1.3157212 0.27246648
-1.3179542 2.0460348 0.40958899
-1.4105953 2.0228968 0.3913056
-0.89914179 1.65198 0.2830376
-1.113348 1.8784041 0.30672428
-1.2865661 1.9996061 0.31100994
-0 0 0
-0.89229667 1.6400852 0.21111216
-0.9494037 1.6018665 0.19246013
-1.3045052 2.0292771 0.22634032
-1.4214963 2.0445321 0.21032786
-0.91608363 1.6844372 0.14625904
-0.9625237 1.6251668 0.12581913
-1.3216285 2.0570188 0.13990749
-1.4071707 2.0253603 0.1172528
-0.88839501 1.6347485 0.073458984
-0.96597421 1.6328121 0.056770097
-1.3408278 2.0892258 0.05104683
-1.427784 2.0568676 0.027313864
-0.90651768 1.6686515 0.0054024328
-0.96222335 1.6278331 -0.012904533
-1.0621485 1.6564608 -0.031667564
-1.4175299 2.043694 -0.063782565
-0.89464247 1.6488501 -0.063541934
-0.95973295 1.6249794 -0.081705324
-1.0452541 1.6323071 -0.10246368
-1.3442358 1.9390354 -0.14720143
-0.90419543 1.6690964 -0.13400559
-0.94506675 1.6020622 -0.14900193
-0.98213798 1.5342731 -0.16325538
-1.0228956 1.4764434 -0.17839441
-0.92539179 1.7093632 -0.20917119
-0.88801324 1.5068482 -0.20484665
-0.86880028 1.3580025 -0.20406045
-0 0 -0
-0.82939512 1.5350466 -0.2527948
-0.87224358 1.4819807 -0.26556513
-0.73978281 1.1573168 -0.22583959
-0.6543324 0.94527119 -0.20050082
-0.83068377 1.5402588 -0.32001355
-0 0 -0
-0.69244558 1.0847219 -0.26051244
-0.59037 0.85344166 -0.22095658
-0.76004785 1.412529 -0.35572231
-0.62905568 1.0710588 -0.28765818
-0 0 -0
-0 0 -0
-0.60449958 1.1259886 -0.33432215
-0.56617987 0.96566248 -0.30419809
-0 0 -0
-0.44785914 0.64689624 -0.23097077
-0.88744575 1.657714 0.58090341
-0 0 0
-0 0 0
-0.85646969 1.2383736 0.41561338
-0.88247037 1.6459339 0.49863508
-0.5789001 0.98908049 0.29340014
-0 0 0
-0.7246148 1.0503865 0.30057082
-0 0 0
-0 0 0
-0.76171005 1.1972557 0.29321969
-1.4093106 2.0460382 0.48846298
-0.87477148 1.6306175 0.34864143
-0.8293339 1.4173567 0.29245439
-1.2958544 2.0391018 0.4066017
-1.418874 2.0616164 0.39710385
-0.89553207 1.6696661 0.28512096
-0.92891097 1.5893819 0.25859427
-1.2684273 1.9982542 0.30958331
-1.4243318 2.0734959 0.30504146
-0.88174701 1.6446537 0.21099982
-0.95059872 1.6265552 0.19472195
-1.2936289 2.0397656 0.22662057
-0 0 0
-0.89631093 1.6724495 0.14473788
-0.94800502 1.6232876 0.12522094
-1.2501874 1.9723332 0.13362338
-1.3862435 2.0215995 0.11654045
-0.89061248 1.6630713 0.074484728
-0.96500307 1.6542494 0.057308488
-1.2702217 2.0061848 0.048826508
-1.4281348 2.0845625 0.027564749
-0.89154232 1.6653662 0.0053739836
-0.95926678 1.6458018 -0.013000072
-1.0284451 1.6257671 -0.03095955
-1.340588 1.9583147 -0.060860049
-0.89676064 1.6772238 -0.064422108
-0.95225811 1.6351542 -0.081921592
-1.0240186 1.6209606 -0.10135511
-1.3588012 1.9859612 -0.15012802
-0.90098327 1.6878127 -0.13506186
-0.93772483 1.6121391 -0.14940119
-0.98387367 1.5579555 -0.16512983
-0.92114127 1.3471551 -0.16208689
-0.91956568 1.7237817 -0.21024112
-0.90869111 1.5637939 -0.2118261
-0.77678907 1.2307523 -0.18421949
-1.0029242 1.4675308 -0.24276023
-0.84600586 1.5890268 -0.26082459
-0.85222071 1.4684997 -0.26220739
-0.7584585 1.2027321 -0.2337894
-0.66296864 0.97041744 -0.20496784
-0.7713626 1.4515127 -0.3005861
-0.65843505 1.1358114 -0.25291225
-0.59803081 0.94961774 -0.22717956
-0.59339446 0.86916465 -0.22408037
-0.66630608 1.2567321 -0.31545183
-0.80945766 1.3977895 -0.37406844
-0.5945406 0.94429487 -0.26968998
-0 0 -0
-0.73917067 1.397344 -0.413537
-0.57183528 0.989169 -0.31049183
-0 0 -0
-0 0 -0
-0.88305235 1.6741141 0.58474064
-0 0 0
-0.60259086 0.95769483 0.32408947
-0.57713449 0.84552437 0.28257453
-0.87777001 1.661569 0.50173056
-0.58056766 1.0060389 0.29736835
-0.64257604 1.0229455 0.29700974
-0.69131428 1.0153881 0.28933668
-0 0 0
-0.6542564 1.1333652 0.28346643
-0.84076911 1.3395996 0.32681143
-1.3862488 2.0392289 0.48479757
-0 0 0
-0.65876037 1.1418577 0.23477004
-1.2780803 2.0386596 0.4049421
-1.3912144 2.0482244 0.39287269
-0.87972581 1.664638 0.28333521
-0.92260218 1.6010578 0.25956801
-1.2914007 2.0623055 0.31827292
-1.3581048 2.0033131 0.29348502
-0.88370639 1.6728768 0.213921
-0.92570186 1.6065016 0.19163765
-1.2921782 2.0653899 0.22858225
-1.417532 2.0931745 0.21352614
-0.87672019 1.6602832 0.14321673
-0.93603534 1.6256151 0.12495508
-1.2348859 1.9748881 0.13328059
-1.3676549 2.0209675 0.11601806
-0.87432927 1.6570159 0.073971853
-0.96679491 1.6809344 0.058026336
-1.0169033 1.6281124 0.039472379
-1.3761117 2.0353003 0.02680118
-0.88877177 1.6849571 0.005419502
-0.94964856 1.6525238 -0.013006897
-1.0136861 1.6244125 -0.030814728
-1.4863607 2.2000983 -0.068089426
-0.89204228 1.6933054 -0.064828344
-0.93723238 1.6323024 -0.081489056
-1.0188067 1.634841 -0.10183021
-1.3555263 2.0074956 -0.15112431
-0.89989698 1.7109663 -0.13647023
-0.93029469 1.6221861 -0.14980043
-0.96481609 1.5487461 -0.16352315
-0.90617847 1.3428833 -0.16090088
-0.89694434 1.706509 -0.2074593
-0.90401602 1.5779581 -0.21298935
-0.77236873 1.2405485 -0.18497294
-0.83379072 1.236262 -0.20365338
-0.82290781 1.568772 -0.2566663
-0.83975852 1.4676965 -0.26113904
-0.72291899 1.1621186 -0.22502838
-0.66691464 0.98916984 -0.2080604
-0.80168176 1.5311643 -0.3160561
-0.68458647 1.1978022 -0.26577544
-0.77890158 1.2538196 -0.29880559
-0.64488775 0.95714808 -0.24573869
-0.86108404 1.648468 -0.41244733
-0.80038267 1.4018838 -0.37384281
-0.68002009 1.0949031 -0.31150603
-0 0 -0
-0.65412647 1.2551476 -0.37025985
-0.57101125 1.0018815 -0.31337646
-0 0 -0
-0 0 -0
-0.87981266 1.6930659 0.58946347
-0 0 0
-0 0 0
-0 0 0
-0.87380296 1.6789221 0.50534201
-0.57582092 1.0121083 0.29811239
-0.60969001 0.98394519 0.28459454
-0.66227144 0.98567766 0.2797074
-1.0746787 2.064796 0.52863318
-0.58299595 1.0243869 0.25531033
-0.72891796 1.1773701 0.28613707
-1.3660573 2.0362887 0.48209676
-0 0 0
-0.57970452 1.0192242 0.20882086
-1.297186 2.097625 0.41506568
-1.3714716 2.0460572 0.39083546
-0.87771529 1.6857924 0.28601381
-0.9137392 1.6084106 0.25984621
-0 0 0
-0 0 0
-0.86241567 1.6571131 0.21122451
-0.92761892 1.6329087 0.1941051
-1.2726835 2.0622649 0.22736786
-1.3371141 2.0007594 0.20325804
-0 0 0
-0.93589461 1.6486825 0.12628439
-0 0 0
-0 0 0
-0 0 0
-0.94758832 1.6711839 0.057487946
-0 0 0
-1.3957866 2.0919495 0.027433852
-0.89916635 1.730309 0.0055475216
-0.94589883 1.6696303 -0.013095611
-0 0 -0
-1.3497273 2.0245245 -0.062398214
-0.87933367 1.6943116 -0.064659074
-0.92818338 1.6397613 -0.081575565
-0.99620569 1.6206439 -0.10056327
-1.3542517 2.0323865 -0.15236966
-0.88984066 1.7173414 -0.13654064
-0 0 -0
-0 0 -0
-0 0 -0
-0.88691366 1.7128633 -0.20756629
-0.92801857 1.6431476 -0.22101571
-0 0 -0
-0.82179779 1.2347561 -0.20257084
-0.85143095 1.6476456 -0.26871097
-0 0 -0
-0.74467409 1.213631 -0.23411387
-0.64937311 0.97601944 -0.20445241
-0.77603835 1.5045816 -0.3095803
-0.80110055 1.4218441 -0.31439057
-0.73125136 1.1933901 -0.28332961
-0.56697947 0.85276109 -0.21804102
-0.70845747 1.3767983 -0.34338135
-0.74016005 1.3150781 -0.34947646
-0.54533368 0.89018482 -0.25230578
-0 0 -0
-0.570858 1.1119657 -0.32698274
-0.57903349 1.0306056 -0.32124364
-0 0 -0
-0.45448047 0.68298888 -0.24082927
-0.87376124 1.7069374 0.59241521
-0.92653775 1.6510456 0.56231833
-0.54862946 0.89614618 0.30095989
-0.64836055 0.97536701 0.32328442
-0.86216247 1.6816727 0.50456816
-0 0 0
-0 0 0
-0.67557454 1.0189277 0.28796107
-0 0 0
-0.57478666 1.0245353 0.25446349
-0.77527016 1.2695794 0.30738488
-0 0 0
-0 0 0
-0.73714209 1.3147342 0.26843384
-1.1353726 1.8613994 0.36693731
-1.328379 2.0083039 0.38205969
-0.86735493 1.6911463 0.28601381
-0.90046597 1.6079389 0.25887248
-1.2530985 2.056828 0.31503052
-1.3246679 2.0065725 0.29155895
-0 0 0
-0.91904008 1.6411734 0.19441351
-0 0 0
-0 0 0
-0.87401485 1.7055242 0.14618298
-0.92770982 1.6578768 0.12655024
-0.9832865 1.6163085 0.10825834
-1.3389041 2.0317602 0.11568563
-0.87032473 1.6996388 0.075392112
-0.94853288 1.6970345 0.058175888
-0.99373204 1.6353422 0.039349027
-1.354881 2.0578804 0.026877539
-0.88124198 1.7215513 0.0055020037
-0.91564626 1.6396073 -0.012815819
-0.97914678 1.6127985 -0.030364174
-1.37464 2.0895586 -0.064141467
-0.87483513 1.7112437 -0.065099165
-0.91810453 1.6454257 -0.081575565
-0.98313659 1.6216024 -0.10024653
-1.2617 1.9189023 -0.14327855
-0.8738448 1.7121072 -0.13569562
-0.90886229 1.630868 -0.1495609
-0.95503014 1.5758014 -0.16512983
-0.99127191 1.5085866 -0.17928392
-0.88722897 1.7395301 -0.21013413
-0.94497341 1.6974074 -0.22752985
-0.84343517 1.3924918 -0.20606965
-0.77722132 1.1834595 -0.19336921
-0.81212443 1.5955099 -0.25939068
-0.86106378 1.5487194 -0.27365416
-0.72648472 1.2004493 -0.23070681
-0.70230287 1.0697489 -0.22317956
-0.79664367 1.5680739 -0.3216325
-0.81047773 1.4593537 -0.3215788
-0 0 -0
-0.60626751 0.92410034 -0.23532602
-0.69734806 1.3758944 -0.34208229
-0.75948852 1.3690052 -0.36256209
-0.62833023 1.0399374 -0.29365197
-0 0 -0
-0.66923326 1.3235147 -0.38797566
-0.54885596 0.99108511 -0.30786943
-0.50791025 0.84112996 -0.27743226
-0 0 -0
-0.85638911 1.698616 0.58769238
-0.91221374 1.64915 0.55975586
-0 0 0
-0 0 0
-0.85095674 1.6852063 0.50405222
-0 0 0
-0.61561704 1.0212932 0.29318967
-0.66451383 1.015723 0.28589764
-0.82903367 1.6417195 0.41767997
-0.56990826 1.0306088 0.25509861
-0.84325218 1.4001498 0.33773887
-0.85695189 1.3119167 0.30808666
-0 0 0
-0.78715748 1.4243575 0.28982443
-0.88602889 1.4728632 0.28926808
-0 0 0
-0.85607016 1.6946712 0.28571618
-0.89345419 1.6186355 0.25970712
-1.2460719 2.0738273 0.31645715
-1.3210002 2.0279717 0.29348502
-0.86709666 1.7172438 0.2175163
-0.9118368 1.6520067 0.19503038
-0.97363722 1.6218909 0.1774852
-1.3336561 2.0495901 0.20654047
-0.85814202 1.7001733 0.14527029
-0.91173714 1.6530535 0.12575266
-0.97078228 1.6180309 0.1079727
-1.3166113 2.024864 0.11483081
-0.86437923 1.7138689 0.075786628
-0.9139865 1.6590483 0.056680366
-0.97442824 1.6259726 0.038978975
-1.339505 2.0619624 0.026822999
-0.8675108 1.7206755 0.0054820892
-0.9123193 1.6574593 -0.012911357
-0.9635824 1.6093396 -0.030187169
-1.286682 1.9822395 -0.060603689
-0.85937452 1.70676 -0.064726785
-0.91184258 1.6580313 -0.081921592
-0.97316808 1.6276042 -0.10024653
-1.0804238 1.6653727 -0.12385095
-0.86914724 1.7290231 -0.13661106
-0.90411711 1.6460245 -0.15043925
-0.92030436 1.5397398 -0.16075611
-1.0047331 1.5497094 -0.18343492
-0.87207568 1.7360567 -0.2090642
-0.90969586 1.657895 -0.221481
-0.88371611 1.4794042 -0.21812491
-0.78125989 1.2056676 -0.19621089
-0.81961632 1.6349671 -0.26498285
-0.86389291 1.5765076 -0.27762237
-0.78535187 1.3158828 -0.2519604
-0.681265 1.0517139 -0.21854074
-0.78128511 1.5614961 -0.31929401
-0.82743925 1.5116736 -0.33198282
-0.73662299 1.2359509 -0.29126599
-0 0 -0
-0.70807695 1.4185818 -0.35160863
-0.73191172 1.3385934 -0.35331193
-0.61497182 1.0320829 -0.29036307
-0 0 -0
-0.65808094 1.3215339 -0.38620406
-0.6518721 1.1943375 -0.36975801
-0 0 -0
-0 0 -0
-0.86082149 1.7337908 0.59802347
-0.90712482 1.6639746 0.56288773
-0 0 0
-0.57139891 0.88290185 0.2902908
-0 0 0
-0 0 0
-0.6103313 1.0267206 0.29366717
-0 0 0
-0.87061727 1.7506813 0.44403413
-0.68798101 1.2623576 0.31141084
-0.87215167 1.4684476 0.35291588
-0.77818984 1.2074564 0.28242886
-0.94910848 1.9074297 0.40140978
-0.84668392 1.5545255 0.3152476
-0.85886186 1.4477398 0.28329352
-1.2945439 2.0103374 0.37939557
-0.84521532 1.6990067 0.28556737
-0.9010148 1.6562731 0.26485395
-0.96593511 1.6301724 0.24784823
-1.2430518 1.9341537 0.27879876
-0.86317998 1.735878 0.21920161
-0.88884944 1.6339784 0.19225453
-0.95808798 1.6184101 0.17645764
-1.2236176 1.9059619 0.19130662
-0.92136776 1.8536254 0.15789589
-0.90443617 1.6638767 0.12615146
-0.96337783 1.6282532 0.10825834
-1.231349 1.9194045 0.10841966
-0.86495882 1.7415133 0.076772921
-0.89329702 1.6452998 0.056022335
-0.96036375 1.6250352 0.038814507
-1.0791603 1.6837271 0.021816183
-0.86182827 1.7358185 0.0055133831
-0.90642351 1.6709367 -0.012972776
-0.96233177 1.6298586 -0.030460721
-1.0566878 1.6499958 -0.050246712
-0.86131728 1.7370721 -0.065674663
-0.89736748 1.6556901 -0.081532314
-0.95961261 1.6275234 -0.099877007
-1.0524293 1.6442307 -0.12179611
-0.85719419 1.7316415 -0.13639981
-0.89115316 1.6462814 -0.14996015
-0.94472396 1.6028473 -0.16673648
-0.99681401 1.55836 -0.18373142
-0.8658154 1.7502867 -0.21013413
-0.88580567 1.6381096 -0.21810761
-0.86052334 1.4608642 -0.2146088
-0.76957786 1.2037604 -0.19512834
-0.81132126 1.6435151 -0.26555642
-0.78470254 1.4530798 -0.25503409
-0.88536912 1.504364 -0.28700447
-0.72678822 1.1372231 -0.235378
-0.79690498 1.6174399 -0.32972729
-0.81441873 1.5098084 -0.33046952
-0.70220846 1.194818 -0.28055185
-0 0 -0
-0.71486247 1.454442 -0.35940292
-0.78884381 1.4639859 -0.38512352
-0.79919285 1.3601644 -0.38127771
-0.61614376 0.96402091 -0.28884375
-0.62057102 1.2656107 -0.36874136
-0.56819338 1.0563867 -0.32596397
-0 0 -0
-0.46508619 0.72761965 -0.25350451
-0 0 0
-0.90143442 1.677954 0.56573492
-0 0 0
-0.58516496 0.91645217 0.30013564
-1.0587972 2.1623545 0.64283425
-0 0 0
-0.70861858 1.2088895 0.34452173
-0 0 0
-1.0584198 2.1614883 0.54657173
-0 0 0
-0.87797236 1.4991229 0.35898668
-0.86500621 1.3604225 0.31696078
-1.046345 2.1356025 0.44806808
-0 0 0
-0.82008684 1.4019109 0.27333593
-1.2843028 2.0215774 0.38002244
-0.84303957 1.7210337 0.28839478
-0.87960619 1.6408238 0.26151547
-0.93540549 1.6009672 0.2425307
-1.2715614 2.0054634 0.28794757
-0.8581931 1.7527434 0.22066221
-0.89290529 1.665702 0.19533882
-0.9506492 1.6285576 0.17692472
-1.2161652 1.9201686 0.19197994
-0.96520656 1.9720881 0.16747916
-0.89373869 1.6685152 0.12608498
-0.94733179 1.6237857 0.10757281
-1.0592926 1.6737144 0.094172657
-0.8801567 1.7997479 0.079100572
-0.88507098 1.6542753 0.056141976
-0.96396577 1.6542205 0.039369587
-1.0698777 1.6920074 0.021838
-0.89156735 1.8237256 0.0057751127
-0.8980394 1.6799945 -0.013000072
-0.94929457 1.6305481 -0.030364174
-1.0449419 1.6539131 -0.050169807
-0.87826651 1.798905 -0.067807399
-0.8853088 1.65764 -0.081359297
-0.95512927 1.6428773 -0.10045769
-1.0289986 1.62956 -0.12023941
-0.85354561 1.7512155 -0.1375265
-0.90355349 1.6939349 -0.15379299
-0.93787414 1.6137807 -0.16727205
-0.94952834 1.5046967 -0.17671424
-0.88074613 1.8083048 -0.2164467
-0.88507891 1.6610447 -0.22043408
-0.87894827 1.5133001 -0.22151545
-0.81080437 1.2855598 -0.20757759
-0.8315053 1.7107692 -0.27559364
-0.80084163 1.5049796 -0.26327574
-0.91871458 1.5831658 -0.3009572
-0.76235396 1.2091608 -0.2492945
-0.76378161 1.5745063 -0.32001355
-0.79361767 1.4931003 -0.32574043
-0.73909152 1.2754263 -0.29840878
-0.66058367 1.0484742 -0.26385671
-0.72165912 1.4913163 -0.3674137
-0.76431316 1.439543 -0.37745264
-0.8064245 1.3919566 -0.38879523
-0.61590552 0.97680509 -0.29153636
-0.66578758 1.3791708 -0.40062979
-0 0 -0
-0.66159928 1.1426656 -0.3728081
-0 0 -0
-1.0292544 2.1385252 0.73321348
-0.88394606 1.6698977 0.56117946
-0 0 0
-0.60778803 0.96488488 0.31476995
-1.0635498 2.2062337 0.65392649
-0.88697034 1.6766723 0.48561069
-0.59428442 1.0282478 0.29199591
-0.64725846 1.030255 0.28658542
-1.058265 2.1951728 0.55343705
-0 0 0
-0.69050056 1.1957831 0.28532764
-0.80919611 1.2900629 0.29940543
-0.97216755 2.0154109 0.42159134
-1.0245341 1.9372867 0.39028984
-0.73904324 1.2813448 0.24893983
-1.3227494 2.1105964 0.39522332
-0.94973028 1.969335 0.32902005
-0.85425884 1.6172943 0.25692505
-0.92110991 1.5989438 0.24136344
-1.2271196 1.9618869 0.28060442
-1.0541002 2.186729 0.27447951
-0.86919564 1.6456424 0.19235732
-0.93070585 1.6171018 0.17505646
-1.2840879 2.0551996 0.20468883
-0.95958024 1.9914472 0.16862001
-0.87463522 1.6572016 0.12482215
-0.93934178 1.6330295 0.10780132
-1.1024317 1.7657593 0.098969154
-1.0476846 2.1760409 0.095354646
-0.86558151 1.6419905 0.055543769
-0.95479363 1.6618378 0.039410703
-1.019785 1.6349086 0.021019893
-0.98444241 2.0454175 0.0064578848
-0.88538426 1.6810493 -0.012965951
-0.94474721 1.6458811 -0.030541178
-1.0093938 1.6195711 -0.048939273
-0.99320257 2.0663869 -0.077658601
-0.89140457 1.6939853 -0.082873166
-0.94801033 1.653905 -0.10077442
-1.0173973 1.6333017 -0.12005261
-0.84278429 1.7564198 -0.1375265
-0.89267892 1.6985646 -0.15371314
-0.93043035 1.623826 -0.16771834
-0.96236485 1.545976 -0.18086524
-0.8876887 1.8513291 -0.22094041
-0.89102882 1.6972228 -0.22450542
-0.89035219 1.5548234 -0.22678964
-0.79976064 1.285463 -0.2067657
-0.77186966 1.6131743 -0.25910389
-0.8104068 1.5457518 -0.26953331
-0.90310287 1.5784953 -0.29901031
-0 0 -0
-0.74647617 1.5631851 -0.31677562
-0.81678462 1.5597036 -0.33917105
-0.80466866 1.4084415 -0.32836869
-0 0 -0
-0.51810187 1.0876335 -0.26717061
-0.66244382 1.2663777 -0.3309761
-0.62672448 1.0972459 -0.30539808
-0.76147932 1.2242664 -0.36399209
-0.64693183 1.3613849 -0.39430273
-0.56188685 1.076111 -0.32989755
-0.58778214 1.029693 -0.33476648
-0 0 -0
-1.0230674 2.1594789 0.73823142
-0.88476485 1.6965393 0.56829739
-0 0 0
-0.5932073 0.95467699 0.31024662
-1.038395 2.188278 0.64670366
-0.86905426 1.6674788 0.48139447
-0.59036779 1.0360935 0.29318967
-0.74449825 1.201335 0.33289763
-1.0456119 2.203387 0.55387998
-0 0 0
-0.57995099 1.0187212 0.24222493
-0.87044662 1.4068147 0.32525617
-1.0449283 2.2006574 0.45899206
-0 0 0
-0.75310212 1.3244309 0.25640801
-1.2677077 2.0506268 0.38252982
-0.98724544 2.0796432 0.34643087
-0.86763287 1.6673067 0.26401934
-0.91715777 1.6149122 0.24291979
-1.2953327 2.0994885 0.29914287
-1.0457746 2.2039285 0.27582777
-0.8710199 1.6738868 0.19503038
-0.91486996 1.6123908 0.17393549
-1.0837675 1.7585042 0.17447367
-1.02084 2.1522527 0.18170196
-0.87457705 1.6820129 0.12628439
-0.9322589 1.6439731 0.10814409
-1.0580539 1.7180568 0.095929787
-1.0355967 2.1851373 0.095473006
-0.87023199 1.6756567 0.056500901
-0.95689732 1.6894135 0.03992467
-1.0034463 1.6309153 0.020888995
-1.0253906 2.1643829 0.006813495
-0.88518506 1.7059776 -0.013116083
-0.94891089 1.6768827 -0.031007823
-1.0041492 1.6333987 -0.049169999
-0.98178703 2.0751524 -0.07776016
-0.88099366 1.6994231 -0.082873166
-0.93047523 1.6466498 -0.099982589
-0.99220425 1.6148528 -0.11824683
-1.0334924 2.1881924 -0.17083424
-0.89140606 1.721714 -0.15531015
-0.91897964 1.6269028 -0.16745056
-0.92422295 1.5052116 -0.1754294
-0.87122017 1.8459513 -0.21965651
-0.88196689 1.7053047 -0.22485439
-0.8964017 1.5879029 -0.23080805
-0.79755867 1.2996352 -0.20825417
-0.77292031 1.6411589 -0.26283202
-0.85895687 1.66309 -0.28906915
-0.8730408 1.5479091 -0.29219618
-0.7644577 1.2461356 -0.2549642
-0.69753736 1.4840522 -0.29986656
-0.80314732 1.5568318 -0.33746856
-0.75753355 1.3450332 -0.31249589
-0.60166115 0.98145407 -0.24511392
-0.51390511 1.0960956 -0.26846963
-0.73989636 1.435824 -0.37406844
-0.75542188 1.3416125 -0.37211579
-0 0 -0
-0.65823972 1.4073929 -0.40645069
-0.65723538 1.2777685 -0.39047495
-0.56729424 1.0081191 -0.32661465
-0.45613045 0.74341768 -0.25603956
-0.99283993 2.1293461 0.72583407
-0.86908191 1.691704 0.56488079
-0 0 0
-0.59136814 0.96487385 0.31237522
-1.0306722 2.2068636 0.65031505
-0.85438192 1.6641617 0.47891435
-0.56830555 1.0117568 0.2853108
-0 0 0
-1.0444524 2.2362678 0.56052387
-0 0 0
-0.58039922 1.0342169 0.24505799
-0.77643615 1.2722563 0.2930392
-1.0205882 2.1838799 0.45417809
-0 0 0
-0.78739285 1.4047257 0.27101249
-1.1517521 1.8888738 0.35103101
-0.93511945 2.0014472 0.3324427
-0.85241705 1.6629052 0.2624892
-0.90916908 1.62397 0.24343857
-1.2695243 2.0861959 0.29613337
-1.0393796 2.2256093 0.27773777
-0.86799246 1.6933627 0.19667535
-0.91079146 1.6284012 0.17505646
-1.0351732 1.7029625 0.16832963
-1.0147849 2.1738355 0.18299493
-0.87743098 1.7131019 0.12821189
-0.93140972 1.6662199 0.10922953
-0.99563617 1.6391445 0.091180794
-1.012877 2.1715281 0.094605066
-0.86312068 1.6871939 0.056710277
-0.93042934 1.666446 0.039246235
-0.99757034 1.6438804 0.02097626
-0.98842621 2.11988 0.0066541815
-0.8810721 1.7238427 -0.013211622
-0.91571116 1.6416328 -0.030251535
-0.98944312 1.6318359 -0.048939273
-1.023035 2.1971085 -0.082093336
-0.89326751 1.7492851 -0.085035823
-0.91986817 1.6514558 -0.099929802
-0.99676031 1.6448101 -0.11999033
-1.0351832 2.2270572 -0.17336929
-0.87674922 1.7191592 -0.1545915
-0.9065572 1.62816 -0.16700427
-0.9613626 1.5874609 -0.18432441
-0.84228593 1.8133894 -0.2151628
-0.87419182 1.7159942 -0.22555235
-0.8900184 1.5994416 -0.23168707
-0.84549069 1.3968962 -0.22300383
-0.77448851 1.6710122 -0.26684693
-0.84335881 1.657759 -0.28723767
-0.86017025 1.5471997 -0.29106048
-0 0 -0
-0.74127823 1.6025832 -0.32289168
-0.79091072 1.5564781 -0.3363336
-0.81063485 1.4601994 -0.33809081
-0.59056717 0.97675753 -0.2430314
-0 0 -0
-0.72401738 1.4264374 -0.3704586
-0.66462785 1.1974919 -0.3310045
-0.61940521 1.0236464 -0.30206203
-0 0 -0
-0.548639 1.0829252 -0.32989755
-0.54662693 0.98549193 -0.31819114
-0.44559914 0.73635155 -0.25265947
-1.0203964 2.2239749 0.75594187
-0.85998386 1.6995709 0.56573492
-0.91717362 1.6536422 0.54161769
-0.5709753 0.94456095 0.30465901
-0 0 0
-0.8515864 1.6840694 0.48313057
-0.57807928 1.0441098 0.29342842
-0.63421583 1.0519975 0.28933668
-1.0396705 2.2621279 0.56539613
-0.89112717 1.7616531 0.42763415
-0.6176526 1.1165975 0.26367512
-0.76760316 1.2753152 0.29265338
-1.0170231 2.211529 0.45862177
-0.91807991 1.8161157 0.36241201
-0.87270576 1.5795718 0.30370659
-1.1294518 1.8781313 0.34774011
-1.0025456 2.1805487 0.36116311
-0.84398288 1.6716403 0.26304561
-0.89727128 1.6260455 0.24291979
-1.2710037 2.11778 0.29950398
-1.0211397 2.222013 0.27650189
-0.87148297 1.7261833 0.19986245
-0.91664487 1.662732 0.17813909
-0.97244471 1.6221089 0.15974483
-0.99185437 2.1591814 0.18124561
-0.86555487 1.7157809 0.12801249
-0.90334255 1.63955 0.10711578
-0.97324038 1.6246576 0.090041034
-0.96368724 2.0996027 0.09121222
-0.86759418 1.7219155 0.057697322
-0.91777658 1.667744 0.039143443
-0.98387045 1.6439643 0.020899905
-0.94537508 2.0604646 0.0064493502
-0.86103606 1.7104595 -0.013068314
-0.90321249 1.6428398 -0.03017108
-0.97120297 1.6241487 -0.0485291
-1.0145301 2.2142475 -0.082499564
-0.86276609 1.7154614 -0.083132677
-0.90779537 1.6535673 -0.099718638
-0.98306513 1.6448982 -0.11955446
-1.0214987 2.233367 -0.17336929
-0.87021083 1.7325233 -0.15531015
-0.91092545 1.6598868 -0.16968206
-0.9577269 1.6035818 -0.18551041
-0.95141315 2.081671 -0.24629773
-0.86008298 1.714224 -0.22462174
-0.88686663 1.6170505 -0.23344514
-0.86331069 1.4462974 -0.23004036
-0.8085711 1.7729812 -0.28233293
-0.83582735 1.6682041 -0.28815341
-0.83785808 1.529084 -0.28667998
-0.75466084 1.2647285 -0.25685409
-0 0 -0
-0.80024189 1.5990611 -0.34446767
-0.82847601 1.5141559 -0.34940016
-0.65018213 1.0904121 -0.27031258
-0 0 -0
-0.8150031 1.6304055 -0.42212424
-0.78741509 1.4394692 -0.39654765
-0.6687597 1.1206789 -0.3294777
-0.59821796 1.3210655 -0.37937084
-0.44030815 0.88248742 -0.26800901
-0.53318369 0.97531664 -0.31384355
-0 0 -0
-0.96663487 2.1413696 0.72583407
-0.86322087 1.7322711 0.57484591
-0.90977645 1.6642998 0.54326975
-0.55924559 0.93811065 0.30146605
-0 0 0
-0.84426004 1.6953331 0.48486665
-0.60422188 1.1073073 0.31014118
-0.62625664 1.0533592 0.28864887
-1.0113063 2.2364769 0.55742341
-0.85458934 1.7154748 0.41514388
-0.56766403 1.0412614 0.24505799
-0.8744542 1.4732246 0.33683112
-0.97750777 2.1604266 0.44677204
-0.86084926 1.7291749 0.34400213
-0.88846278 1.6316644 0.31266841
-0.94762599 1.5978973 0.29477203
-1.0046344 2.2208962 0.36681792
-0.83591443 1.681221 0.26374114
-0.89343548 1.6428442 0.24460582
-0.97382629 1.645413 0.23185076
-1.0013458 2.2146554 0.27481657
-0.88434523 1.7787046 0.20531137
-0.89977092 1.6560774 0.17683131
-0.97058684 1.6417694 0.16109145
-0.97776586 2.1634095 0.18109348
-0.86522114 1.7416122 0.1295412
-0.89517105 1.6485713 0.10734429
-0.96579355 1.6348988 0.090278484
-0.95037496 2.1045656 0.091172777
-0.85301381 1.7191479 0.057428129
-0.90514296 1.6689497 0.039040651
-0.96715778 1.6387752 0.0207581
-0.93148023 2.0634921 0.0064408151
-0.86340469 1.7416925 -0.013266215
-0.92264748 1.7028562 -0.031168735
-0.96578908 1.6378273 -0.048759822
-1.0140678 2.2495871 -0.083582856
-0.85887504 1.7341521 -0.083781481
-0.89573145 1.6555932 -0.099507488
-0.96940649 1.6448803 -0.11911859
-1.0004078 2.2232187 -0.17210175
-0.8630994 1.7449781 -0.15594897
-0.90214485 1.6680732 -0.16994983
-0.94180959 1.5991387 -0.18432441
-0.95126241 2.1155808 -0.24961452
-0.85482794 1.7301545 -0.22601764
-0.8858906 1.6390443 -0.23583108
-0.85693312 1.4558367 -0.23071694
-0.87545961 1.9512755 -0.3098636
-0.82164019 1.6653246 -0.28677979
-0.82752234 1.5324597 -0.2863555
-0.9172464 1.5588626 -0.31544086
-0.92134088 2.0577679 -0.412294
-0.80387086 1.6312461 -0.35033175
-0.8307991 1.5407784 -0.35436043
-0.7936905 1.349849 -0.33341324
-0 0 -0
-0.69742316 1.4168594 -0.36572069
-0.6955452 1.2902634 -0.35426173
-0.73563051 1.250106 -0.36619511
-0.46688429 1.0481038 -0.300156
-0.4433955 0.90249485 -0.2732538
-0 0 -0
-0 0 -0
-0 0 0
-1.0316207 2.1024261 0.69556642
-0.90684223 1.6833924 0.54767543
-0 0 0
-1.047989 2.3561108 0.68849301
-1.0441149 2.1292987 0.60713738
-0 0 0
-0 0 0
-0.99835706 2.244422 0.55786633
-0.99124992 2.0207753 0.48754534
-0 0 0
-0.88968492 1.5200571 0.346284
-1.0773199 2.4204602 0.49917006
-0.91522473 1.8670255 0.37030193
-0.87656933 1.6336094 0.3120046
-0.6940046 1.1867757 0.21814071
-0.97812355 2.1981082 0.36205599
-1.0237054 2.0909991 0.32703343
-0.87818635 1.6386818 0.24317919
-0.93969417 1.6102021 0.22607255
-0.98733431 2.2198501 0.27470422
-0.89572018 1.8296602 0.21055467
-0.89335197 1.6685891 0.17757861
-0.95698208 1.641668 0.1605023
-0.97905558 2.2021682 0.18383156
-0.96368998 1.970067 0.1460911
-0.88645178 1.6566738 0.10751568
-0.95323002 1.6364784 0.090041034
-0.93866062 2.113097 0.09129113
-0.858684 1.7575793 0.058534816
-0.88498944 1.6559552 0.038608924
-0.95607835 1.6429503 0.020736283
-0.93625206 2.1084683 0.0065631452
-0.89568758 1.8350242 -0.013934985
-0.8956992 1.6776146 -0.030605542
-0.95471644 1.641994 -0.048708551
-1.0010557 2.2575943 -0.083650567
-0.9209103 1.8884543 -0.090961516
-0.89307272 1.6751573 -0.10035212
-0.96531296 1.6611527 -0.1198658
-0.99724489 2.2530313 -0.17393263
-1.023026 2.1006479 -0.1871707
-0.91718805 1.721042 -0.17476983
-0.95146883 1.638448 -0.18817891
-0.95515466 2.1595678 -0.25410822
-0.8667888 1.7818103 -0.2320665
-0.89400476 1.678599 -0.24072853
-0.85743386 1.477349 -0.23328799
-0.86267126 1.9547998 -0.30957684
-0.82133853 1.6907805 -0.29029015
-0.80558878 1.5139884 -0.281975
-0.90815854 1.5653135 -0.31561267
-0 0 -0
-0.75869787 1.563705 -0.3348203
-0.79557669 1.497377 -0.34324947
-0.81875134 1.412232 -0.34757444
-0.65567815 1.4927341 -0.361568
-0.65217745 1.3457168 -0.34631786
-0.72044563 1.3563136 -0.37117609
-0.76054806 1.3107847 -0.38259557
-0.44840923 1.0234789 -0.29231042
-0.5374372 1.1110833 -0.3354046
-0.54057795 1.0183375 -0.32552779
-0 0 -0
-0.94257849 2.158324 0.7276051
-1.1008476 2.2787602 0.75165588
-0.89469314 1.6855285 0.546574
-0 0 0
-0 0 0
-1.0773591 2.2316306 0.6344189
-0 0 0
-0.6059764 1.0483245 0.28520983
-0 0 0
-1.0668122 2.2089956 0.53136724
-0.83661771 1.5804461 0.3695094
-0.67778921 1.1744978 0.26660976
-1.0005769 2.2856886 0.47010118
-1.0321256 2.1386013 0.42290169
-0.84256136 1.5936244 0.30337465
-0.64280367 1.1148622 0.2041935
-0.98483795 2.2502697 0.36964533
-1.0405238 2.1587937 0.3366316
-0.86533707 1.6387784 0.242401
-0.94464946 1.6417513 0.22968394
-0.98165971 2.2440739 0.27695128
-1.0667273 2.2132571 0.25394046
-0.87473512 1.6581882 0.17589718
-0.94689101 1.647509 0.1605023
-0.96991915 2.2181838 0.18466821
-0.97755957 2.0298812 0.15007903
-0.88092601 1.6709132 0.10808696
-0.94416577 1.6440289 0.090136014
-0.94327867 2.1591053 0.093027003
-1.0263853 2.133934 0.070857935
-0.89437652 1.698509 0.039472379
-0.95891756 1.6713362 0.021019893
-0.98132837 2.2470539 0.0069756531
-1.0585215 2.2028141 -0.016678307
-0.89004374 1.6919278 -0.030766454
-0.94710922 1.6521575 -0.04883673
-0.99277759 2.2765195 -0.084124506
-0.98583776 2.0534847 -0.098617338
-0.88974297 1.6938665 -0.10114395
-0.9570868 1.6705085 -0.12011488
-0.97822595 2.2472179 -0.17301719
-1.0273548 2.1428392 -0.19036473
-0.89133072 1.6975368 -0.17182428
-0.93398112 1.6313016 -0.18669641
-0.95180041 2.1881816 -0.25678304
-0.92705214 1.9357958 -0.25137627
-0.88737607 1.6910807 -0.24173313
-0.79816031 1.3948658 -0.21948557
-0.85144854 1.9618717 -0.3098636
-0.82288688 1.7207526 -0.29456359
-0.78574628 1.4988023 -0.27824345
-0.85940623 1.5024467 -0.30186799
-0.7498104 1.7313209 -0.34501743
-0.7825228 1.6383297 -0.34976426
-0.80864692 1.5447791 -0.35297152
-0.80861461 1.4146818 -0.34694973
-0.83310312 1.9287193 -0.46592477
-0.43919978 0.92060506 -0.23621811
-0.65171576 1.2453068 -0.33969662
-0.73756623 1.2893369 -0.3750073
-0.44480035 1.0324304 -0.29408199
-0 0 -0
-0 0 -0
-0 0 -0
-0.9500528 2.2123525 0.74383974
-1.0230337 2.1512873 0.70752454
-0.8838886 1.6901346 0.54629868
-0 0 0
-0.97738189 2.2720542 0.66037548
-1.0665565 2.2443237 0.63615495
-0.87268555 1.6717668 0.46365991
-0.59712291 1.0477946 0.28406349
-0.97806138 2.2735243 0.56207412
-1.0670853 2.244628 0.53835338
-0 0 0
-0.59778732 1.0507076 0.23767237
-0.96865988 2.2502639 0.46158418
-1.0248984 2.1573436 0.42535633
-0 0 0
-0.73698068 1.2965202 0.23663253
-0.96632111 2.2453701 0.3678596
-1.0387192 2.1892939 0.3403874
-0.85984147 1.6528536 0.24369796
-0.92623127 1.6328374 0.22763747
-0.97101301 2.2573574 0.27785012
-1.0514214 2.216166 0.25352922
-0.86638069 1.667058 0.17627083
-0.9377467 1.6550218 0.16067062
-0.95747197 2.2268414 0.18489638
-0.9612394 2.0277267 0.14948083
-0 0 0
-0.94045806 1.6610912 0.090753384
-0.93750668 2.1822963 0.093776584
-1.0432129 2.2034307 0.072951667
-0.88716048 1.7101772 0.039616287
-0.95455188 1.6876329 0.02115079
-0.96633846 2.2502761 0.0069671185
-1.0556747 2.2318666 -0.016848912
-0.87412477 1.6867044 -0.030573361
-0.93744582 1.6588081 -0.048862368
-0.98312312 2.2926722 -0.084496886
-1.0517597 2.2256999 -0.10657593
-0.88208646 1.7046154 -0.10146068
-0.93062121 1.6476718 -0.11806003
-0.9675591 2.2605143 -0.17358054
-1.0341818 2.1914718 -0.19411774
-0.88776219 1.7162439 -0.17316316
-0.93862784 1.6629996 -0.18966143
-0.93718314 2.1912382 -0.25646207
-0 0 -0
-0.8747052 1.6920873 -0.24110526
-0.8991161 1.5939051 -0.24993208
-0.87124586 2.0417001 -0.32162151
-0.90701288 1.9269602 -0.32890394
-0.82815313 1.6035429 -0.29673895
-0 0 -0
-0 0 -0
-0.71563882 1.5222449 -0.32403794
-0.79780555 1.5470985 -0.35237631
-0.7163741 1.2713494 -0.31071368
-0 0 -0
-0.66584218 1.4179927 -0.36278769
-0.58526832 1.1352398 -0.30868694
-0.73297501 1.2997501 -0.37672079
-0 0 -0
-0 0 -0
-0 0 -0
-0.43222904 0.76638889 -0.25829294
-0.93423051 2.2128589 0.74206871
-1.0106272 2.1592605 0.708094
-0.8717404 1.6921079 0.54519725
-0 0 0
-0.94648719 2.2379653 0.64876729
-1.0244455 2.1902773 0.61904204
-0.86507583 1.6822714 0.46509242
-0.57638025 1.0259801 0.27718544
-0.97434914 2.3037326 0.5680536
-1.0346537 2.211298 0.52882683
-0 0 0
-0.58412939 1.0415186 0.23477861
-0.96211141 2.27336 0.46510208
-1.0279049 2.1983733 0.43219429
-0 0 0
-0 0 0
-0.95676416 2.2612748 0.36949649
-1.0265234 2.198318 0.34080473
-0.84516156 1.6492741 0.242401
-0.91425693 1.6350241 0.22715595
-0.94901609 2.2440538 0.2754907
-1.0331743 2.2126617 0.25239831
-0.86793178 1.695385 0.17869957
-0.92125744 1.6494353 0.15957649
-0.94961369 2.2464507 0.18603724
-0 0 0
-0.87399697 1.7082615 0.10980082
-0.94095737 1.6860194 0.091798164
-0.92604256 2.19261 0.093973845
-1.0220742 2.1934817 0.072413273
-0.86209261 1.6870992 0.038958415
-0.91983169 1.6497898 0.020605385
-0.97934967 2.31973 0.0071634152
-0.97190559 2.0878129 -0.015716098
-0.87103266 1.7062849 -0.030830821
-0.92822289 1.6662755 -0.048913639
-0.96321356 2.2848473 -0.083989099
-1.0389259 2.2339232 -0.10666243
-0.87070358 1.7082162 -0.10135511
-0.92292124 1.6577111 -0.11837137
-0.95753944 2.2756031 -0.17428473
-1.0303729 2.2185695 -0.19595432
-0.88671041 1.7402953 -0.17503761
-0.94824177 1.7043804 -0.19371359
-0.89250576 2.1227076 -0.24779566
-0.88985229 1.918195 -0.24765392
-0.8575539 1.6841614 -0.23922162
-0.91724581 1.6496165 -0.25778052
-0.82807499 1.973998 -0.31015038
-0.83743244 1.8078413 -0.30768922
-0.80084968 1.5742939 -0.29041153
-0.760499 1.368222 -0.27300411
-0 0 -0
-0 0 -0
-0.8175925 1.6096389 -0.36547139
-0.71473354 1.2868366 -0.31342095
-0 0 -0
-0.46546641 1.0072865 -0.25697464
-0.5796119 1.1414096 -0.30939174
-0.6802339 1.2237155 -0.35346645
-0 0 -0
-0 0 -0
-0 0 -0
-0 0 -0
-0 0 0
-0.99134374 2.1523604 0.70382321
-0.85046583 1.6759927 0.53831345
-0 0 0
-0 0 0
-1.0271887 2.2317226 0.62896258
-0.85078835 1.6797512 0.46294364
-0.56488734 1.0201306 0.27466351
-0.93399125 2.2466359 0.55255121
-1.0182047 2.2113905 0.52734494
-0.9824807 1.9416066 0.44964397
-0.58817154 1.0639753 0.23902278
-0.94814426 2.2792206 0.46510208
-1.0094583 2.1939065 0.43009028
-0.93140066 1.8429756 0.34751999
-0.89195746 1.6149744 0.2927348
-0 0 0
-1.0055729 2.1883786 0.33830088
-0.84530175 1.6747884 0.24538401
-0.9123534 1.6553832 0.2292024
-0 0 0
-1.0195782 2.2189596 0.25239831
-0.85078889 1.6873435 0.17729837
-0.9140026 1.6602944 0.16008148
-0.94499397 2.2743337 0.18786262
-0.97999632 2.1345828 0.1564597
-0.86484665 1.7162668 0.1099722
-0.90748608 1.6497518 0.089518644
-0.89763016 2.1622593 0.092435233
-0.9811002 2.1397443 0.070439182
-0.85442132 1.6977156 0.039081767
-0.91209936 1.6597843 0.020659925
-0.9325189 2.2471871 0.0069216001
-0.94575036 2.0646446 -0.015497724
-0.85291129 1.6964108 -0.030557267
-0.90402877 1.6465275 -0.04817019
-0.94458485 2.2796347 -0.083582856
-1.0185474 2.2257204 -0.10597038
-0.85617357 1.7054945 -0.10088
-0.90985155 1.6580929 -0.11799777
-0.93288392 2.2556252 -0.17231302
-1.0171549 2.2257566 -0.19603416
-0.86618769 1.7261187 -0.1730739
-0.91910648 1.6761379 -0.18985909
-0.83845299 2.0289042 -0.23624042
-0.93498123 2.0483062 -0.26370665
-0.83919889 1.6734288 -0.23696126
-0.90663046 1.6543447 -0.25764519
-0.65713358 1.5938469 -0.24978362
-0.71032715 1.5584499 -0.26449674
-0.82123071 1.6391692 -0.3014439
-0.73457694 1.3408953 -0.26664719
-0.54079419 1.3145349 -0.25993231
-0.64442325 1.4156247 -0.2996358
-0.67220682 1.343768 -0.30416268
-0.70071876 1.2800448 -0.31071368
-0.45876214 1.118185 -0.26803663
-0.46451902 1.0216527 -0.2599076
-0.57346702 1.1466832 -0.30986157
-0.76635182 1.3987812 -0.40266779
-0 0 -0
-0.43743449 0.96400315 -0.28767696
-0 0 -0
-0.44584471 0.8137092 -0.27237651
-0 0 0
-0.99473697 2.1950746 0.71578139
-0.8521992 1.7052578 0.54602331
-0.90891325 1.6607488 0.52257663
-0 0 0
-1.0034848 2.2159212 0.62276226
-0.84740078 1.6988434 0.46676368
-0 0 0
-0 0 0
-1.0376872 2.2905965 0.54470438
-0.97535342 1.95724 0.4518699
-0.8595385 1.5776515 0.35322896
-0.94083506 2.301369 0.46843484
-1.0073465 2.225172 0.43499961
-0.87657559 1.7612553 0.33108997
-0.89053059 1.6360313 0.29555559
-0 0 0
-1.0006932 2.2134566 0.34122205
-0.83545089 1.6808314 0.24551371
-0.89554536 1.6487373 0.2275171
-0.93155259 2.2803674 0.27852422
-1.0096315 2.2333312 0.25332361
-0.85591727 1.7237431 0.18056783
-0.90379798 1.6658714 0.16008148
-0.92084402 2.2551653 0.18580906
-0.96605879 2.138737 0.15632677
-0.85740608 1.7278012 0.1103721
-0.89591813 1.6526545 0.089376174
-0.90548265 2.2195373 0.094644524
-0.95932114 2.1265903 0.069811068
-0.86663073 1.7486124 0.040130254
-0.89761227 1.6574363 0.020561753
-0.9489212 2.3269436 0.0071491906
-0.93388581 2.072232 -0.015511371
-0.88330185 1.7840495 -0.03203766
-0.90104485 1.6652317 -0.048554733
-0.93171024 2.2881646 -0.083684415
-1.0126644 2.2492371 -0.10679219
-0.90322286 1.827091 -0.10774259
-0.90298378 1.6697898 -0.11843364
-0.91602159 2.2539139 -0.17174968
-0.99734747 2.2183185 -0.19483639
-0.85911012 1.7385446 -0.17378798
-0.92299724 1.7080095 -0.1928241
-0.79194599 1.9501812 -0.22650404
-0.93582243 2.0839043 -0.26754534
-0.83506501 1.691 -0.23871933
-0.89599174 1.6590048 -0.25750989
-0 0 -0
-0.86411166 1.9270968 -0.32615671
-0.83604234 1.6946177 -0.31069165
-0.79559952 1.4736736 -0.29207489
-0.61824805 1.5294105 -0.3016654
-0.70114368 1.5656298 -0.33046952
-0.66178346 1.3434711 -0.30317062
-0.73232341 1.3574885 -0.32841516
-0 0 -0
-0.50597501 1.1312008 -0.28698131
-0.66132468 1.3428946 -0.36177924
-0.59284514 1.0980239 -0.31503552
-0.4164423 1.0358545 -0.29205734
-0 0 -0
-0 0 -0
-0 0 -0
-0 0 0
-1.0234034 2.2956965 0.74653095
-1.0484358 2.1305211 0.68011975
-0.89641804 1.6620525 0.52124625
-0 0 0
-0.98435038 2.2096479 0.61929005
-1.0762762 2.1912448 0.60022706
-0 0 0
-0.90453488 2.2534032 0.55144387
-1.0156562 2.2790666 0.54047036
-1.0884329 2.2181473 0.51055431
-0 0 0
-0.91131252 2.2687988 0.46065843
-0.9932735 2.2304115 0.43482426
-0.97033679 1.9800096 0.3710863
-0.88607752 1.6519089 0.29743612
-0.90908343 2.2638204 0.36711553
-0.99956739 2.2476051 0.34553429
-1.0618049 2.1695275 0.31593838
-0.88306969 1.6498251 0.22691521
-0.93086755 2.3192382 0.28256896
-1.0043969 2.2585707 0.25548261
-1.0530478 2.1538241 0.22493914
-0.88275403 1.6511743 0.15814568
-0.92703736 2.3107452 0.18991619
-0.96102071 2.1628613 0.15765609
-0.96863472 1.9823993 0.1262538
-0.88952595 1.665169 0.089756094
-0.88701391 2.2129939 0.094131649
-0.95030874 2.141573 0.070110172
-1.0089097 2.0674779 0.047305182
-0.89778274 1.6823206 0.02080173
-0.89483047 2.2333984 0.0068447883
-0.93087953 2.0998638 -0.015675154
-1.0624917 2.1794987 -0.039021265
-0.88234425 1.654851 -0.048093282
-0.9209938 2.3021898 -0.083989099
-1.0004625 2.2590623 -0.1069652
-0.96585447 1.9843425 -0.11666395
-0.89741474 1.6841071 -0.11905631
-0.90180469 2.2585659 -0.17167926
-0.98371732 2.2243965 -0.19483639
-0.89243823 1.8342414 -0.18280317
-0.92045075 1.7285725 -0.19450426
-0.71880567 1.8017064 -0.20874321
-0.87004501 1.9696819 -0.25219056
-0.86284876 1.7746065 -0.24976997
-0.8806752 1.65485 -0.25602138
-0 0 -0
-0.82275856 1.865449 -0.31486255
-0.81485015 1.6775262 -0.30663565
-0.80134779 1.5063587 -0.29757276
-0.56310654 1.4179815 -0.27900001
-0.81858701 1.858362 -0.39119115
-0.73308003 1.5115353 -0.3400749
-0.60829031 1.1443198 -0.27593538
-0 0 -0
-0.59239554 1.3465165 -0.34067753
-0.54026896 1.1142761 -0.29929009
-0.51414382 0.96639669 -0.27635983
-0 0 -0
-0 0 -0
-0 0 -0
-0 0 -0
-0 0 0
-0.9554072 2.1790223 0.7066704
-1.0454035 2.1576777 0.6867283
-0.89886951 1.6913555 0.52869642
-0 0 0
-0.98399204 2.2458153 0.6277225
-1.0754933 2.2240343 0.60738969
-0.87006795 1.6418602 0.43767327
-0 0 0
-0.98870569 2.2557166 0.53348428
-1.0713941 2.2177296 0.50893545
-0.84516072 1.5976212 0.35535106
-0.898817 2.2780042 0.46139905
-0.97008961 2.2148211 0.43061629
-1.0335889 2.1422424 0.40029526
-0.89346188 1.6904958 0.3033911
-0 0 0
-0.98655117 2.2555103 0.34581247
-1.0527771 2.1849346 0.31723535
-0.87200373 1.6534563 0.22667445
-0.91406822 2.3184354 0.28178248
-0.98812801 2.2592227 0.25486574
-1.0626986 2.2077918 0.22989005
-0.88050079 1.6715473 0.15957649
-0.93148571 2.3637009 0.19379513
-0.95412427 2.1833458 0.15871952
-0.96251178 2.0009012 0.1270536
-0.88440955 1.6803187 0.090278484
-0.93345237 2.3708746 0.10060173
-0.93874961 2.1510279 0.070229813
-1.0533534 2.1925862 0.050018907
-0.89023548 1.693108 0.02086718
-0.92725265 2.3560932 0.0072032437
-0.9695313 2.2237833 -0.016555471
-1.0603466 2.2094142 -0.039439637
-0.89402449 1.7018282 -0.049298178
-0.92914701 2.3645389 -0.086054116
-0.9929654 2.2798138 -0.10765725
-1.055931 2.2036636 -0.12917496
-0.89077598 1.6966512 -0.11955446
-0.89339244 2.2779863 -0.17273553
-0.96965265 2.2294765 -0.19475655
-0.93882126 1.9600526 -0.19476393
