# .PCD v0.7 - Point Cloud Data file format
VERSION 0.7
FIELDS x y z
SIZE 4 4 4
TYPE F F F
COUNT 1 1 1
WIDTH 1511
HEIGHT 1
VIEWPOINT 0 0 0 1 0 0 0
POINTS 1511
DATA ascii
7.2787213 -1.8564559 1.9230977
7.643661 -1.6472251 1.9224455
8.0815039 -1.4320236 1.9331907
0.97547138 -0.28801051 0.23098634
8.2829094 -2.1113448 1.851529
8.2343025 -1.7778183 1.7407008
8.181406 -1.4557651 1.6338047
8.2925634 -2.4463561 1.6289682
8.3021374 -2.118561 1.5259175
8.2444878 -1.7843853 1.4196209
8.1955585 -1.4615301 1.320911
8.3879232 -2.4752834 1.3160802
8.3055696 -2.123915 1.2042232
7.7307243 -1.6774275 1.0347111
7.7058344 -1.3812749 0.94931203
7.8507147 -2.3182423 0.92556781
7.8020029 -1.9952872 0.832349
7.757916 -1.6865888 0.74487734
7.7056208 -1.3851237 0.66128296
7.8755765 -2.3269289 0.62641156
7.8294587 -2.0049295 0.53837025
7.768117 -1.6907943 0.45491356
7.7209239 -1.3905177 0.37298644
7.8992391 -2.3366187 0.32523945
7.8326344 -2.0098219 0.2419758
7.7861362 -1.6988446 0.16387205
7.7335215 -1.3961313 0.085726693
7.8839393 -2.3332901 0.023390627
7.8468428 -2.0165334 -0.055289544
7.8026972 -1.7057395 -0.12853684
7.7289605 -1.3982332 -0.20142268
7.9021854 -2.3431907 -0.27918503
7.8515215 -2.0208039 -0.35099986
7.8083668 -1.7119774 -0.42257687
7.7485652 -1.4037353 -0.49129412
7.9132648 -2.3521869 -0.58277994
7.8327246 -2.0203395 -0.64799076
7.8111386 -1.7138711 -0.71666342
8.003273 -1.4523309 -0.80786479
7.7066555 -2.2931156 -0.8652519
7.609344 -1.9662632 -0.92047226
6.1830411 -1.358341 -0.80129826
7.5881348 -1.3789123 -1.0533142
7.8142719 -2.3321161 -1.1815253
0 -0 -0
4.7943416 -1.05519 -0.80714941
4.5970545 -0.83612055 -0.81488889
4.0541563 -1.2133267 -0.77386075
4.0499301 -1.0509565 -0.80602783
3.8924479 -0.85918486 -0.80693388
3.7507834 -0.68341666 -0.81177068
3.5446746 -1.0645577 -0.82078099
3.4452562 -0.89571261 -0.82439446
3.2270918 -0.71267438 -0.79873335
3.1613371 -0.57487571 -0.81121033
1.4496566 -0.43685937 -0.3960743
1.39599 -0.36405423 -0.39204839
2.7842641 -0.61564434 -0.80512416
2.7443106 -0.49894223 -0.81881952
0.87607336 -0.26513523 0.28277716
6.1685843 -1.6119633 1.8936603
6.4749103 -1.4318892 1.899379
6.802309 -1.2401065 1.9085754
0 -0 0
7.2643819 -1.9003469 1.9223537
7.6400461 -1.6955675 1.9241168
8.0677786 -1.4807053 1.9320444
0.98675537 -0.29793665 0.23408683
8.2906008 -2.1675668 1.8561864
8.2442703 -1.8329856 1.7451528
8.1887236 -1.5089606 1.637084
1.1421642 -0.34457734 0.22477466
8.3146982 -2.1761928 1.5306516
8.2584095 -1.8405163 1.4239359
8.2165432 -1.5173495 1.3257689
8.3858309 -2.5307038 1.3181636
8.316328 -2.1811175 1.2077006
7.7541556 -1.7323978 1.0392505
7.7089267 -1.4307048 0.95075661
7.8677344 -2.3758492 0.92927557
7.8204017 -2.0511973 0.83563888
7.763938 -1.7378557 0.74646533
7.7165694 -1.4360245 0.66296625
7.8630595 -2.3757854 0.62656367
7.8295546 -2.056227 0.53923428
7.7614932 -1.7393001 0.45514208
7.7250118 -1.4402462 0.37360379
7.9077072 -2.3919868 0.3261863
7.8433547 -2.0639491 0.24269366
7.7931247 -1.7505314 0.1642421
7.7483997 -1.4479654 0.085988492
7.871388 -2.3822002 0.023396317
7.8468928 -2.0679557 -0.055378262
7.7959862 -1.754462 -0.12860121
7.7526608 -1.4517026 -0.20226866
7.9077439 -2.3977234 -0.27989596
7.86409 -2.0755706 -0.35212445
7.8142753 -1.7635938 -0.42347428
7.7633495 -1.4556676 -0.49278855
7.915863 -2.4059191 -0.5840475
7.8471632 -2.0754988 -0.65022653
7.8043613 -1.7626448 -0.71702045
8.0391989 -1.50986 -0.81241107
7.701952 -2.3432534 -0.86632174
7.628819 -2.0213108 -0.92431098
6.1136279 -1.3824685 -0.793387
7.5834265 -1.4261788 -1.0538555
7.816853 -2.3852186 -1.1841063
0 -0 -0
4.832046 -1.0946161 -0.81461251
4.6053915 -0.86686307 -0.8172943
4.1736217 -1.2770348 -0.79814512
1.6359612 -0.43526313 -0.32611874
3.8861468 -0.88283509 -0.8067354
3.7272966 -0.70279366 -0.80760562
3.4736793 -1.0665158 -0.80584198
2.9614892 -0.78937173 -0.70978242
1.4558831 -0.33090049 -0.36083955
3.133929 -0.58977956 -0.80509079
1.5014983 -0.46255058 -0.41100615
1.3965266 -0.37336069 -0.39283508
2.6950412 -0.61328465 -0.78039712
2.7496841 -0.51736844 -0.82135463
0.88629597 -0.27417645 0.28661445
6.1345024 -1.6433333 1.8862576
6.5034971 -1.480125 1.9103931
6.7907829 -1.2811065 1.9075111
0.90379256 -0.27896696 0.25254202
7.2638135 -1.9478956 1.9253299
7.6238189 -1.7411169 1.9226844
8.0375032 -1.5261858 1.9270006
0.96254557 -0.29708341 0.22877169
8.3054647 -2.2259865 1.8625374
8.2605534 -1.8898709 1.7510214
8.2024431 -1.563587 1.6417141
1.1456628 -0.35331663 0.22588556
8.3097458 -2.2294657 1.5322295
8.2786798 -1.898428 1.4294125
8.2264814 -1.571443 1.3289032
8.3748693 -2.5835681 1.3189076
8.3247843 -2.238018 1.2109002
7.7801018 -1.7883848 1.044179
7.730226 -1.4837801 0.9544884
7.8881383 -2.4349239 0.93343258
7.8374472 -2.1071498 0.838826
7.7676821 -1.7888132 0.74786657
7.7291398 -1.4874884 0.66481787
7.8864427 -2.4357574 0.62960607
7.8293161 -2.1076014 0.54009837
7.787643 -1.7954139 0.45731294
7.7729158 -1.4985864 0.37635821
7.9005179 -2.4428236 0.32650188
7.8363338 -2.1135981 0.24287313
7.7851596 -1.7989916 0.16430378
7.7590046 -1.4992756 0.086206652
7.8795509 -2.4375463 0.023464594
7.8659139 -2.1246696 -0.055603459
7.8026075 -1.8063233 -0.12889084
7.7701063 -1.5043752 -0.20296083
7.9196124 -2.4544835 -0.28084382
7.8598857 -2.1261325 -0.35251373
7.8266525 -1.8169278 -0.42474124
7.7699485 -1.5063144 -0.49378482
7.9342928 -2.4648023 -0.58651215
7.8573709 -2.129868 -0.652143
7.8079519 -1.813879 -0.71835935
8.1030474 -1.5733851 -0.81982356
7.7045188 -2.3957818 -0.86824769
7.615314 -2.067822 -0.92419457
6.0847383 -1.4152353 -0.79074991
7.7097225 -1.4989674 -1.0726646
2.87027 -0.89511627 -0.43561575
0 -0 -0
4.829082 -1.1251398 -0.81526142
4.541966 -0.88381487 -0.80698568
4.1891789 -1.3099592 -0.80264223
1.3708391 -0.37374648 -0.27372029
1.4774365 -0.34518325 -0.30713883
3.7219541 -0.72546351 -0.80739737
3.4437823 -1.0805032 -0.80042928
1.5957692 -0.43584961 -0.383093
1.3563359 -0.31703949 -0.33664265
3.1616585 -0.61510819 -0.81316864
1.5097054 -0.47524074 -0.41404316
1.3867638 -0.37988299 -0.39073721
1.3577955 -0.31775558 -0.393731
2.7351556 -0.53203195 -0.81797451
0.885508 -0.27989748 0.28690961
0 -0 0
6.4877405 -1.5184681 1.9084657
6.7534647 -1.3170301 1.8992628
0.92602056 -0.29206312 0.25924894
7.2601318 -1.9947387 1.927562
7.5893583 -1.7823128 1.9167156
8.0232115 -1.5745369 1.9258542
0.95140445 -0.30005082 0.22655706
8.3123846 -2.2825994 1.8671949
8.2697735 -1.9454547 1.7554731
8.2158003 -1.6184384 1.6463441
1.1059824 -0.34852526 0.21847948
8.3386288 -2.2921541 1.5401195
8.2985487 -1.9566574 1.4348892
8.236063 -1.6257153 1.3320373
8.3862095 -2.643528 1.3232231
8.3299894 -2.2943149 1.2136822
7.7805614 -1.8388256 1.0457354
7.71416 -1.5298322 0.95364577
7.8910546 -2.4889579 0.93556732
7.846427 -2.1612751 0.84119058
7.7962823 -1.8458457 0.75169647
7.7227993 -1.5354685 0.66507035
7.8960714 -2.4919043 0.63158357
7.8518262 -2.1654165 0.5425576
7.7881374 -1.8459271 0.45799848
7.7821875 -1.5499591 0.37726051
7.8853803 -2.4912543 0.32650188
7.8723531 -2.1752179 0.24439856
7.8089924 -1.8550452 0.16504389
7.7751551 -1.5519447 0.086490259
7.8940048 -2.4951913 0.023552787
7.8729682 -2.178494 -0.055746768
7.8088865 -1.858332 -0.12918049
7.7911177 -1.5581006 -0.20375556
7.9377508 -2.5135911 -0.28202868
7.8524685 -2.1759205 -0.35277322
7.8512959 -1.8734928 -0.42669442
7.7977476 -1.561408 -0.496151
7.9342318 -2.5182679 -0.5876388
7.8633633 -2.1833735 -0.65373999
7.84027 -1.8721635 -0.72237605
8.1059246 -1.6256186 -0.82110846
1.5966851 -0.50726718 -0.1802831
7.7517576 -2.1560283 -0.94234121
6.093308 -1.456696 -0.79301029
7.7003803 -1.5462451 -1.0726646
7.8435726 -2.4989898 -1.1927097
2.8445585 -0.79288059 -0.4560394
1.4864504 -0.35596153 -0.25131142
4.5577059 -0.91593736 -0.8107655
4.1613841 -1.3293526 -0.7988646
2.910115 -0.81263161 -0.58205765
1.5067407 -0.36179379 -0.31368634
3.7308567 -0.7509895 -0.81031293
3.4696269 -1.1120427 -0.808007
0 -0 -0
3.2058661 -0.77013749 -0.79685402
3.1654294 -0.63602418 -0.81512684
1.4966301 -0.48123759 -0.41125926
1.3964853 -0.3917734 -0.39414629
1.3745341 -0.33058167 -0.39916554
2.7534761 -0.55315113 -0.82445294
0.87922776 -0.28385785 0.28543374
0.89977765 -0.25290975 0.27760017
6.4913869 -1.5613952 1.9123206
6.7783303 -1.3651046 1.9085754
0.9168542 -0.29536954 0.25718528
7.2048583 -2.0271788 1.9161533
7.5877185 -1.8311245 1.919103
8.0172157 -1.6245099 1.9267713
0.96996588 -0.31246105 0.23142926
8.3123341 -2.3375289 1.8703703
8.2710066 -1.9993819 1.7583061
8.2335997 -1.6744901 1.6519387
1.1244028 -0.36192918 0.22255282
8.3452559 -2.3491447 1.5439769
8.2902203 -2.0084682 1.435553
8.2385139 -1.6787839 1.3340746
8.403717 -2.7058458 1.3285803
8.353879 -2.3561358 1.2192463
7.7912936 -1.8919129 1.0487183
7.7367225 -1.5837064 0.9576183
7.9096828 -2.5482993 0.93961209
7.8703547 -2.2199106 0.84520024
7.7867451 -1.8941189 0.75188339
7.7395873 -1.5882341 0.66734284
7.9081535 -2.5491779 0.63378918
7.8671994 -2.221689 0.54455161
7.8115854 -1.9021831 0.46005514
7.7813368 -1.5994905 0.37768793
7.8889651 -2.5457287 0.32729092
7.8704 -2.2267463 0.24475749
7.8198023 -1.9083772 0.16551673
7.7782178 -1.6022456 0.086632065
7.9308858 -2.5604789 0.023709256
7.8815813 -2.2330301 -0.055903722
7.8332739 -1.9149969 -0.12977587
7.7843475 -1.6064827 -0.20383246
7.9326382 -2.5656319 -0.28240106
7.888948 -2.2382412 -0.3550224
7.8561411 -1.9256738 -0.42759186
7.805614 -1.6128601 -0.49727184
1.6074489 -0.52107078 -0.11928821
7.8862534 -2.2419388 -0.65677434
7.8402429 -1.9230825 -0.72344714
8.015892 -1.6587896 -0.81300414
1.5840852 -0.51398611 -0.17921317
7.7269197 -2.2002873 -0.94094533
6.2894721 -1.5444497 -0.81975788
7.7023902 -1.5958769 -1.0742885
2.8157787 -0.9161858 -0.42901987
2.8909588 -0.82496387 -0.46428105
0 -0 -0
4.552 -0.94388568 -0.8107655
4.2242231 -1.3780476 -0.81253582
2.9267888 -0.83668005 -0.58640844
3.9025447 -0.96243072 -0.81367975
3.7663991 -0.78222066 -0.81905955
3.4580991 -1.1317927 -0.80692452
2.9586332 -0.84723592 -0.71271539
3.2926204 -0.8123793 -0.81964141
3.1396313 -0.65090787 -0.80949688
1.5138707 -0.49705109 -0.41682705
1.4126056 -0.40566188 -0.39939111
1.3612682 -0.33624008 -0.39590478
2.7274814 -0.56536174 -0.81769288
0.8783769 -0.28954646 0.2857289
0.89636648 -0.25789583 0.27703074
6.4770179 -1.6000434 1.910944
6.7575574 -1.4041206 1.9051164
0.91502458 -0.30098969 0.25718528
0.94209057 -0.27131829 0.25098982
7.5961337 -1.882553 1.9241168
7.999475 -1.672079 1.9249372
0.94024003 -0.30926591 0.22478537
8.289382 -2.3860555 1.8684649
8.2870979 -2.0571725 1.7643771
8.2145271 -1.723166 1.6502025
1.1408324 -0.37495837 0.22625586
8.3552818 -2.407393 1.5485356
8.3045359 -2.0659642 1.4401999
8.2319231 -1.7301153 1.3347014
8.4151382 -2.7666245 1.3330445
8.3801765 -2.4191601 1.2252278
7.8199468 -1.9497589 1.0541655
7.7462854 -1.6352491 0.96002585
7.9231582 -2.6064098 0.94309491
7.8756986 -2.2736783 0.84725636
7.8116827 -1.9510295 0.75543308
7.7472444 -1.6394067 0.66885781
7.9122529 -2.6041996 0.63538635
7.8620458 -2.2724128 0.54514974
7.8268862 -1.9568585 0.46165472
7.7772388 -1.6484486 0.37797287
7.9301381 -2.6128478 0.329658
7.8719501 -2.2794445 0.24523605
7.8292809 -1.9616683 0.16596901
7.7946496 -1.655551 0.086926587
7.9311714 -2.6144161 0.02375762
7.8754148 -2.2835765 -0.055958316
7.8533792 -1.9710571 -0.13030688
7.794878 -1.6585854 -0.20437083
7.9499626 -2.625226 -0.28358594
7.9048085 -2.2952409 -0.35636324
7.8519249 -1.9757915 -0.42801419
7.809236 -1.6636353 -0.49814355
1.6042215 -0.53092408 -0.11928821
7.901062 -2.2986393 -0.65916985
7.836988 -1.9733419 -0.7242505
8.1398649 -1.7365954 -0.82664311
1.5856208 -0.52525949 -0.17974813
7.7018309 -2.244323 -0.93954939
7.713244 -1.9443308 -1.0068656
7.7166762 -1.6482819 -1.0776714
1.7873089 -0.59369904 -0.27286926
2.8848937 -0.84240991 -0.46412846
4.6650019 -1.1778445 -0.79108751
7.6876583 -1.6433464 -1.3710339
4.1522241 -1.3828057 -0.80030376
2.9291394 -0.85682821 -0.58792168
3.9108181 -0.98996586 -0.81665593
3.7347493 -0.7995829 -0.81322849
3.4520154 -1.1532991 -0.80714101
2.9608581 -0.86756527 -0.71452028
3.2121925 -0.81347704 -0.80084771
3.203846 -0.68475074 -0.8271212
1.512627 -0.50694549 -0.41733322
1.3989794 -0.41105729 -0.3962442
1.3722396 -0.34789741 -0.39970899
2.7098861 -0.57907891 -0.8134678
0.89107269 -0.29980552 0.29045171
0.90304351 -0.26582727 0.2795932
6.4447136 -1.6340849 1.9043355
6.7431593 -1.4443463 1.90352
0.92323554 -0.30998123 0.26002282
0.94877136 -0.279558 0.25322193
7.5900869 -1.9305629 1.9255495
7.983355 -1.7199013 1.9235615
0.92445779 -0.31037363 0.2214634
1.0369015 -0.30536842 0.23414031
8.2885532 -2.111609 1.7674124
8.2316122 -1.7795495 1.6557969
1.1170816 -0.37476239 0.22199737
8.3573503 -2.4636254 1.5516914
8.3022127 -2.1195641 1.4420253
8.2269449 -1.7818474 1.3356417
8.3801918 -2.8122292 1.3302171
8.3870182 -2.4769857 1.2284272
7.8136001 -1.9991792 1.0549438
7.7613273 -1.6882348 0.96315575
7.9220891 -2.6600373 0.9448927
7.8654156 -2.323087 0.84766769
7.8284979 -2.0063396 0.75823545
7.7545633 -1.6907327 0.67037272
7.9225903 -2.6615903 0.63751596
7.8718753 -2.3276839 0.5468114
7.8195672 -2.0060871 0.46194038
7.7894225 -1.7010392 0.37906516
7.9489999 -2.6732421 0.33111775
7.8769836 -2.3333809 0.24583428
7.8229074 -2.0111647 0.16609238
7.809742 -1.7089043 0.087210193
7.9434137 -2.6725981 0.023842964
7.885222 -2.3389654 -0.056128919
7.8585658 -2.0236955 -0.13059652
7.8021307 -1.7102355 -0.20483227
7.9706407 -2.6864054 -0.28490618
7.9001541 -2.3465455 -0.35679579
7.8531909 -2.0274274 -0.42875323
7.8096056 -1.713874 -0.49882856
1.5952631 -0.53884208 -0.11886571
7.9202476 -2.3570273 -0.6619646
7.8526988 -2.0286162 -0.72683901
8.1397467 -1.7888575 -0.82773024
1.5899031 -0.53752631 -0.18060407
7.6546011 -2.2816083 -0.93547809
7.7251801 -1.9978316 -1.010005
7.7412524 -1.7032642 -1.0825428
1.5971149 -0.54142481 -0.24433485
2.8711479 -0.85754991 -0.46275482
4.6739254 -1.2106525 -0.79384559
7.6822405 -1.6915452 -1.3718929
4.0542498 -1.37787 -0.78303486
4.0414286 -1.2091621 -0.81264853
3.8648267 -1.0035973 -0.80832273
3.7240422 -0.82122004 -0.81197894
3.3663292 -1.1476804 -0.78873783
3.3810234 -1.0132462 -0.8174004
3.1996143 -0.83121616 -0.79896832
3.0584958 -0.67333531 -0.79064858
1.5039957 -0.51433903 -0.41581476
1.4010518 -0.42102212 -0.39755541
1.3589023 -0.3534041 -0.39644828
2.7128415 -0.59713942 -0.81543952
0.87566119 -0.30061391 0.28602409
0.86376077 -0.2600334 0.26791975
6.4010715 -1.6648865 1.8944227
6.7351112 -1.4859021 1.9037861
0.89389604 -0.30624622 0.25228408
0.94703811 -0.28537428 0.25322193
7.5687017 -1.9746469 1.9231619
7.9793034 -1.7703297 1.9251664
0.9280712 -0.31793642 0.22279219
0.96762973 -0.29143184 0.21889789
8.3114462 -2.1718352 1.775102
8.2578917 -1.8383397 1.6633208
1.1240586 -0.38479239 0.22384891
8.3609295 -2.5205421 1.5551982
8.3052683 -2.1747122 1.4448467
8.2640543 -1.8430424 1.3434771
8.3590364 -2.8623147 1.3296219
8.3915691 -2.5344133 1.2313484
7.8069401 -2.048595 1.0557219
7.7672911 -1.7395138 0.96520221
7.9140782 -2.7114947 0.94590384
7.8748183 -2.3784945 0.85023791
7.830483 -2.0581329 0.75963658
7.7800174 -1.7463571 0.67348689
7.9202585 -2.7150025 0.63865685
7.8880076 -2.3851826 0.54893833
7.833179 -2.0608878 0.4634828
7.8002791 -1.7536223 0.38010994
7.9579654 -2.7307222 0.33218291
7.8921728 -2.3906522 0.24676147
7.8471565 -2.0688126 0.1668736
7.8108149 -1.7594285 0.087341085
7.9656434 -2.7346001 0.023959603
7.8965592 -2.3951411 -0.056313176
7.8585691 -2.0751956 -0.13080572
7.8061171 -1.7613767 -0.20521681
7.9729099 -2.7417622 -0.28558326
7.9028139 -2.4002016 -0.35757434
7.8628058 -2.0814531 -0.42996737
7.8184123 -1.7661588 -0.50007385
1.5966423 -0.55024534 -0.1192178
7.9170799 -2.4090629 -0.6629228
7.8632112 -2.0828822 -0.72898126
8.1800585 -1.8504049 -0.83296847
1.5828154 -0.54597479 -0.18017611
7.7506647 -2.3621204 -0.94897157
7.7703133 -2.0604517 -1.0175396
7.7509489 -1.7553272 -1.0853845
1.5890862 -0.54959691 -0.24361791
2.8639419 -0.87457359 -0.46244961
1.5478401 -0.41107652 -0.26331726
4.4377785 -1.0057392 -0.79358464
4.163754 -1.4436452 -0.80588007
4.0067024 -1.2256075 -0.80716282
1.5911735 -0.42362574 -0.33332893
1.4889086 -0.33792505 -0.32508314
3.459733 -1.2032707 -0.81233716
3.3831258 -1.0365412 -0.81943095
2.9211266 -0.77803308 -0.73060614
1.4505591 -0.3286888 -0.37549686
1.5044652 -0.52483231 -0.41682705
1.4500996 -0.44548041 -0.41224083
1.3650773 -0.36396691 -0.3988938
1.3550311 -0.30699295 -0.40786058
0.87289846 -0.30566546 0.2857289
0.89421618 -0.27519721 0.2778849
0 -0 0
6.7305675 -1.5282671 1.9051164
0.91571385 -0.32001248 0.258991
0.94526929 -0.29117984 0.25322193
7.5545669 -2.0205486 1.9226844
7.9844227 -1.8229396 1.9290639
0 -0 0
0.96488923 -0.29707605 0.21868618
8.3291798 -2.2311544 1.78178
8.2598457 -1.8920418 1.6660216
1.0251881 -0.3579891 0.20459306
8.3801174 -2.5825243 1.5616854
8.3270073 -2.2350903 1.4509872
8.2747307 -1.8987957 1.3470817
0 -0 0
8.3834305 -2.5881922 1.2324612
7.8229489 -2.1041851 1.0596128
7.7912974 -1.7951643 0.96953589
7.9029198 -2.7619705 0.94657791
7.8914404 -2.4364524 0.8536306
7.8427024 -2.1128747 0.76206535
7.7798352 -1.7965276 0.67441267
7.9194512 -2.7691441 0.63994986
7.9018226 -2.4423771 0.55093229
7.8387008 -2.1138513 0.46456826
7.787426 -1.8010008 0.38001496
7.9476619 -2.7818108 0.33245909
7.9193687 -2.4520409 0.24807756
7.8584437 -2.1234426 0.16738756
7.8037696 -1.8082247 0.087384731
7.977972 -2.7936702 0.024047796
7.9218292 -2.4559851 -0.056599788
7.8649902 -2.1285999 -0.13112752
7.8253503 -1.8162475 -0.20601153
7.9729118 -2.7965858 -0.2861926
7.9404159 -2.4649379 -0.35995328
7.8807263 -2.1380262 -0.4316566
7.8171501 -1.8163574 -0.5006966
1.5885305 -0.55837786 -0.11886571
7.9145236 -2.4614441 -0.66396093
7.868546 -2.1360486 -0.73067719
8.1869659 -1.9048465 -0.83484632
1.5869387 -0.55831623 -0.18103205
7.792922 -2.4273555 -0.95595109
7.8082643 -2.1218791 -1.024195
7.7332778 -1.8012798 -1.0844373
1.5912838 -0.56131226 -0.24447823
2.8839936 -0.90007961 -0.46657044
0 -0 -0
1.4324019 -0.33388054 -0.25651047
4.1715112 -1.4750693 -0.80911803
4.1040754 -1.2829835 -0.82834917
1.5639596 -0.42667395 -0.32817027
1.4649004 -0.34194091 -0.32029331
3.485409 -1.2362252 -0.82013148
3.3841398 -1.0596089 -0.82123584
1.6213114 -0.44250289 -0.40617943
1.4192426 -0.33076099 -0.3679086
1.5048624 -0.53535068 -0.41783938
1.4712771 -0.46188471 -0.41905907
1.3618901 -0.37208238 -0.3986221
1.347515 -0.31399497 -0.40617055
0.88090426 -0.31454995 0.28897583
0.88610959 -0.27866575 0.27589187
0.89025474 -0.24325286 0.26433805
6.7407756 -1.5741398 1.910704
0.8800596 -0.31362504 0.24944653
0.93514836 -0.29435664 0.25098982
7.547646 -2.0684044 1.9241168
7.9730873 -1.8718967 1.9290639
0 -0 0
0.94440258 -0.29712465 0.21445219
8.3323317 -2.2868848 1.7854223
8.2643175 -1.9465119 1.6693012
1.0544482 -0.37548122 0.21088825
8.3838339 -2.640105 1.5653673
8.343564 -2.2945092 1.456298
8.2898397 -1.9558829 1.3514695
0 -0 0
8.3976126 -2.6491168 1.2369125
7.8682017 -2.168215 1.0675241
7.7878633 -1.8447676 0.97049886
7.8736563 -2.8060734 0.94511735
7.9228239 -2.4994917 0.85866827
7.8497458 -2.1665199 0.76402712
7.7929025 -1.8499838 0.67651677
7.9445744 -2.8327544 0.64337248
7.8981051 -2.4944217 0.55172986
7.8534904 -2.1696186 0.466225
7.7966361 -1.8536015 0.38101226
7.942678 -2.8348911 0.33297196
7.9175158 -2.5048082 0.24849629
7.8693562 -2.1782894 0.16790153
7.8061457 -1.8593173 0.087537438
8.0105934 -2.8603926 0.024198575
7.9323487 -2.5126994 -0.056784038
7.8826146 -2.1853666 -0.13164246
7.827672 -1.8674766 -0.20637043
7.9866571 -2.8565612 -0.28730974
7.9441876 -2.5196538 -0.36081833
7.9088316 -2.1978383 -0.43392652
7.8369217 -1.8717073 -0.50268912
1.5785013 -0.56575847 -0.11837278
7.8926215 -2.5078475 -0.66340196
7.884079 -2.1922939 -0.73335493
7.9873676 -1.9101439 -0.81567258
1.5834831 -0.56804299 -0.18103205
1.5909734 -0.50628954 -0.19554074
7.7922311 -2.168952 -1.0238184
0 -0 -0
1.5906035 -0.57207048 -0.24490839
2.9302034 -0.93427038 -0.47496474
2.9541876 -0.82351458 -0.50424528
1.4245782 -0.34128627 -0.25547963
4.160531 -1.4999702 -0.80875826
4.0325184 -1.2878278 -0.81548607
2.9168408 -0.81502432 -0.61308718
1.4779919 -0.35457361 -0.32362536
3.5512061 -1.2841475 -0.83745211
3.3747907 -1.0794632 -0.82055897
1.568951 -0.43857375 -0.39372858
3.1832478 -0.76249325 -0.82638687
1.5251957 -0.55315024 -0.42441952
1.4812801 -0.47502917 -0.42273045
1.393872 -0.39002684 -0.40867594
1.3539612 -0.32426858 -0.40870559
0.86638832 -0.31537381 0.28484339
0.87160558 -0.27999297 0.27190581
0.91281563 -0.2554467 0.27149722
6.7234917 -1.6136711 1.9085754
0.88265908 -0.32066861 0.25073633
0.93793589 -0.30157173 0.25222987
0.97141957 -0.27263302 0.2480652
7.9529357 -1.9187289 1.9270006
0.90464711 -0.32863894 0.21858439
0.99280685 -0.31906125 0.22588399
8.3228569 -2.3392928 1.7864342
8.2913189 -2.0066471 1.6772106
1.0456585 -0.3795968 0.20959219
8.3955927 -2.7005415 1.5706273
8.3435659 -2.3496706 1.4587873
8.2939997 -2.0106673 1.3541336
0 -0 0
8.4057064 -2.7084901 1.2405292
7.886241 -2.2253387 1.071804
7.7947245 -1.8969784 0.97278607
0 -0 0
7.9168057 -2.5511091 0.85969639
7.8660049 -2.223038 0.76692283
7.8065748 -1.9039038 0.67870504
7.9673395 -2.8960955 0.64664298
7.8968945 -2.5474315 0.55272681
7.8650079 -2.2248316 0.46771032
7.8181071 -1.9094634 0.38262689
7.9579988 -2.8955309 0.33435276
7.9191179 -2.5588739 0.24903467
7.8808517 -2.2336221 0.16843605
7.8266425 -1.9150225 0.087897405
8.010746 -2.9159896 0.024252627
7.9396162 -2.5687118 -0.05694782
7.8806 -2.2369688 -0.13183555
7.8364553 -1.920468 -0.20690879
7.9830637 -2.9106479 -0.28781754
7.9409342 -2.5723536 -0.36138064
7.9019203 -2.2482376 -0.43429607
7.8456464 -1.9247526 -0.50399679
1.5956129 -0.58296424 -0.11992197
1.5909663 -0.51629168 -0.13398995
7.9059229 -2.2507188 -0.7366575
7.970665 -1.9579306 -0.81517839
1.5855706 -0.57979715 -0.181674
1.5868922 -0.51573503 -0.19542441
7.7625561 -2.2121012 -1.0216836
0 -0 -0
1.5842758 -0.58079749 -0.24447823
2.9244158 -0.95223218 -0.47496474
2.9528747 -0.84270883 -0.50489426
7.6135426 -1.8734473 -1.3674259
3.9628916 -1.4562544 -0.77206194
3.9806638 -1.2982368 -0.80659539
2.9372277 -0.84018415 -0.6184442
3.6885219 -0.90885532 -0.80885518
1.6470479 -0.60704029 -0.389281
3.3551388 -1.0959154 -0.8174004
2.8502402 -0.81562459 -0.71651083
3.1455564 -0.77390361 -0.81781948
1.4854755 -0.54908144 -0.41429624
1.4755862 -0.48320824 -0.42194372
1.3877521 -0.39751211 -0.40758905
1.3444921 -0.33073661 -0.40645224
0.86174953 -0.31968698 0.28395787
0.88899922 -0.29161018 0.2778849
0.89274764 -0.25574782 0.26599017
6.6853857 -1.6479739 1.900593
0.88792318 -0.3287622 0.25279999
0.93054527 -0.30550799 0.25074178
0.94732863 -0.27215326 0.24233513
7.9495158 -1.9695979 1.9290639
0.9117586 -0.33756942 0.22079901
0.9258275 -0.3038159 0.21106499
8.2904654 -2.3851724 1.7825893
8.292182 -2.060797 1.6799114
1.0147384 -0.37543485 0.20385247
8.3919592 -2.7563059 1.573082
8.3507853 -2.4071038 1.4626045
8.3073826 -2.0679619 1.3583647
0 -0 0
8.4331408 -2.7745614 1.2470671
7.9638901 -2.3000987 1.084255
7.8079791 -1.9510274 0.97591591
0 -0 0
7.9142318 -2.6039901 0.86113572
7.8837786 -2.2803903 0.77000546
7.8179445 -1.9575771 0.68072504
7.9821448 -2.957051 0.64930499
7.9076514 -2.6045785 0.5545879
7.8751836 -2.2799897 0.46913856
7.8411236 -1.9661446 0.38433653
7.9803681 -2.9592445 0.3360492
7.9469328 -2.6218221 0.25041059
7.8938837 -2.2897346 0.1690117
7.8448095 -1.9705617 0.088235557
8.0208292 -2.975522 0.024337973
7.9493427 -2.6258485 -0.057132076
7.8811278 -2.289465 -0.1320769
7.8506999 -1.9751008 -0.20760097
7.9884748 -2.9682786 -0.28866383
1.6219929 -0.53644055 -0.073963001
7.8956475 -2.298914 -0.4347184
7.8607879 -1.9796811 -0.50574028
1.549004 -0.57673305 -0.11668275
1.5896609 -0.52667093 -0.13414966
7.9560332 -2.3178518 -0.74263793
7.7771001 -1.9610591 -0.79659772
1.5726664 -0.5860433 -0.18060407
1.5836978 -0.52546233 -0.19542441
6.0068722 -1.7517037 -0.79200566
0 -0 -0
1.5732656 -0.58773679 -0.2433311
2.9185181 -0.9701581 -0.47496474
2.9826941 -0.87104607 -0.51089716
4.510138 -1.1391938 -0.81128091
4.1215434 -1.5433242 -0.80480075
4.053678 -1.3496236 -0.82305259
2.9828126 -0.87305844 -0.62915838
3.688565 -0.93290949 -0.81010467
1.6286689 -0.6116432 -0.38581687
3.3160043 -1.1056957 -0.80950391
2.9664521 -0.86860704 -0.74705064
3.1257076 -0.78939122 -0.81390291
1.5092393 -0.56841528 -0.42188871
1.4927284 -0.49898377 -0.42771298
1.3705103 -0.40168884 -0.40324143
1.3480194 -0.34038952 -0.40814227
0.84994066 -0.3212527 0.28071094
0.88992018 -0.29797256 0.27873904
0.91145718 -0.26716995 0.27204791
6.6601958 -1.6851804 1.8963358
0.87594563 -0.33045295 0.24996243
0.91120076 -0.30536327 0.24602953
0.94843578 -0.27878237 0.24305137
7.9372811 -2.0183382 1.9290639
0.91149503 -0.3438459 0.22124195
0.92857957 -0.31104308 0.2121235
1.1001037 -0.32382247 0.23696357
8.2803326 -2.1118808 1.6801044
1.1779331 -0.44404987 0.23717983
8.3571529 -2.8018003 1.5697507
8.3689632 -2.4680607 1.468413
8.3117628 -2.1232965 1.3611856
0 -0 0
8.4122028 -2.8249931 1.2465107
8.1341047 -2.4034295 1.1094159
7.821825 -2.0055568 0.97916621
0 -0 0
7.9245071 -2.6613688 0.86401439
7.8725023 -2.3295689 0.77028573
7.8106112 -2.0067501 0.68114585
7.9899702 -3.0158319 0.6514346
7.9189482 -2.6622703 0.55651534
7.8926353 -2.3376241 0.4710238
7.8540635 -2.0206907 0.38557127
7.9555173 -3.0056834 0.33577305
7.9524832 -2.677871 0.25109851
7.8931046 -2.3421092 0.16929951
7.8558087 -2.0246487 0.088497348
8.0314188 -3.0356412 0.024426166
7.9586654 -2.6832008 -0.057316326
7.8956847 -2.346324 -0.13255964
7.8732796 -2.0322289 -0.20852388
7.9860015 -3.0232546 -0.28923935
1.613938 -0.5447852 -0.073746733
7.9139323 -2.3570087 -0.43651319
7.8687854 -2.0331199 -0.50704789
1.5696855 -0.59542525 -0.11851361
1.5986751 -0.54056585 -0.13518772
8.0686131 -2.4044571 -0.75450939
7.7475801 -2.0042555 -0.79481876
1.572759 -0.59709352 -0.18103205
1.5898513 -0.53835535 -0.19658765
7.8289442 -2.3352673 -1.0341156
0 -0 -0
1.5751793 -0.59949124 -0.24419145
2.9125102 -0.98804754 -0.47496474
2.9820206 -0.8907432 -0.51170832
4.4868517 -1.1626452 -0.80836022
1.5661248 -0.59742248 -0.30652225
3.9700108 -1.3488833 -0.80773026
3.7708092 -1.1288674 -0.79681492
3.705493 -0.96141982 -0.81510276
1.6276207 -0.62267148 -0.38646638
3.3137691 -1.1275908 -0.81063199
3.1789565 -0.95204711 -0.80202234
3.0954635 -0.80198961 -0.80729377
0 -0 -0
1.4887253 -0.5078221 -0.42745075
1.391066 -0.4169991 -0.41003457
1.3421899 -0.34769192 -0.40701556
0.86489475 -0.33298415 0.28631926
0.88898224 -0.30373734 0.27902377
0.89322537 -0.26778823 0.26709157
6.6515965 -1.7264992 1.896868
0.87660712 -0.33686113 0.25073633
0.9184764 -0.31408313 0.24850968
0.95786703 -0.28795141 0.24591643
7.9162707 -2.0647914 1.9270006
0.90208578 -0.346634 0.21947025
0.90723264 -0.31009671 0.2076778
1.1046604 -0.33254257 0.2383801
8.314682 -2.1750643 1.6897502
1.2293128 -0.47205362 0.24810381
1.027455 -0.35148975 0.19339161
8.3744335 -2.5256298 1.4720643
8.3205519 -2.1800137 1.3647898
8.5277224 -3.2754819 1.3747116
8.3572388 -2.8637159 1.2409465
8.2862577 -2.5037711 1.1322423
7.8391337 -2.0613389 0.98289788
7.9730864 -3.0640442 0.96579039
7.9277887 -2.7167141 0.86617339
7.8847427 -2.3859038 0.7729013
7.8366938 -2.0647924 0.68451244
7.9778299 -3.0673056 0.65196699
7.9175644 -2.7159901 0.55757874
7.9048972 -2.3941112 0.47262341
7.8550382 -2.0724118 0.38623613
7.9910126 -3.0752559 0.33806121
7.9718246 -2.7389581 0.25223511
7.8900657 -2.3939798 0.16954622
7.8635406 -2.0781784 0.088726424
8.0313053 -3.0920496 0.024483062
7.9590731 -2.7378387 -0.057439167
7.9127107 -2.4043198 -0.13309067
7.8751574 -2.0843368 -0.20890841
8.0288458 -3.0959308 -0.29147366
1.6115094 -0.55500323 -0.073789984
7.9212937 -2.4122145 -0.43772739
7.8677397 -2.0844309 -0.50779516
1.5678635 -0.60576445 -0.11865445
1.5943859 -0.55003983 -0.13510786
8.0651407 -2.4574037 -0.75558048
7.769762 -2.0609405 -0.79837674
1.5570103 -0.60207093 -0.17964114
1.5837017 -0.54712737 -0.19623867
5.9507623 -1.8148669 -0.78748494
0 -0 -0
1.5631665 -0.60592592 -0.24290095
2.9204018 -1.0107483 -0.47725409
2.9557374 -0.90268308 -0.50813907
1.5728701 -0.41788197 -0.28382805
1.6082755 -0.62483245 -0.31551644
4.0154715 -1.39187 -0.8187018
3.7619374 -1.1514097 -0.79641813
2.9651012 -0.78876889 -0.65329003
1.6255888 -0.6333555 -0.38689941
3.253408 -1.1293724 -0.79754633
3.1944318 -0.97808009 -0.8074255
2.9368033 -0.78014356 -0.76714939
1.5048536 -0.58794934 -0.42264795
1.4755559 -0.51345855 -0.42456609
1.4446093 -0.44272822 -0.42660984
1.3437407 -0.35690618 -0.40814227
0.83792871 -0.32851985 0.27805436
0.86356646 -0.3009834 0.27162111
0.88696975 -0.27185535 0.26571482
6.6259732 -1.7633138 1.8926108
0.8718245 -0.34117728 0.24996243
0.91378784 -0.31875563 0.24776563
0.93937397 -0.28868857 0.24161886
7.9015718 -2.112823 1.926542
0.93081784 -0.36424485 0.227
0.94960952 -0.33110255 0.21783939
1.0483115 -0.32260787 0.2266432
8.3286629 -2.2334113 1.6953447
1.2117498 -0.47386125 0.2451414
1.0559536 -0.36849192 0.19917756
8.3917618 -2.5871351 1.4778727
8.3404036 -2.2399926 1.3702747
8.5258818 -3.3349497 1.3776877
0 -0 0
8.389163 -2.5911448 1.1484542
7.8359237 -2.1119838 0.98410171
8.045743 -3.1487598 0.97691339
7.9222383 -2.7692456 0.86740714
7.9165616 -2.4486549 0.77747852
7.8325348 -2.1151767 0.68526989
8.0145664 -3.1380105 0.65653044
7.9261794 -2.7734179 0.55937338
7.9186697 -2.451427 0.47433725
7.8624234 -2.1260457 0.38723341
7.9961815 -3.1337094 0.33908698
7.9803371 -2.7967463 0.25304267
7.9067402 -2.4521201 0.17022464
7.8612576 -2.1292646 0.088846408
8.0121813 -3.1412706 0.024483062
7.9940205 -2.804832 -0.05781449
7.9293199 -2.4626124 -0.13362168
7.9008121 -2.1430867 -0.20993385
8.0041161 -3.1429446 -0.29127052
1.5986477 -0.56156969 -0.073357455
7.9435291 -2.4723468 -0.43978614
7.8798447 -2.1394665 -0.50941408
1.5409106 -0.60624307 -0.116894
1.5891002 -0.55915076 -0.13494816
8.062273 -2.510694 -0.75674093
7.8117051 -2.1234548 -0.80401021
1.5514364 -0.61088467 -0.17942715
1.5831251 -0.55782473 -0.19658765
1.6063493 -0.50069886 -0.21297631
0 -0 -0
1.5483724 -0.61114573 -0.24118029
1.6001238 -0.56481916 -0.26205477
2.9934721 -0.93432605 -0.51560217
1.6101989 -0.43839434 -0.29104403
1.5888612 -0.62853742 -0.31245843
4.0050039 -1.4158278 -0.81832349
3.7697682 -1.1791523 -0.79959267
1.5815444 -0.43112659 -0.34903225
1.59717 -0.63359803 -0.38105372
1.6255045 -0.57546967 -0.39933723
1.5575426 -0.48736545 -0.39443335
2.9001532 -0.78948987 -0.75882679
1.4904306 -0.59288085 -0.41961098
1.4896569 -0.52863461 -0.42954868
1.4363554 -0.44985804 -0.42497951
1.3572645 -0.36942843 -0.41293067
0.84299612 -0.33648869 0.28041577
0.87976849 -0.31269738 0.27731547
0.88711983 -0.27786729 0.26626554
0.91139156 -0.24853902 0.26075616
0.87509984 -0.34866589 0.25151017
0.91455299 -0.32533059 0.24850968
0.93851131 -0.29473796 0.2418576
7.8265004 -2.1442912 1.9114103
0.90501148 -0.36056527 0.22124195
0.91993439 -0.32710019 0.2114884
1.0911543 -0.34313563 0.23635651
8.3450794 -2.2927916 1.7015181
1.1978632 -0.47692534 0.24291955
1.0239918 -0.36440182 0.19356695
8.3935995 -2.644207 1.4810261
8.3579264 -2.299773 1.3754461
8.5328188 -3.3981767 1.382152
0 -0 0
8.4080925 -2.6536126 1.153253
7.8352575 -2.1634593 0.98566669
8.0401173 -3.2035851 0.97859865
7.8910427 -2.8127937 0.86586493
7.9270205 -2.5052848 0.78000075
7.8616662 -2.1748867 0.68897319
8.0044241 -3.1908202 0.657291
7.9447236 -2.8347418 0.56189907
7.9206123 -2.5053885 0.47536552
7.8578935 -2.1766484 0.38766083
8.0000048 -3.1919718 0.34007329
7.9874992 -2.8544056 0.25382036
7.9439645 -2.5171988 0.17135535
7.8624983 -2.1814704 0.089010037
8.0011158 -3.1937101 0.024508668
8.0001984 -2.862251 -0.057985101
7.9378862 -2.5187798 -0.13402395
7.9009981 -2.1952715 -0.21029274
7.9772573 -3.1890302 -0.29099971
1.605518 -0.57507402 -0.073833242
7.9472432 -2.5270932 -0.44084194
7.8886847 -2.1939268 -0.51084626
1.5380877 -0.61605746 -0.11696442
1.5856395 -0.56889075 -0.13494816
1.5527751 -0.49402565 -0.14602831
7.8502951 -2.1857598 -0.80934721
1.5458132 -0.61965275 -0.17921317
1.5768684 -0.56652063 -0.19623867
1.5994655 -0.50934166 -0.212474
0 -0 -0
1.5445933 -0.62063485 -0.24118029
1.5994176 -0.57563066 -0.26251262
2.9801617 -0.95027786 -0.51430422
2.9350243 -0.81846929 -0.5314045
1.5658126 -0.63055801 -0.30868086
3.9639091 -1.4287219 -0.81170279
3.7503252 -1.1983826 -0.79701334
2.9090383 -0.81220782 -0.64308566
1.5941575 -0.64375174 -0.3812702
1.6311064 -0.58874029 -0.40159336
1.6461831 -0.52621299 -0.41769058
1.5391546 -0.42915517 -0.40340212
1.5002155 -0.60746127 -0.42340723
1.4999968 -0.54268962 -0.43348226
1.4198189 -0.45426393 -0.42090359
1.3448054 -0.37491509 -0.40983227
0.82763797 -0.33626035 0.27598816
0.87062311 -0.31547698 0.27503771
0.89455426 -0.28623506 0.26901904
0.89870846 -0.2510148 0.25756323
0.87921131 -0.3565706 0.2533159
0.86791438 -0.31475255 0.236357
0.9283632 -0.29782131 0.23970883
0.97278368 -0.27294946 0.23798056
0.91001159 -0.36904338 0.22301367
0.92158526 -0.33407092 0.21233518
0.96035892 -0.30849236 0.20843083
8.3478556 -2.3487365 1.7049905
1.1329829 -0.45916715 0.23032922
0 -0 0
8.4081955 -2.7056277 1.4865028
8.3683739 -2.3579774 1.3795207
8.5283041 -3.4571562 1.3848307
0 -0 0
8.4246817 -2.7158015 1.1577922
7.8619571 -2.2228386 0.9907226
8.012022 -3.2494972 0.97758746
0 -0 0
7.9285536 -2.5593822 0.78168213
7.8606362 -2.2266142 0.69006729
0.94888705 -0.38502097 0.078111306
7.9665627 -2.8977613 0.56469059
7.9221911 -2.5594661 0.47639388
7.8703365 -2.2321815 0.38894308
0 -0 0
7.9764085 -2.9057572 0.25402972
7.9464431 -2.5717437 0.17174596
7.8855157 -2.2400558 0.089424536
7.987854 -3.2453787 0.024528582
8.005971 -2.9198511 -0.058155701
7.942256 -2.5739114 -0.13436186
7.9008408 -2.247539 -0.21065165
7.984385 -3.248841 -0.29198143
1.5869437 -0.57943195 -0.073141187
7.8442082 -2.5474322 -0.43598533
7.9019518 -2.2499423 -0.51258975
1.511186 -0.61606908 -0.11520396
1.587736 -0.58066362 -0.13542727
1.5771852 -0.51246995 -0.14861684
7.8539619 -2.2387977 -0.81112629
1.5465848 -0.63100398 -0.17974813
1.5733626 -0.57618546 -0.19623867
1.5991405 -0.52006674 -0.21285073
1.5997175 -0.4564274 -0.22719869
1.5306799 -0.6259799 -0.23960301
1.5847216 -0.58134925 -0.26068115
3.0014844 -0.97740644 -0.51900923
2.9545763 -0.84349424 -0.53587151
1.5582733 -0.63866162 -0.30796134
3.9458508 -1.4496307 -0.80981112
3.7177439 -1.2131623 -0.79165626
2.9566631 -0.84509462 -0.65474778
1.5287737 -0.62828583 -0.36654767
1.6311204 -0.60008293 -0.4024958
1.5957979 -0.52092057 -0.40570959
1.5653949 -0.44684136 -0.41099042
1.3918061 -0.57352966 -0.39379656
1.4749088 -0.54387039 -0.42718849
1.4462781 -0.47253144 -0.42959884
1.3397115 -0.38236958 -0.40898725
0.83880341 -0.34680822 0.28041577
0.86147702 -0.31815627 0.27275997
0.88364315 -0.28873268 0.26626554
0.89900494 -0.25705445 0.25809538
0.87254149 -0.36011565 0.25202611
0.87596214 -0.32376647 0.23908515
0.92559546 -0.30320972 0.23947006
1.0047699 -0.28858647 0.24623421
0.96271664 -0.39731312 0.23652293
0.9140175 -0.33768716 0.21106499
0.99939126 -0.32780898 0.21733464
8.2993422 -2.3901379 1.6980455
1.191012 -0.49121439 0.24273442
1.2632228 -0.46707821 0.23985468
8.3970566 -2.7590153 1.4874984
8.3831663 -2.4177647 1.3843787
8.4877338 -3.5015004 1.3817056
0 -0 0
8.420104 -2.7714736 1.1594783
7.8853598 -2.2817986 0.99541736
0.90748531 -0.37455621 0.11100522
0 -0 0
7.9391775 -2.6167095 0.78429776
7.8554392 -2.2773013 0.69082481
0.91056341 -0.37599409 0.075145051
7.9720225 -2.9552596 0.56635225
7.9091811 -2.6089656 0.47656521
7.8833518 -2.2882273 0.3902728
0.86990005 -0.35952312 0.037163459
7.9668632 -2.9577761 0.25429893
7.9580436 -2.6295505 0.17234217
7.9013882 -2.2970517 0.089762688
0 -0 0
8.0075884 -2.9762356 -0.058299009
7.9623852 -2.634531 -0.13497333
7.9156966 -2.3043582 -0.21142074
0.93355453 -0.38655615 -0.0342253
1.5758678 -0.58637112 -0.07279516
1.6018944 -0.53110796 -0.08921361
7.8947048 -2.3003399 -0.51302564
1.157253 -0.48008215 -0.088445097
1.5757368 -0.58726186 -0.1347086
1.592918 -0.5284096 -0.15040202
7.8429422 -2.2877822 -0.81142271
1.5151361 -0.62904459 -0.17653835
1.5744501 -0.58756489 -0.19682029
1.588387 -0.52736819 -0.21184613
1.6197131 -0.47289893 -0.23044631
1.4802109 -0.61596859 -0.23229018
1.5894562 -0.59417647 -0.26205477
2.9823215 -0.99144679 -0.51673782
2.9398892 -0.85884482 -0.5341534
1.419956 -0.59217405 -0.28133851
3.9378014 -1.474159 -0.81000024
3.7827609 -1.2601126 -0.80713224
3.0171344 -0.88243979 -0.66932559
1.0141914 -0.42409855 -0.24378777
1.616461 -0.60597634 -0.39978844
1.5732062 -0.52424914 -0.40077624
1.5365644 -0.44882616 -0.40413645
1.0028311 -0.42045894 -0.28446487
1.4426371 -0.54204869 -0.41879684
1.4807818 -0.49388078 -0.4407396
1.3520766 -0.39488664 -0.41349402
0.83401752 -0.35083708 0.27953023
0.85502273 -0.32174814 0.27133638
0.88823849 -0.29627848 0.26819298
0.91313857 -0.26716745 0.26261872
0.87655103 -0.36808115 0.2538318
0.89390421 -0.33664656 0.24454145
0.92371762 -0.30888337 0.23947006
0.9973771 -0.29309958 0.24485861
0.92789233 -0.38962132 0.22855024
0.92747778 -0.34914258 0.21466389
0.96764457 -0.32398534 0.21085913
8.2647552 -2.4351931 1.6939943
1.1462922 -0.48102137 0.23421742
1.2262452 -0.46197808 0.23336738
8.3397665 -2.7970033 1.4803621
8.3861713 -2.474468 1.3873562
0.89721394 -0.37659213 0.14642954
0 -0 0
8.4348974 -2.8338225 1.1638879
7.8664513 -2.3287303 0.99481547
0.89051139 -0.37396166 0.10920757
0 -0 0
7.9427891 -2.6720407 0.78625947
7.8699775 -2.3339579 0.69334972
0.89445019 -0.375781 0.074004188
7.988276 -3.0171638 0.56881148
7.9138403 -2.6644547 0.47782207
7.9132099 -2.3496342 0.39245731
0 -0 0
7.9420204 -3.0041287 0.25408956
7.946496 -2.6799283 0.17244495
7.8967299 -2.3483407 0.089871772
0 -0 0
8.0144262 -3.0348749 -0.058483265
7.9659638 -2.6900556 -0.13531126
7.9215283 -2.358876 -0.21195911
0 -0 -0
1.5395436 -0.58363426 -0.071281299
1.6004971 -0.54156715 -0.089319184
7.9330487 -2.3644168 -0.51645041
0.95577788 -0.40339243 -0.073234797
1.5413512 -0.58524275 -0.13207352
1.5802116 -0.5349797 -0.14950943
7.8201752 -2.333302 -0.81053323
1.4874343 -0.62827092 -0.17375652
1.569887 -0.59686154 -0.19670397
1.5898192 -0.53869635 -0.212474
1.6395658 -0.48963282 -0.23369394
1.1337321 -0.47996852 -0.17837591
1.5719267 -0.59864205 -0.25976542
2.9453454 -0.99926549 -0.51138389
3.0062997 -0.89830267 -0.54721087
0 -0 -0
1.6156957 -0.61618268 -0.33311781
3.7619665 -1.278883 -0.80435455
3.6066868 -1.0789367 -0.8015663
0 -0 -0
1.6072516 -0.61379796 -0.39843476
1.6030891 -0.54515851 -0.40923342
1.5198464 -0.45408258 -0.40046471
0.88810658 -0.37878209 -0.25257644
0 -0 -0
1.4185052 -0.48280185 -0.4230774
1.3680155 -0.40866825 -0.41912743
0.80725384 -0.34542358 0.27126536
0.86019319 -0.32973331 0.27361411
0.88367367 -0.30079371 0.26736695
0.90963513 -0.27221262 0.26208657
0.88049549 -0.37610933 0.25563753
0.86830509 -0.33310357 0.23809309
0.9337526 -0.31862223 0.24257386
0.97691649 -0.2936106 0.24027325
0.94162637 -0.40220231 0.23253658
0.95999461 -0.36812416 0.22270849
0.94525069 -0.32295099 0.20640723
1.1480563 -0.34594232 0.23574319
1.001421 -0.42747411 0.20514853
1.2233874 -0.46949348 0.23336738
0 -0 0
8.3859587 -2.530443 1.3898635
0.89124852 -0.38053703 0.1458343
0.96040469 -0.36912766 0.14452903
8.3742037 -2.870734 1.157922
7.9071231 -2.3936367 1.0017976
0.90099305 -0.38488355 0.11078051
0 -0 0
7.9328361 -2.7229891 0.78691334
7.8993735 -2.3955054 0.69722134
0.90221328 -0.38557243 0.074840821
7.9770617 -3.0689881 0.56934315
7.9398317 -2.7275593 0.48039284
7.9168038 -2.4036582 0.3933596
0.8847155 -0.37842327 0.037991945
8.0017862 -3.0829899 0.25660205
7.9696088 -2.7422991 0.17330842
7.8936524 -2.4002409 0.090002671
0.89362264 -0.38238075 0.0027652264
8.0516319 -3.1055849 -0.058892712
7.9597063 -2.7424657 -0.13548826
7.9164691 -2.4103489 -0.21221547
0.91955423 -0.39404666 -0.033886772
1.5312735 -0.59127039 -0.071065038
1.5829849 -0.54648936 -0.088527344
7.9413047 -2.4200311 -0.51794481
0.96336746 -0.41357794 -0.074009389
1.5628333 -0.60439706 -0.1342295
1.5768993 -0.54466563 -0.14950943
7.8237953 -2.3867586 -0.81241107
0.9911657 -0.42583966 -0.11608733
1.5578594 -0.60325503 -0.19565706
1.5780452 -0.54552388 -0.21134382
0 -0 -0
0.92261034 -0.39728272 -0.14553984
1.5626956 -0.60613167 -0.25884968
2.947551 -1.0202237 -0.51284409
2.9837728 -0.91155112 -0.54411829
0 -0 -0
1.6127998 -0.62644035 -0.33330697
3.7031176 -1.2842786 -0.79344189
3.6187048 -1.1067678 -0.80573136
0 -0 -0
1.5771245 -0.61340719 -0.39189196
1.6189986 -0.56167501 -0.41416678
1.5569048 -0.47557947 -0.41099042
0.87866545 -0.38114434 -0.25055179
0 -0 -0
1.4673365 -0.50948972 -0.43856579
1.3462114 -0.41116869 -0.41321236
0.84191453 -0.36638287 0.28366268
0.8527959 -0.33291355 0.27190581
0.88090324 -0.30589482 0.26709157
0.91071302 -0.27863497 0.2628848
0.88969105 -0.38650948 0.258991
0.87617064 -0.34230292 0.24082126
0.91527206 -0.31859934 0.23827629
0.96207035 -0.29559702 0.23706348
0.94271839 -0.40952662 0.23342243
0.95225543 -0.37187451 0.22143829
0.97839206 -0.34099221 0.2140969
1.1159045 -0.3437368 0.2295699
0.93207377 -0.40465111 0.19144727
1.1993934 -0.46874869 0.22933474
1.0259984 -0.35816661 0.18288778
8.3938684 -2.5891283 1.3937812
0.88798982 -0.38560459 0.14568549
8.5428677 -3.3437216 1.2886592
0 -0 0
7.8941841 -2.4426956 1.0020382
0.88220972 -0.38327765 0.10875815
8.0437298 -3.1485183 0.89280117
7.9150386 -2.7712836 0.78681988
7.9111757 -2.4521904 0.69957793
0.90348834 -0.3926909 0.075145051
8.0258999 -3.1444473 0.57419515
7.9333105 -2.7798574 0.48102123
7.9391127 -2.4637358 0.39521176
0 -0 0
7.9566646 -3.1218078 0.25576454
7.97716 -2.7997568 0.17384294
7.9102879 -2.4584236 0.090362631
0.89034265 -0.3874577 0.0027623815
8.0352173 -3.1560271 -0.058913186
8.0087614 -2.8144596 -0.13661465
7.9187112 -2.4642246 -0.21267691
0.89238161 -0.38890088 -0.032972742
1.489496 -0.585666 -0.069291651
1.5852536 -0.55818206 -0.088844083
7.9539399 -2.4773192 -0.51975054
0 -0 -0
1.5386908 -0.60593969 -0.13247277
1.5744671 -0.55466205 -0.1495987
7.8137536 -2.4362006 -0.81290525
0 -0 -0
1.5578245 -0.61425984 -0.19612236
1.5746683 -0.55519634 -0.21134382
1.632488 -0.50942075 -0.23355862
0.91199619 -0.3993634 -0.14424932
1.5571086 -0.61498266 -0.25854445
2.9514706 -1.0419035 -0.51462871
3.0035133 -0.93776941 -0.5487572
0 -0 -0
1.5879238 -0.62801838 -0.32895622
3.6776114 -1.3007667 -0.78967214
3.6529212 -1.1417898 -0.81489444
0.88110679 -0.3876527 -0.21347667
1.5642732 -0.61948568 -0.3896358
1.6228524 -0.57419217 -0.41604611
1.5271171 -0.47674435 -0.40389168
0.8833915 -0.38965198 -0.25257644
1.4028163 -0.55676353 -0.41014293
1.4596468 -0.51687729 -0.43720716
1.3738887 -0.42885599 -0.42250752
0.8422718 -0.37270173 0.28454822
0.85162795 -0.338494 0.27219054
0.88082212 -0.31193602 0.26764229
0.89334577 -0.27932739 0.25836146
0.88111633 -0.38922843 0.25718528
0.87495399 -0.3480306 0.24106926
0.91055459 -0.3232348 0.23756003
0.96952516 -0.30441043 0.23935616
0.93661982 -0.41372722 0.23253658
0.96176207 -0.38240474 0.22419038
0.98643166 -0.3505967 0.21632285
1.068849 -0.33643648 0.22030994
0.92417926 -0.40798137 0.19033635
1.2019831 -0.47828311 0.23038672
1.0405039 -0.37040827 0.18587506
8.42869 -2.6566155 1.4022435
0.8874163 -0.39184481 0.14598311
8.5589876 -3.4107401 1.2942234
0 -0 0
7.9188018 -2.5036566 1.0070941
0.88983953 -0.39310041 0.10999404
8.0371962 -3.2029698 0.8942405
7.895072 -2.8187928 0.78653961
7.8883815 -2.4982796 0.69890469
0.89011776 -0.39339045 0.074232362
8.0092354 -3.1947432 0.57439452
7.9555912 -2.842592 0.48342067
7.932415 -2.5151198 0.39563915
0 -0 0
7.9726329 -3.18466 0.25690114
7.9852471 -2.8577468 0.17439802
7.9465184 -2.5232553 0.090951674
0.86508673 -0.38279724 0.0026912594
8.0101309 -3.2030432 -0.058872245
8.0082846 -2.8696184 -0.13690428
7.9396439 -2.5242763 -0.21365109
0.88540989 -0.39234465 -0.03280348
1.4580489 -0.58365583 -0.067994051
1.5846184 -0.56891078 -0.089002453
7.9309816 -2.5236561 -0.51925242
0.90716332 -0.40270406 -0.070065983
1.5127386 -0.60646725 -0.13055636
1.568222 -0.56330222 -0.14933091
1.5749023 -0.50165212 -0.1641624
0 -0 -0
1.5162355 -0.60863727 -0.19135307
1.5721656 -0.56518352 -0.21146941
1.6057317 -0.51190436 -0.23017567
0.89144653 -0.39690107 -0.14138155
1.5432194 -0.62046999 -0.25686556
2.9933012 -1.0773708 -0.52306527
3.0145962 -0.96156955 -0.55184972
0.90641981 -0.40440199 -0.18150291
1.5457829 -0.622347 -0.3210113
3.785733 -1.3652014 -0.81467187
3.6374612 -1.1615046 -0.81302023
0.90099132 -0.40301755 -0.21888937
1.5559249 -0.62725091 -0.38850775
1.6010119 -0.57754225 -0.41134769
1.5389429 -0.49081933 -0.40780821
0.87039101 -0.39031479 -0.24953946
1.408321 -0.56897539 -0.41276532
1.4093781 -0.50883013 -0.4230774
1.3794588 -0.43990159 -0.42504254
0.84432578 -0.37982267 0.28602409
0.85131228 -0.3444322 0.27275997
0.87708312 -0.3166818 0.26709157
0.8925333 -0.28509691 0.25862753
0.8884064 -0.39898148 0.26002282
0.88627118 -0.35884625 0.24478947
0.90216225 -0.32650247 0.23588876
0.96671224 -0.31005633 0.23912691
0.93406361 -0.41946644 0.23253658
0.94943225 -0.38426551 0.22186171
0.97965819 -0.35497463 0.21531105
1.1293505 -0.36311126 0.2332353
0.920762 -0.41324198 0.19015121
1.1716508 -0.47456145 0.22512676
0.9927898 -0.36030138 0.17774305
8.4329138 -2.714942 1.4056911
0.87597394 -0.39323276 0.14449501
8.5452394 -3.4661705 1.2953361
0 -0 0
7.9202957 -2.5576897 1.0092611
0.86656255 -0.38918963 0.10740991
0.92267299 -0.37427884 0.10291271
7.9038239 -2.8767176 0.78915519
7.9146194 -2.5601285 0.70260787
0.89314431 -0.40129659 0.074688703
0.91155171 -0.37010106 0.065534949
7.9745841 -2.9046788 0.48564866
7.9054298 -2.5600522 0.39506927
0.89309245 -0.40161058 0.03866262
0.9046483 -0.36781329 0.029222542
7.9966774 -2.9173114 0.17503533
7.9603734 -2.5815294 0.091289826
0.86089778 -0.3872776 0.0026855697
0.91323304 -0.37169379 -0.0067286463
8.0017958 -2.9228189 -0.13709739
7.9506283 -2.5815899 -0.21436889
0.86111623 -0.38791814 -0.031991009
1.0862042 -0.44255865 -0.050779276
1.5642177 -0.57244563 -0.08805225
1.6088876 -0.52284461 -0.10554417
0.9001292 -0.40621117 -0.069713891
1.2385706 -0.50539458 -0.10716001
1.5647361 -0.57291406 -0.14933091
1.5945055 -0.51869398 -0.16653439
0 -0 -0
1.5189084 -0.62055868 -0.19216734
1.561216 -0.57208878 -0.21046481
1.6082133 -0.5235877 -0.23098759
0.90792841 -0.41093302 -0.14439271
1.4872473 -0.60859287 -0.24816601
1.6174514 -0.59340006 -0.28327292
2.9852221 -0.97242057 -0.54755449
0 -0 -0
1.4874178 -0.6094811 -0.30966148
3.6724112 -1.3498564 -0.79205304
3.5940003 -1.171976 -0.80489832
0.87983829 -0.4000524 -0.21434271
1.2113537 -0.49700379 -0.30322555
1.5874028 -0.58366519 -0.40876359
1.5617158 -0.5086605 -0.41466215
0.87150097 -0.39725313 -0.25055179
1.3378655 -0.55008346 -0.39309734
1.4125516 -0.51979482 -0.42497951
1.3885942 -0.45222011 -0.42870429
0.84197938 -0.38499621 0.28602409
0.85981977 -0.354029 0.27617657
0.87422132 -0.32172552 0.26681623
0.88893425 -0.28997013 0.25809538
0.89648855 -0.40923974 0.26311836
0.88763547 -0.36575386 0.24578153
0.89831972 -0.33135977 0.23541126
0.94814128 -0.31052893 0.23500007
0.93147218 -0.42518985 0.23253658
0.95970803 -0.3952949 0.2248255
0.97838038 -0.36131829 0.21551342
1.0814207 -0.35503674 0.22378242
0.90122175 -0.41113433 0.18663332
1.1459615 -0.47236195 0.22074345
1.001659 -0.37049139 0.17973456
8.4245405 -2.7694099 1.4071015
0.87534386 -0.39942122 0.14479263
0.91718841 -0.37860557 0.13938218
0 -0 0
7.9327369 -2.6155653 1.0128725
0.88042897 -0.40192723 0.10943227
0.9120841 -0.37651721 0.10198742
0 -0 0
7.917685 -2.614893 0.70429116
0.88794416 -0.40552658 0.074460529
0.89450884 -0.36959091 0.064471498
7.9865618 -2.964673 0.48747674
7.93225 -2.6226208 0.39720631
0.8506248 -0.38880575 0.03692675
0.87466586 -0.36189276 0.028325226
7.9805017 -2.9670203 0.17507645
7.9738107 -2.6400678 0.091627978
0.84486371 -0.38631508 0.0026428963
0.90539193 -0.37499437 -0.0066877007
8.0155716 -2.9837217 -0.13764448
7.9744916 -2.6435368 -0.21544561
0.85871983 -0.39319456 -0.031991009
0.90258253 -0.3742184 -0.042301644
1.5410271 -0.57470495 -0.086943679
1.6037546 -0.53207815 -0.10541964
0.8550055 -0.39217997 -0.066404238
0.95742488 -0.39754412 -0.083045021
1.5546591 -0.58006704 -0.14870611
1.5894042 -0.52784067 -0.16633673
