# .PCD v0.7 - Point Cloud Data file format
VERSION 0.7
FIELDS x y z
SIZE 4 4 4
TYPE F F F
COUNT 1 1 1
WIDTH 1510
HEIGHT 1
VIEWPOINT 0 0 0 1 0 0 0
POINTS 1510
DATA ascii
0.87822127 0.16701145 -0.19034335
0.93741608 0.07175789 -0.208497
0.96307552 0.11007553 -0.22448617
0.94848996 0.14412937 -0.23186761
0.8400557 0.16005737 -0.21589847
0.93189228 0.070451677 -0.24447779
0.94733655 0.10755645 -0.25909284
0 0 -0
0.85206395 0.16237615 -0.25463119
0.81560445 0.060693081 0.25266936
0.82585722 0.093347229 0.24685062
0.82596248 0.12526622 0.23928101
0.80589491 0.15317607 0.22643213
0.84686959 0.063554749 0.22674611
0.85387528 0.096287735 0.21998809
0.83058196 0.12532921 0.20652205
0.82829326 0.156415 0.19854639
0.85476857 0.064162537 0.19466634
0.85559559 0.096602716 0.18650778
0.83476537 0.12563266 0.17443433
0.82640892 0.15544678 0.1653289
0.86822349 0.065370634 0.16404477
0.84429216 0.095102631 0.15131183
0.83381712 0.1250584 0.1418957
0 0 0
0.84704375 0.063701615 0.12782823
0.83157343 0.093243755 0.11754286
0.83650559 0.1250138 0.11063031
0.81971544 0.15310666 0.10111871
0.82144225 0.061632089 0.093141027
0.82639283 0.092648253 0.085949078
0 0 0
0 0 0
0.85610992 0.064097941 0.065485716
0.83791173 0.093673125 0.056163318
0.8433218 0.12547576 0.048787665
0 0 0
0.84997696 0.063370243 0.033652261
0.84241903 0.0937602 0.02536409
0 0 0
0 0 0
0.85064459 0.063300587 0.0024266853
0.85473734 0.09481407 -0.0058687986
0.84371656 0.12475192 -0.013725829
0 0 -0
0.85816717 0.063408569 -0.029147364
0.85895705 0.094963469 -0.037414033
0.8486529 0.12495211 -0.04534585
0 0 -0
0.84761584 0.06206375 -0.059996199
0.83824003 0.092228822 -0.06755393
0 0 -0
0 0 -0
0.9271698 0.067628518 -0.10003839
0.9339866 0.10235106 -0.11004256
0.90500098 0.13286129 -0.11578076
0.84577131 0.15588143 -0.1174559
0.98611587 0.07111492 -0.14324561
0.94709456 0.10325222 -0.14712918
0.95193297 0.13937789 -0.15818505
0.86905038 0.16003078 -0.15411244
0.93900257 0.066992477 -0.17214894
0.9391157 0.10193458 -0.18197578
0.95240837 0.1388533 -0.1948387
0.88500124 0.16268061 -0.19159287
0.95147294 0.066964231 -0.21152811
0.95695275 0.10343133 -0.22290687
0.9570514 0.13942786 -0.23374699
0.85437149 0.15735859 -0.21932542
0.92844659 0.064464331 -0.24346548
0.94893819 0.10184465 -0.25935507
0.94569147 0.13752006 -0.26982394
0.8653115 0.15940475 -0.25829294
0.78355181 0.053475596 0.24263343
0.82450807 0.088074468 0.24628119
0.81910485 0.11908934 0.2370782
0.80113113 0.14718322 0.22483566
0.8607378 0.059286721 0.23035754
0.87178946 0.092894264 0.22445235
0.83517957 0.12078647 0.20747705
0.82636476 0.1508055 0.19785859
0.86390191 0.059519812 0.19665952
0.85422862 0.091143683 0.18608439
0.82679695 0.11925006 0.1726131
0.82445097 0.14984672 0.16475016
0.88135308 0.060923062 0.16645174
0.84583879 0.090024561 0.15148716
0.8345688 0.11993983 0.1418957
0 0 0
0.8434726 0.058230631 0.12723298
0.8321299 0.088139564 0.11754286
0.83823842 0.12001928 0.11076001
0 0 0
0.82775283 0.057000235 0.09381514
0.82298905 0.087156832 0.085537836
0.82201779 0.11736008 0.077906661
0 0 0
0.84952378 0.058365338 0.064953312
0.83847076 0.088530026 0.056163318
0 0 0
0 0 0
0.85134667 0.058221862 0.033691712
0.84894288 0.089216262 0.025543552
0.8423692 0.11962065 0.01749531
0 0 0
0.85899842 0.058624651 0.0024494443
0.85331392 0.089359418 -0.0058551505
0.84050614 0.11901191 -0.013661465
0 0 -0
0.86053437 0.058276817 -0.029215069
0.85455519 0.089172766 -0.037197765
0.8513813 0.12002132 -0.045451432
0 0 -0
0.85793352 0.057529099 -0.060700379
0.84473908 0.087701358 -0.06803304
0.84129554 0.11846473 -0.076138236
0 0 -0
0.9345116 0.062401943 -0.10078734
0.93360913 0.09651617 -0.10992623
0.9244653 0.12992924 -0.11816669
0.86231953 0.15346663 -0.11962099
0.97073328 0.064020835 -0.14095138
0.95065957 0.097742252 -0.14758705
0.94886148 0.1329865 -0.15753609
0.8903842 0.15831701 -0.15772043
0.94626719 0.061677467 -0.17340814
0.93972349 0.096170358 -0.18197578
0.96877384 0.13517393 -0.19801326
0.89657611 0.15912741 -0.19388366
0.95478868 0.06131253 -0.21217762
0.95756936 0.097557627 -0.22290687
0.9578889 0.13355288 -0.23374699
0 0 -0
0.94137627 0.059560411 -0.24675554
0.94666493 0.095728897 -0.25856838
0.9512834 0.13237803 -0.27118257
0 0 -0
0.83822083 0.052041512 0.25945839
0.82026392 0.082533874 0.24485759
0.83600706 0.11631324 0.24175918
0.80771393 0.14327496 0.22643213
0.86108541 0.054004218 0.23035754
0.86366779 0.086672716 0.22222021
0.83398116 0.11539344 0.20699956
0.81960571 0.14438124 0.19602443
0.8642509 0.05421789 0.19665952
0.84213012 0.084630087 0.18333228
0.83236372 0.11484393 0.1736249
0.82922071 0.14546332 0.16552182
0.88465267 0.055699285 0.16700721
0.85029364 0.085225642 0.15218849
0.83431208 0.11468247 0.14172974
0 0 0
0.85861778 0.053984862 0.12946515
0.83166963 0.082933784 0.11740375
0.843871 0.11554624 0.11140849
0 0 0
0.8221367 0.051547088 0.093141027
0.82944715 0.082697541 0.086154699
0.82666832 0.11285274 0.078280315
0 0 0
0.84389496 0.052778229 0.064496972
0.8449555 0.083975673 0.056562111
0.84776574 0.11552186 0.048959054
0 0 0
0.86365539 0.05374169 0.034165133
0.84847963 0.083907194 0.025513642
0.84209663 0.11431523 0.017474752
0 0 0
0.86433232 0.053662661 0.0024636688
0.8488704 0.083631679 -0.0058210297
0 0 -0
0 0 -0
0.87184864 0.053671073 -0.029587451
0.85806912 0.084220409 -0.037327524
0.85408103 0.11506174 -0.045557007
0 0 -0
0.85329199 0.051960681 -0.060348287
0.84526128 0.082516484 -0.06803304
0.84398079 0.11356606 -0.076316752
0 0 -0
0.91999036 0.055764377 -0.099182449
0.93319517 0.090689763 -0.10980991
0.92917818 0.12478256 -0.118669
0.87593967 0.15035166 -0.12138011
0.9325797 0.055759694 -0.13535921
0.95124143 0.09190727 -0.14758705
0.95943981 0.12847148 -0.1591585
0.87968737 0.15085268 -0.15565872
0.95153773 0.056159902 -0.17430755
0.93052143 0.089462772 -0.18008412
0.97347122 0.12974505 -0.19880691
0.92549318 0.15840839 -0.19992299
0.9483245 0.055056814 -0.21066207
0.94942188 0.090845115 -0.22087634
0.9538728 0.1270313 -0.23257238
0 0 -0
0.93206531 0.053231493 -0.24422473
0.94915587 0.090100855 -0.25909284
0.9501698 0.12628499 -0.27063912
0 0 -0
0 0 0
0.83029866 0.078400433 0.24770479
0.83575201 0.11105479 0.24148382
0.80572742 0.13782863 0.2256339
0.87008208 0.049210697 0.23267917
0.8690058 0.081825808 0.22346029
0.84333795 0.11141877 0.20914833
0.82239544 0.1396755 0.19648299
0.86748809 0.049079172 0.19732389
0.85139072 0.080287091 0.18523759
0.84082013 0.11075765 0.17524378
0.82429278 0.13939095 0.16436432
0.87712872 0.049824256 0.16552599
0.84982044 0.079914562 0.15201317
0.83597779 0.10968935 0.1418957
0 0 0
0.85004735 0.048211511 0.12812586
0.83807868 0.078382485 0.11823837
0.83866495 0.10959528 0.11063031
0 0 0
0.83037412 0.046950329 0.094039842
0.82894856 0.077513978 0.086051889
0.82537061 0.10752104 0.078093484
0 0 0
0.82130587 0.046308178 0.062747642
0.84744185 0.078974716 0.056695044
0.84548855 0.10993171 0.048787665
0 0 0
0.85997826 0.048217639 0.034007326
0.85295969 0.079068497 0.025633285
0.8477397 0.1097881 0.017577544
0 0 0
0.87063593 0.048693251 0.0024807379
0.85534197 0.078973152 -0.0058619748
0.84686154 0.10932874 -0.013741921
0 0 -0
0.86517626 0.047933497 -0.029350482
0.8555851 0.078679346 -0.037197765
0.86071372 0.11058254 -0.045873743
0 0 -0
0.8745113 0.04786893 -0.061827064
0.84078836 0.076874703 -0.067633785
0.84663755 0.10863888 -0.076495275
0.83545721 0.13834088 -0.08410728
0.91634405 0.049902111 -0.09875448
0.93373412 0.084962085 -0.10980991
0.93878275 0.12021296 -0.11979917
0.86902547 0.1436812 -0.12029757
0.95069271 0.050990529 -0.13794021
0.95474023 0.086335853 -0.14804491
0.95825243 0.12233213 -0.15883401
0.91850293 0.15171337 -0.16235927
0.94400585 0.049904879 -0.17286848
0.92811888 0.0834876 -0.17951664
0.96355361 0.12241075 -0.1966244
0.92934293 0.15320396 -0.20054777
0.93791986 0.048680332 -0.20828049
0.95093173 0.085104696 -0.22110195
0.96427697 0.12240004 -0.23492157
3.0860262 0.50984389 -0.78966945
0.9449349 0.048151497 -0.2475148
0.94680721 0.084019355 -0.25830612
0.95188153 0.12057342 -0.27091083
2.7444046 0.45350283 -0.81656617
0 0 0
0.83744836 0.073894143 0.2496978
0.83641773 0.10592461 0.24148382
0.80560684 0.13272549 0.22536783
0.88291168 0.044503331 0.23603263
0.85887623 0.075558282 0.22073214
0.84785968 0.10672718 0.21010335
0.83284301 0.13619764 0.19877566
0.87166864 0.043951873 0.19820975
0.86549717 0.076262534 0.18820138
0.84148389 0.10559639 0.17524378
0.82997489 0.13511889 0.1653289
0.87741792 0.044441357 0.16552599
0.85715985 0.075301751 0.15324049
0.8415277 0.10516927 0.1427255
0.82961613 0.1347335 0.13336045
0.86020321 0.043494172 0.12961397
0.83361125 0.072807841 0.11754286
0.84325749 0.10493706 0.11114909
0 0 0
0.83957827 0.042304412 0.095051028
0.82445389 0.07199353 0.085537836
0 0 0
0 0 0
0.85344172 0.042868558 0.065181486
0.84890455 0.073859908 0.056761507
0.85011035 0.10523241 0.049016181
0 0 0
0.85925996 0.042890191 0.033967875
0.8544246 0.073919497 0.025663195
0 0 0
0 0 0
0.85593694 0.042604513 0.0024380647
0.85780305 0.073895037 -0.0058756233
0.846524 0.1040085 -0.013725829
0 0 -0
0.88042736 0.04336141 -0.029858274
0.85505641 0.073342711 -0.037154511
0.86335856 0.10554157 -0.045979321
0.84661919 0.13511486 -0.053488165
0.87877393 0.042695757 -0.062108736
0.84720343 0.072222285 -0.068112887
0.85025418 0.10380407 -0.076763049
0 0 -0
0.91663301 0.044278592 -0.09875448
0.92137223 0.078140087 -0.1082977
0.93753308 0.1142105 -0.11954802
0.87282622 0.13881311 -0.12070353
0.96285027 0.045719504 -0.13966088
0.95229763 0.080227159 -0.14758705
0.95996451 0.11656905 -0.15899625
0.91844362 0.14592011 -0.16218747
0.94331169 0.044065725 -0.17268859
0.92763519 0.077709228 -0.17932749
0.96428657 0.11649619 -0.1966244
0.94282359 0.14948989 -0.20325506
0.94697821 0.043326028 -0.21022907
0.94852352 0.079025634 -0.22042511
0.96500987 0.11648104 -0.23492157
0 0 -0
0.94714546 0.042439185 -0.24802096
0.9367258 0.077334881 -0.25542149
0.96406907 0.11611143 -0.27417156
2.7717736 0.44057113 -0.82388967
0.83521855 0.036437221 0.25827768
0.82928735 0.068048693 0.24713534
0.83991528 0.10113524 0.2423099
0.82068717 0.13004281 0.229359
0.87351608 0.038657892 0.23345305
0.85546154 0.069970995 0.21974008
0.85331959 0.10209963 0.21129712
0.82789379 0.13017769 0.19740006
0.87484455 0.038731985 0.19887415
0.86205256 0.070631266 0.18735458
0.85378498 0.10182281 0.17767209
0.82981896 0.12987199 0.16513599
0.88061929 0.039187849 0.16608143
0.85858703 0.070121042 0.15341583
0.83824021 0.099538654 0.14206167
0.83530641 0.13040224 0.13414401
0.85946602 0.03817137 0.12946515
0.83601642 0.067851745 0.11782107
0.84979367 0.1004594 0.11192727
0 0 0
0.85272712 0.037722953 0.096511625
0.82785445 0.06717477 0.085846268
0.83849341 0.098782241 0.079214446
0 0 0
0.85468483 0.037675042 0.065257542
0.85033625 0.068730123 0.056827974
0.84776539 0.099664554 0.048844796
0 0 0
0.87048787 0.038097654 0.034401841
0.86084008 0.069155701 0.025842657
0.85299522 0.099841692 0.017659778
0 0 0
0.86617267 0.037787624 0.0024665135
0.86322433 0.06902881 -0.0059097442
0.8511188 0.099275738 -0.013790195
0 0 -0
0.87668282 0.037786245 -0.029722862
0.8564862 0.068174079 -0.037197765
0.86101401 0.099896848 -0.045820951
0 0 -0
0.87204307 0.037006848 -0.061615814
0.85061175 0.067258306 -0.068352446
0.85087508 0.098585054 -0.076763049
0 0 -0
0.93377483 0.039365329 -0.10057336
0.94163746 0.074042328 -0.11062417
0.93920177 0.10856968 -0.1196736
0.9020654 0.13779372 -0.12462775
0.95124686 0.039320227 -0.13794021
0.95277196 0.074382462 -0.14758705
0.95379984 0.10988608 -0.15786058
0.94561583 0.1442942 -0.16682631
0.94454718 0.038316716 -0.17286848
0.92613649 0.071863964 -0.17894915
0.95914078 0.10990776 -0.19543394
0.95435929 0.14532161 -0.20554584
0.93844658 0.037166946 -0.20828049
0.94704783 0.073054262 -0.21997388
0.95315224 0.10912041 -0.23186761
0.94314247 0.14395048 -0.24086632
0.94545466 0.036552064 -0.2475148
0.93525833 0.071438789 -0.254897
0.95042098 0.10855565 -0.27009565
2.7507117 0.41993541 -0.81684786
0 0 0
0.86123276 0.065352596 0.25653103
0.84529573 0.096525051 0.24368665
0.8243286 0.12543978 0.23015723
0.88821864 0.033849258 0.23732242
0.85201073 0.064428471 0.21874803
0.8568247 0.097190186 0.21201339
0.83637655 0.1262577 0.1992342
0.86921895 0.033140391 0.19754535
0.86441875 0.065488145 0.18777798
0.85050124 0.09614215 0.17686266
0.82865953 0.12448633 0.16475016
0.87495124 0.033557754 0.16497052
0.86489141 0.065296233 0.15446782
0.84667474 0.095275611 0.14338933
0.84390467 0.12644522 0.13539767
0.86857736 0.033237383 0.13080445
0.84332949 0.06323912 0.11879479
0.85137945 0.095353626 0.11205696
0 0 0
0.83804834 0.031922664 0.094826326
0.83023489 0.062242612 0.086051889
0.83116788 0.092752129 0.078467138
0.81316471 0.12069321 0.069435976
0.84393966 0.032014318 0.064420909
0.84875196 0.063362703 0.056695044
0.85431445 0.095123775 0.049187567
0 0 0
0.87070525 0.032755721 0.034401841
0.85427058 0.063354902 0.025633285
0.85359174 0.09460593 0.017659778
0 0 0
0.87738043 0.032884162 0.0024978071
0.86662334 0.063951641 -0.0059302165
0.85270578 0.09416125 -0.013806285
0 0 -0
0.88588691 0.032738492 -0.030027539
0.85987759 0.063136972 -0.037327524
0.86855924 0.095374882 -0.046190478
0.85018843 0.12500575 -0.053612705
0.88720661 0.032198057 -0.062672086
0.85100842 0.062037781 -0.068352446
0.85443425 0.093688011 -0.07703083
0.8555842 0.12553978 -0.085886277
0.94393498 0.033992872 -0.10164329
0.93712097 0.067904256 -0.11004256
0.93491924 0.10226543 -0.11904573
0.92544174 0.13555896 -0.12774006
0.96037167 0.033795994 -0.13923071
0.94729596 0.068109713 -0.14667131
0.95543706 0.10413852 -0.15802281
0.94453388 0.13820405 -0.16648269
0.95754486 0.032960285 -0.17520697
0.91676551 0.065480366 -0.1770575
0.96369469 0.10444292 -0.19622757
0.95813644 0.13988693 -0.2061706
0.92694813 0.031016262 -0.2056824
0.95330894 0.067655705 -0.22132757
0.9615348 0.10410697 -0.23374699
0.96799195 0.14167094 -0.2469859
0.95823127 0.03115892 -0.25080487
0.9395296 0.065969177 -0.25594598
0.95585328 0.10323865 -0.2714543
2.5120909 0.3677479 -0.74530327
0.83942276 0.026304763 0.25945839
0.85109842 0.059333608 0.25339913
0.84587204 0.091336593 0.24368665
0.82889813 0.12093609 0.23122153
0.884547 0.028275145 0.2362906
0.87171865 0.060541812 0.22370832
0.86126703 0.092345074 0.21296839
0.84580553 0.12237786 0.20129761
0.87915266 0.028118072 0.19976
0.8687042 0.060454339 0.18862478
0.86276037 0.092170127 0.17929098
0.83232141 0.11981887 0.1653289
0.87906951 0.028315071 0.16571113
0.87018657 0.06032858 0.15534447
0.85018522 0.090391494 0.14388722
0.84173185 0.12084369 0.13492756
0.86876494 0.027907265 0.13080445
0.84567755 0.058199339 0.119073
0.84701824 0.089606293 0.11140849
0.83143026 0.1186095 0.10184099
0.86802322 0.027731786 0.098196924
0.83754766 0.057625152 0.086771555
0.83469176 0.087963469 0.078747384
0.81980914 0.11654291 0.069940962
0.85906917 0.027310641 0.065561779
0.85310662 0.058426369 0.056960907
0.854882 0.089880005 0.049187567
0.83964032 0.11907804 0.040319007
0.86889243 0.027349686 0.03432294
0.8606267 0.058518853 0.025812747
0.859128 0.089886792 0.01776257
0 0 0
0.88056421 0.027594004 0.002506342
0.86300868 0.058363054 -0.0059029199
0.85326749 0.088927373 -0.013806285
0 0 -0
0.89006692 0.027425298 -0.030162951
0.86323923 0.058060814 -0.037457287
0.8681348 0.089940801 -0.046137687
0.84797448 0.11936936 -0.053425901
0.87243152 0.026302749 -0.061615814
0.85734063 0.057213157 -0.068831548
0.8540023 0.088341057 -0.076941572
0.85141128 0.11959554 -0.08539211
0.9202742 0.027487928 -0.099075459
0.93751997 0.062152911 -0.11004256
0.92763436 0.095712379 -0.11804112
0.91448158 0.12822703 -0.12611625
0.95165771 0.027644005 -0.13794021
0.96446073 0.063397944 -0.14926592
0.95605808 0.098274112 -0.15802281
0.94926655 0.13295247 -0.16716991
0.96067899 0.027167702 -0.17574662
0.93380773 0.060941063 -0.18027329
0.95554203 0.097631223 -0.19444188
0.96963203 0.13549423 -0.20846137
0.93980795 0.025674626 -0.208497
0.96440005 0.062498063 -0.22380933
0.95345259 0.097316854 -0.23163269
0.97172362 0.13613234 -0.24772024
0.92648983 0.024436964 -0.24245314
0.93510157 0.05989467 -0.25463477
0.95742613 0.097469166 -0.27172601
0.95592821 0.13395353 -0.2833617
0.88063937 0.022188488 0.27215087
0.86483997 0.054961424 0.25738519
0.84737295 0.086242042 0.243962
0.83344334 0.11638103 0.23228584
0.89339632 0.023071615 0.23861223
0.87400734 0.055314284 0.22420433
0.85698664 0.086570702 0.21177462
0.84654051 0.11718579 0.20129761
0.88125831 0.022773545 0.20020293
0.86808342 0.055061065 0.18841308
0.86330968 0.086874589 0.17929098
0.83012474 0.11430803 0.16475016
0.89101523 0.023227984 0.16793296
0.87152284 0.055050142 0.15551981
0.85562998 0.085664347 0.14471702
0.83756512 0.11500488 0.13414401
0.87188536 0.022653149 0.13125087
0.85590214 0.053628527 0.12046404
0.85347217 0.084996976 0.11218666
0.82820791 0.11296905 0.10135947
0.86221707 0.022251362 0.097522803
0.84185654 0.052733716 0.087182797
0.84116036 0.083429851 0.079307862
0 0 0
0.8681916 0.022269083 0.066246293
0.85743248 0.053438969 0.05722677
0.85740441 0.08482945 0.049301822
0 0 0
0.86305046 0.021865901 0.034086231
0.8659578 0.053545486 0.025962299
0.86264831 0.084907383 0.017824246
0.8472476 0.11449685 0.0093264189
0.88071698 0.022190444 0.002506342
0.85935819 0.052821238 -0.0058756233
0.85379708 0.083690144 -0.013806285
0 0 -0
0.88022721 0.021716932 -0.029824423
0.87255406 0.053311329 -0.037846565
0.86668253 0.084418714 -0.046032108
0.85363668 0.11482933 -0.053737238
0.87556815 0.02102094 -0.061827064
0.86961532 0.052674759 -0.069789752
0.85452831 0.083099335 -0.076941572
0.86495048 0.11608996 -0.086676948
0.93334728 0.022147333 -0.10046637
0.93788368 0.056399226 -0.11004256
0.92622924 0.089827187 -0.11778996
0.93980187 0.12590243 -0.12949918
0.95279884 0.021826888 -0.13808361
0.95200658 0.056714896 -0.1472818
0.95271438 0.092026509 -0.15737385
0.94811159 0.12686406 -0.16682631
0.96771175 0.021424988 -0.17700581
0.93220359 0.055094309 -0.17989497
0.95026928 0.091204457 -0.19325142
0.9723841 0.12980096 -0.20887788
0.94189984 0.019948935 -0.20893
0.95114976 0.055780936 -0.22065073
0.96273994 0.092299618 -0.23374699
0.96293056 0.12888116 -0.24527241
0.95563972 0.019338882 -0.25004563
0.93159789 0.053932771 -0.25358582
0.95992225 0.091775872 -0.27226949
0.95863414 0.12834018 -0.28392503
0 0 0
0.84602022 0.048555296 0.25169083
0.84692919 0.080949567 0.24368665
0.83031976 0.11075512 0.23122153
0.89448702 0.017608419 0.23887019
0.86078978 0.049176864 0.22073214
0.8517012 0.080760688 0.21034211
0.84820861 0.11211687 0.2015269
0.88820636 0.017500289 0.20175317
0.8723079 0.049957089 0.18925989
0.86090153 0.081299566 0.17868389
0.83567476 0.10985174 0.16571474
0.88328081 0.017603729 0.16645174
0.86987847 0.049589477 0.15516914
0.85712129 0.080504902 0.14488298
0.84217209 0.11037689 0.13477084
0.88090599 0.017479494 0.13259016
0.86214727 0.048710968 0.12129866
0.84805405 0.079205327 0.11140849
0.8308543 0.10814139 0.10160023
0.87127864 0.017136337 0.098533988
0.84117115 0.047511097 0.087079987
0.83868241 0.077990457 0.079027615
0 0 0
0.85734576 0.016727582 0.06540966
0.85973668 0.048288763 0.057359695
0.8569147 0.079474717 0.049244694
0 0 0
0.86516649 0.016608268 0.034165133
0.87325609 0.048620023 0.026171673
0.86613977 0.079888158 0.017885923
0 0 0
0.89483392 0.017052796 0.0025461703
0.86765367 0.047989108 -0.0059302165
0.86026859 0.078998365 -0.013902833
0 0 -0
0.89833051 0.016648898 -0.030433776
0.8668794 0.047627587 -0.037587043
0.86718416 0.07909926 -0.046032108
0.85234535 0.10933538 -0.053612705
0.86470973 0.015452112 -0.061052468
0.86693621 0.047175422 -0.069550209
0.85898972 0.078215756 -0.077298611
0.86762065 0.11103318 -0.086874619
0.93843615 0.016507437 -0.10100133
0.93027794 0.050215144 -0.10911196
0.93763125 0.085129008 -0.1191713
0.95235056 0.12163993 -0.13112301
0.95588338 0.016029995 -0.13851376
0.95628417 0.051083293 -0.1478923
0.94834739 0.085734807 -0.15656264
0.95962149 0.12241542 -0.16871619
0.96290714 0.015408124 -0.17610639
0.94232976 0.049892552 -0.18178661
0.94300145 0.08467079 -0.19166414
0.97122175 0.12358516 -0.20846137
0.92931432 0.013978289 -0.20611541
0.95244694 0.049994808 -0.22087634
0.95070249 0.085261896 -0.230693
0.95985603 0.1224794 -0.24429327
0 0 -0
0.93383867 0.048315302 -0.25411028
0.94704753 0.084684186 -0.26846531
0.95940357 0.12245569 -0.28392503
0.89326507 0.011540473 0.27598816
0.851089 0.043608565 0.25311443
0.85698521 0.076607332 0.24644017
0.84150255 0.10699575 0.2341484
0.91003531 0.012329027 0.24299753
0.87075031 0.044387426 0.22321227
0.85411531 0.075704701 0.2108196
0.85660642 0.10788326 0.20336103
0.89414746 0.01212939 0.20308195
0.86869377 0.044404201 0.18841308
0.86723733 0.076532178 0.17989805
0.84022748 0.10520972 0.1664864
0.89221579 0.012305661 0.16811812
0.87311608 0.044401076 0.15569516
0.86349332 0.075761333 0.14587875
0.84577364 0.10557435 0.13524097
0.88099664 0.012074028 0.13259016
0.8545177 0.043021664 0.12018583
0.84951192 0.07408642 0.11153818
0.83347261 0.1032855 0.10184099
0.87236094 0.011803392 0.098646335
0.83846647 0.042198874 0.086771555
0.84410465 0.073273443 0.079494685
0.83071595 0.10253172 0.070698448
0.86939645 0.011626692 0.066322356
0.85702711 0.042863086 0.057160299
0.85838085 0.074301384 0.049301822
0 0 0
0.87124687 0.011377681 0.034401841
0.87753135 0.043458674 0.026291316
0.86661363 0.074572116 0.017885923
0.85255891 0.10457817 0.0093700513
0.88792241 0.011471449 0.0025262563
0.86793178 0.042664379 -0.0059302165
0.85974091 0.073633052 -0.013886741
0 0 -0
0.88442487 0.010963105 -0.029959835
0.87912983 0.042891845 -0.038106084
0.86765319 0.073776826 -0.046032108
0.85002798 0.1037407 -0.053425901
0.87476271 0.010263086 -0.061756648
0.87617016 0.042287603 -0.070268862
0.86441565 0.073364772 -0.077744909
0.86927336 0.10582773 -0.086973451
0.92460102 0.010589578 -0.099503435
0.93850517 0.044885702 -0.11004256
0.93714738 0.079290569 -0.11904573
0.94914472 0.11531613 -0.13058174
0.96289104 0.010238159 -0.13951749
0.95065653 0.044934716 -0.14697656
0.94688904 0.079748623 -0.15623815
0.95448685 0.11581303 -0.16768534
0.96888548 0.0095577668 -0.1771857
0.93869466 0.043925986 -0.18102995
0.94643337 0.079128027 -0.19225937
0.97778773 0.11832856 -0.20971091
0.92743015 0.008258475 -0.2056824
0.94203091 0.043653701 -0.21839459
0.95798826 0.079993069 -0.23233745
0.97791475 0.11869031 -0.24869937
0 0 -0
0.94086558 0.042892095 -0.25594598
0.93987685 0.078232981 -0.2662915
0.95442188 0.11587276 -0.28223503
0 0 0
0.8781544 0.039594553 0.26108652
0.85935515 0.071506962 0.24699086
0.851713 0.10298753 0.23680916
0.90139866 0.0066804816 0.2406759
0.89229757 0.03999817 0.22866857
0.85649937 0.070622124 0.21129712
0.85918522 0.10285659 0.20381957
0.90883219 0.0067514363 0.2064039
0.87187892 0.039204866 0.18904819
0.86769062 0.071209468 0.17989805
0.84767765 0.10086375 0.16783682
0.88637841 0.0067857583 0.16700721
0.87042147 0.038910996 0.15516914
0.86492479 0.070541777 0.1460447
0.83463621 0.098986968 0.13336045
0.87907654 0.0066531398 0.13229255
0.86564809 0.038258601 0.12171598
0.85390377 0.069192857 0.11205696
0.84197801 0.099097781 0.10280402
0.88632792 0.0065533188 0.10021929
0.8506344 0.037580173 0.088005282
0.84156114 0.067852691 0.079214446
0.83429849 0.097780585 0.07095094
0.88041925 0.0063713281 0.06715899
0.85827088 0.037647389 0.05722677
0.86081094 0.06919305 0.04941608
0.84826243 0.099132031 0.040603947
0.87629628 0.0060661808 0.034599103
0.86679667 0.037596963 0.025962299
0.87004471 0.069492072 0.017947597
0.85616422 0.099691957 0.0094027752
0.89497584 0.0060705226 0.0025461703
0.87017536 0.037423983 -0.005943865
0.8601765 0.068356395 -0.013886741
0.8510052 0.098775119 -0.021970119
0.90046597 0.0056362585 -0.030501479
0.87837833 0.037454236 -0.03806283
0.86510301 0.068216115 -0.045873743
0.85560572 0.099097215 -0.053737238
0.89475924 0.005007091 -0.063165009
0.88238865 0.03716239 -0.070747972
0.87180007 0.068606414 -0.078369722
0.87979168 0.10163393 -0.087961785
0.95845294 0.0050958637 -0.10314119
0.93777061 0.039084941 -0.10992623
0.94157243 0.073849134 -0.11954802
0.94885015 0.10937666 -0.13044642
0.95699781 0.0043030782 -0.13865715
0.95288926 0.039181959 -0.1472818
0.94539303 0.073783562 -0.15591367
0.94539273 0.10882764 -0.16596726
0.97286052 0.0036272879 -0.17790523
0.94287109 0.03832496 -0.18178661
0.92931157 0.071957365 -0.188688
0.96975011 0.11132283 -0.20783661
0 0 -0
0.93936074 0.037755311 -0.21771774
0.94392425 0.072989397 -0.22881362
0.96802926 0.11146765 -0.24600674
0 0 -0
0.94111109 0.037118245 -0.25594598
0.95089406 0.073277913 -0.26928049
0.95606804 0.11012414 -0.28251669
0.91531461 0.00059208291 0.28277716
0.88412815 0.034429364 0.26279482
0.85019273 0.065494329 0.24423735
0.85520196 0.098089106 0.2376074
0.9333058 0.0011901347 0.24918854
0.89252615 0.034522381 0.22866857
0.85594827 0.065291554 0.21105836
0.86270159 0.097912088 0.20450737
0.89227861 0.0011533907 0.20263901
0.87893927 0.034119755 0.19053008
0.86811119 0.065884076 0.17989805
0.85218066 0.096100412 0.16860847
0.91293645 0.0013872329 0.17200629
0.87359518 0.033683255 0.15569516
0.86829132 0.06545575 0.14654256
0.84602404 0.095077157 0.13508426
0.90777785 0.0013001756 0.13660805
0.86289781 0.032833401 0.12129866
0.85727865 0.06417416 0.11244605
0.84158361 0.093819648 0.10268364
0.88038945 0.001107291 0.099545166
0.85979486 0.032700304 0.08893057
0.84196162 0.062687695 0.079214446
0.83191162 0.092329837 0.070698448
0.85950267 0.00094601052 0.065561779
0.85649151 0.032305211 0.057093836
0.86321056 0.064057678 0.049530335
0.85481167 0.09458445 0.040888887
0.87931466 0.00069157145 0.034717456
0.87999624 0.032761112 0.026351135
0.8714518 0.064225756 0.017968155
0.85477191 0.094217643 0.009380959
0.90599614 0.00058605516 0.0025774639
0.8713879 0.032120816 -0.0059506889
0.86456853 0.063369527 -0.013951107
0 0 -0
0.8864916 0.0001092724 -0.030027539
0.87359965 0.031881724 -0.037846565
0.86450928 0.06283427 -0.045820951
0.86611879 0.094932884 -0.054359917
0.88779056 -0.00047937254 -0.062672086
0.89455402 0.032177445 -0.071706183
0.86624426 0.062823586 -0.077834167
0.88039869 0.096233711 -0.087961785
0.95647764 -0.00078355998 -0.10292721
0.92707431 0.03294218 -0.10864666
0.93804985 0.067784354 -0.11904573
0.95048833 0.10365998 -0.13058174
0.95106816 -0.0015592955 -0.13779682
0.94817334 0.033161685 -0.14651868
0.95173329 0.068405792 -0.15688713
0.93918735 0.10227822 -0.1647646
0.94040287 -0.00226399 -0.17196906
0.94799531 0.032708187 -0.18273242
0.93951201 0.066950537 -0.19067208
0.96847022 0.10515929 -0.20742011
0 -0 -0
0.93957472 0.031990789 -0.21771774
0.95501953 0.067955099 -0.23139776
0.96387559 0.10500084 -0.24478284
2.522105 -0.010870018 -0.65978634
0.93553424 0.031150313 -0.25437254
0.95036584 0.067373902 -0.26900876
0.96340275 0.10498335 -0.28448838
0 -0 0
0.89198756 0.029255195 0.26507258
0.8649627 0.061295748 0.24836764
0.85866266 0.093151726 0.23840563
0.93039715 -0.0045224559 0.24841468
0.88787997 0.028887782 0.22742851
0.86117631 0.060377907 0.21225214
0.8700608 0.093343623 0.20611225
0.93322551 -0.0045199157 0.21194048
0.87815523 0.028694125 0.19031839
0.87142992 0.060760554 0.18050513
0.86738974 0.092429273 0.17150222
0.89327377 -0.0041237348 0.16830327
0.87673736 0.028418023 0.15622114
0.86572534 0.059922505 0.1460447
0.85150212 0.090405636 0.13586782
0.89985788 -0.004232659 0.13541757
0.86704218 0.027664466 0.12185508
0.85567784 0.058776889 0.11218666
0.84016889 0.088446155 0.10244288
0.85951293 -0.004192905 0.097185746
0.85500824 0.027265565 0.088416517
0.84233046 0.057520334 0.079214446
0.83543563 0.087535098 0.07095094
0.85650098 -0.0043127546 0.065333605
0.85168713 0.026891824 0.056761507
0.86358732 0.058759909 0.049530335
0.85537595 0.089337647 0.040888887
0.87130868 -0.004661053 0.034401841
0.88717425 0.027578337 0.02656051
0.87182945 0.05887742 0.017968155
0.8662743 0.090109095 0.0095009487
0.89898288 -0.004934621 0.0025575499
0.88056415 0.027049808 -0.0060121068
0.86793399 0.058264352 -0.013999381
0.85115892 0.088221475 -0.021944484
0.88447678 -0.0053181215 -0.029959835
0.87577599 0.026581435 -0.03793307
0.86089295 0.057263453 -0.045609795
0.85675734 0.088590153 -0.053737238
0.90871835 -0.0060665887 -0.064150862
0.87580377 0.026123291 -0.070189014
0.86661345 0.057507228 -0.077834167
0.89483058 0.092258662 -0.089345455
0.96341449 -0.0067007877 -0.10367616
0.94711465 0.02783672 -0.11097315
0.93745816 0.061961882 -0.11892014
0.95307773 0.098028697 -0.13085237
0 -0 -0
0.94835895 0.027343178 -0.14651868
0.94327343 0.061982483 -0.15542695
0.93881726 0.096412912 -0.16459279
0 -0 -0
0.95504904 0.027085643 -0.18405658
0.95359784 0.062075883 -0.19344983
0.95839435 0.098119147 -0.20512934
2.5587168 -0.02431703 -0.56746686
0.93683183 0.026143538 -0.21704091
0.94183898 0.061211377 -0.22810887
0.97318232 0.099976398 -0.2469859
2.57423 -0.026890857 -0.67345279
0.95885932 0.026038082 -0.26066628
0.94595951 0.061230484 -0.26765013
0.96689224 0.099364318 -0.2853334
0 -0 0
0.89598334 0.023883689 0.26621145
0.8557291 0.055366576 0.24561411
0.86209494 0.088175565 0.23920387
0.93131793 -0.010241805 0.24867263
0.9170931 0.024206135 0.23486891
0.86734515 0.055464521 0.21368466
0.85899597 0.086828589 0.20336103
0.92732954 -0.010181757 0.2106117
0.87733781 0.023279402 0.19010669
0.87667304 0.055723026 0.18151693
0.86891681 0.087203309 0.17169513
0.91091943 -0.0097948741 0.171636
0.87394279 0.022960361 0.15569516
0.86804503 0.054733496 0.14637661
0.85695451 0.085670441 0.13665137
0.89882618 -0.0097432844 0.13526876
0.86224586 0.022216341 0.12115956
0.86690819 0.054206111 0.11361331
0 0 0
0.87139428 -0.0095980279 0.098533988
0.87206382 0.022454076 0.090164281
0.84962344 0.052782945 0.079868339
0.84389013 0.083189353 0.071624257
0.86842293 -0.0097017279 0.066246293
0.86979055 0.022122111 0.057957888
0.86692101 0.053644918 0.049701724
0.86087841 0.084575787 0.041126337
0.88225436 -0.010133453 0.034835812
0.88233048 0.022009589 0.026410956
0.87616599 0.053771839 0.018050389
0.8628301 0.084402636 0.0094573162
0.89593583 -0.010415709 0.0025490152
0.88071358 0.021646259 -0.0060121068
0.86827517 0.052937713 -0.013999381
0 0 -0
0.89841849 -0.010915047 -0.030433776
0.88890666 0.021521633 -0.038495362
0.8741864 0.052762143 -0.046296056
0.85529804 0.083138406 -0.053612705
0.8956973 -0.011476129 -0.063235432
0.9018572 0.021362703 -0.072265141
0.87689203 0.0527872 -0.078726754
0.90033215 0.087246247 -0.089839622
0 -0 -0
0.94230294 0.021909375 -0.11039153
0.93881106 0.056267936 -0.11904573
0.95366126 0.092178874 -0.13085237
0 -0 -0
0.95838916 0.021747846 -0.14804491
0.95151597 0.056662753 -0.15672489
0.93743002 0.090461373 -0.16424917
2.5169859 -0.036950272 -0.46032301
0.96403259 0.021421388 -0.18575905
0.94417655 0.0556469 -0.19146574
0.95411038 0.091768488 -0.20408806
2.5790188 -0.040337186 -0.57201356
0.93015671 0.020246349 -0.2154616
0.95966285 0.056458771 -0.23233745
0.95640576 0.092326216 -0.2425798
2.584657 -0.042861983 -0.67623675
0.93874043 0.01972835 -0.25515926
0.94535661 0.055368762 -0.26737839
0.96748376 0.093429707 -0.2853334
0 -0 0
0.91815645 0.018837854 0.27275997
0.87044823 0.05095762 0.2497444
0.86166024 0.082791999 0.2389378
0 -0 0
0.90269595 0.018284228 0.2311487
0.87445545 0.050533716 0.21535593
0.86048168 0.081648208 0.2035903
0.92529958 -0.015838174 0.21016878
0.88918966 0.018134862 0.19264708
0.87504303 0.050230566 0.18111221
0.87431997 0.082330041 0.17265971
0.8823477 -0.014902718 0.16626659
0.87997305 0.017716419 0.15674713
0.86934906 0.049462259 0.14654256
0.86139739 0.080779515 0.13727821
0.89578331 -0.015207837 0.13482232
0.87523705 0.017177897 0.12296791
0.87019444 0.049053263 0.1140024
0.85700661 0.079598278 0.10436895
0 -0 0
0.87119067 0.017083269 0.090061478
0.85390764 0.047791306 0.080241993
0.85133028 0.078651451 0.072213411
0 -0 0
0.85494584 0.016496032 0.056960907
0.87122113 0.048546758 0.049930234
0.86038649 0.079200387 0.041078847
0.89316535 -0.015740346 0.035269782
0.88944459 0.016726857 0.02662033
0.87548119 0.048339654 0.018029831
0.86532331 0.079289302 0.0094791315
0.90085429 -0.016001672 0.0025632395
0.89082783 0.016426252 -0.0060803485
0.87058032 0.047718525 -0.014031563
0.85815066 0.078314915 -0.022098301
0.87535161 -0.016007155 -0.029655159
0.88802308 0.016048947 -0.038452111
0.87050515 0.047181062 -0.046084899
0.8627497 0.078522071 -0.054048579
0.9215408 -0.017463196 -0.065066293
0.90994453 0.015968531 -0.072903946
0.88515592 0.047835682 -0.079440832
0.9077878 0.082349584 -0.090531461
0 -0 -0
0.94837803 0.016229063 -0.11108947
0.93616664 0.050346609 -0.118669
0.95519567 0.086414859 -0.13098769
0 -0 -0
0.95257568 0.015768727 -0.14712918
0.94790441 0.050612848 -0.15607592
0.93600518 0.084530495 -0.16390555
2.6022744 -0.05417477 -0.47597295
0.97101855 0.015616322 -0.1870832
0.96016037 0.050679065 -0.19464029
0.95465553 0.085912451 -0.20408806
2.6929204 -0.058648054 -0.59734493
0.93415982 0.01459953 -0.21636406
0.94543117 0.049802352 -0.22881362
0.96757638 0.08741574 -0.24527241
3.0988932 -0.07041166 -0.81087673
0.95621198 0.014226376 -0.25987956
0.93895119 0.049214508 -0.26547632
0.96899444 0.087577954 -0.28561509
0 -0 0
0.92688137 0.013327842 0.27532244
0.86690444 0.045414519 0.248643
0.86599231 0.077848621 0.24000211
0 -0 0
0.91441512 0.012909145 0.23412488
0.87862813 0.045367502 0.21631095
0.85999686 0.076280847 0.20336103
0 -0 0
0.8941704 0.012748217 0.19370557
0.87631279 0.04491058 0.18131457
0.87089896 0.076619789 0.17188804
0 -0 0
0.88301837 0.012358002 0.15727313
0.87160593 0.044227052 0.1468745
0.86876392 0.076095805 0.13837518
0.94708043 -0.021892283 0.14256048
0.86740446 0.011700368 0.12185508
0.87344992 0.043862116 0.11439148
0.84758872 0.073480867 0.10316516
0 -0 0
0.87824136 0.011831215 0.090781145
0.84622961 0.042154644 0.079494685
0.85179687 0.073426306 0.072213411
0.85328609 -0.020007288 0.065105431
0.86101717 0.011328635 0.057359695
0.86651689 0.042952992 0.049644593
0.86284667 0.07409057 0.041173827
0.91802543 -0.021813821 0.036256071
0.88653201 0.011231027 0.026530597
0.87476271 0.042917904 0.018009273
0.87575668 0.074829593 0.0095882127
0.89374119 -0.021361647 0.0025433253
0.89291173 0.010984528 -0.006093997
0.87085676 0.042375848 -0.014031563
0.86558747 0.073641121 -0.022277752
0.90021509 -0.02198801 -0.030501479
0.89110178 0.010635608 -0.038581867
0.87377059 0.041982632 -0.046243265
0 0 -0
0 -0 -0
0.90703517 0.010350792 -0.072664395
0.87846863 0.042070054 -0.078816019
0.91025913 0.076945588 -0.090729125
0 -0 -0
0.94548023 0.010376919 -0.1107405
0.93447602 0.044507053 -0.11841784
0.93892378 0.079137601 -0.12868728
5.5036273 -0.14413558 -0.79767293
0.95265454 0.0099235354 -0.14712918
0.96791017 0.045726962 -0.15932074
0.94239616 0.079281189 -0.16493641
4.4328547 -0.1194995 -0.8109169
0.97404182 0.0096872672 -0.1876507
0.95653701 0.044604059 -0.19384666
0.95224077 0.079808123 -0.2034633
3.6791456 -0.10271563 -0.81623435
0.93520594 0.008876604 -0.21658967
0.94571894 0.044000357 -0.22881362
0.95746678 0.080582693 -0.2425798
3.1061389 -0.089648061 -0.81290138
0 0 -0
0.9469263 0.043808088 -0.26765013
0.965689 0.081308648 -0.28448838
0.95883262 -0.028805044 0.29635519
0.91256696 0.007521837 0.27105165
0.88061118 0.04071606 0.25249791
0.85876894 0.071890213 0.23787348
0 -0 0
0.9338516 0.0074527781 0.23908515
0.87888998 0.039975487 0.21631095
0.86044872 0.071002573 0.20336103
0 -0 0
0.91964167 0.0074677872 0.19920978
0.87657189 0.039532781 0.18131457
0.87917626 0.071914569 0.17343137
0 -0 0
0.87421733 0.006870043 0.15569516
0.87777179 0.039141726 0.14787026
0.8682301 0.070683599 0.13821846
0 -0 0
0.88231367 0.0064870631 0.12394164
0.87271202 0.038458247 0.11426179
0.85000265 0.068438113 0.10340592
0 -0 0
0.88128144 0.0064640916 0.091089576
0.86039793 0.037569545 0.08080247
0.85620445 0.068516344 0.072550073
0 -0 0
0.87005037 0.0061083646 0.057957888
0.87274873 0.037895191 0.049987365
0.86328506 0.068794847 0.041173827
0.86793554 -0.025953038 0.034283489
0.88758385 0.0057976865 0.02656051
0.88999259 0.038192622 0.018317651
0.8702184 0.068980545 0.009522764
0.91058558 -0.027355617 0.0025916884
0.89796209 0.0055363434 -0.0061281179
0.87010139 0.036989108 -0.014015472
0.86801624 0.068485856 -0.022329025
0.89506847 -0.027358541 -0.030332215
0.89115024 0.0051677101 -0.038581867
0.87201625 0.036536876 -0.046137687
0.85767847 0.067459337 -0.053674974
7.5016651 -0.23427492 -0.52982557
0.92901105 0.0049008182 -0.074421115
0.9155305 0.038216028 -0.082118608
0.91369033 0.071592093 -0.091025628
7.3727546 -0.23230997 -0.79378057
0.95247853 0.0046090088 -0.11155477
0.93076658 0.038607918 -0.11791554
0.95618421 0.074686624 -0.13098769
5.5402269 -0.17911771 -0.80312175
0.96159196 0.0041160425 -0.1485028
0.95634145 0.039300919 -0.15737385
0.94581139 0.073726945 -0.16545182
4.43892 -0.14692453 -0.81217605
0.9672094 0.0036842935 -0.18632655
0.96168929 0.038932249 -0.1948387
0.94881195 0.073660962 -0.2026303
3.6042919 -0.1227628 -0.79977977
0 0 -0
0.94888484 0.038314354 -0.2295184
0.94634342 0.073801652 -0.2396424
3.1026299 -0.10860375 -0.81214207
0 0 -0
0.94140762 0.037765577 -0.26601976
0.9604302 0.074933954 -0.28279838
0.92999327 -0.0336513 0.28749996
0.92793369 0.0019545972 0.27560717
0.8923713 0.03577406 0.25580212
0.85631067 0.066395991 0.23707524
0 -0 0
0.94356728 0.0017405014 0.24156529
0.88397038 0.034772821 0.21750472
0.86669147 0.066166192 0.20473665
0 -0 0
0.90207815 0.0017899249 0.19539918
0.88364792 0.034420319 0.18273111
0.88155782 0.06666667 0.1738172
0 -0 0
0.87719649 0.0015109039 0.15622114
0.8809517 0.033868734 0.14836814
0.8696323 0.065429002 0.13837518
0 -0 0
0.87540495 0.0010647349 0.12296791
0.87590414 0.033215385 0.11465088
0.85040659 0.063221306 0.10340592
0 -0 0
0.88428861 0.0010601061 0.091398008
0.86558688 0.032476183 0.08126954
0.8536275 0.063041307 0.072297573
0 -0 0
0.87605816 0.00077501714 0.05835668
0.87595779 0.032650955 0.050158747
0.86468709 0.063569777 0.041221317
0 -0 0
0.87260938 0.00034552853 0.026111851
0.89320755 0.03284122 0.018379327
0.87461442 0.063931279 0.0095663965
0 -0 0
0.8899793 2.6212054e-05 -0.0060735242
0.87330955 0.031758577 -0.014063745
0.87240827 0.063448563 -0.022431569
0.89488375 -0.032850064 -0.030332215
0.88616985 -0.00029869837 -0.038365602
0.87721395 0.031364005 -0.046401635
0.86106259 0.062411912 -0.053861778
7.4990897 -0.28026262 -0.52975512
0.94198215 -0.00081073173 -0.075459175
0.88986796 0.031676482 -0.079797871
0.89823204 0.064838134 -0.089444287
7.4337845 -0.27990079 -0.80052114
0.93759078 -0.0012160538 -0.10980991
0.93693477 0.033106312 -0.118669
0.95662445 0.068818189 -0.13098769
7.475358 -0.2876071 -1.0838774
0.96456397 -0.0017897536 -0.14896066
0.96741229 0.033811308 -0.1591585
0.95312411 0.068415888 -0.16665448
4.3661809 -0.17134261 -0.79904455
0 -0 -0
0.96974641 0.033299793 -0.19642599
0.95217288 0.068046935 -0.20325506
3.6249313 -0.14573883 -0.8045429
0 -0 -0
0.93744469 0.03209231 -0.22669932
0.94291008 0.067715801 -0.23866327
3.1579695 -0.12994607 -0.82682091
2.5070617 -0.0088525191 -0.68129879
0.93392712 0.031727102 -0.26384598
0.95225847 0.068420574 -0.28026333
0 -0 0
0.94997615 -0.003827977 0.28215566
0.90314275 0.030656647 0.25883102
0.84997141 0.06066018 0.23521271
7.1240387 -0.29707545 1.9037386
0.94065404 -0.0040366799 0.24082126
0.88901985 0.0295093 0.21869849
0.8748489 0.061392125 0.20657079
7.9280634 -0.33046502 1.8020477
0.92552799 -0.0038425385 0.20047998
0.88188493 0.028933482 0.18232638
0.87803483 0.060984328 0.17304553
7.9207177 -0.32835856 1.4936221
0.89392579 -0.0039453683 0.15920179
0.86931551 0.028080629 0.14637661
0.86607629 0.059819598 0.13774835
7.9317732 -0.32951027 1.1946509
0.89123923 -0.0043846178 0.12519358
0.87311828 0.027745834 0.11426179
0.85771149 0.058474783 0.10424858
0 -0 0
0.88129443 -0.0043510739 0.091089576
0.8647747 0.027133204 0.081176125
0.8530041 0.057735074 0.072213411
0 -0 0
0.85609096 -0.004495597 0.05702737
0.87015438 0.027089169 0.049815979
0.86506087 0.058262955 0.041221317
0 -0 0
0.88858765 -0.0051005064 0.02659042
0.89039427 0.027268169 0.018317651
0.87997872 0.058897428 0.0096209366
0 -0 0
0.90496206 -0.005526193 -0.0061758873
0.8764863 0.02649007 -0.014112019
0.86679631 0.057696011 -0.022277752
0 -0 -0
0.88914853 -0.0057555297 -0.038495362
0.87539351 0.025921816 -0.046296056
0.86541277 0.057391524 -0.054110847
7.5450644 -0.32835266 -0.53313524
0.94993371 -0.006646404 -0.076097988
0.90099692 0.026538322 -0.080779724
0.91648597 0.060505424 -0.091223292
7.4567599 -0.32659602 -0.80319595
0.95444971 -0.0070944801 -0.11178742
0.94703686 0.027646255 -0.11992475
0.95208538 0.062622011 -0.1303111
7.5100336 -0.3351019 -1.0891827
0 -0 -0
0.95872444 0.02761901 -0.15769833
0.9486109 0.06224383 -0.16579545
4.3768392 -0.19866499 -0.80120307
0 -0 -0
0.96797299 0.027293662 -0.19602916
0.94866848 0.061948299 -0.20242204
3.6278701 -0.16815907 -0.80540895
2.5913136 -0.023105932 -0.6001339
0.94928354 0.026667194 -0.2295184
0.94040543 0.06173839 -0.23792893
3.1165254 -0.14740092 -0.81619143
2.5407336 -0.024561891 -0.69047719
0.95045817 0.026451167 -0.26846531
0.94212842 0.061884537 -0.27716494
0 -0 0
0.93363917 -0.0094911912 0.27731547
0.90331382 0.025114492 0.25883102
0.85032761 0.055443712 0.23521271
7.1645441 -0.34281391 1.9150889
0.92898709 -0.0096871331 0.23784508
0.88918418 0.024053821 0.21869849
0.87618053 0.05608518 0.20680006
7.9512119 -0.38031581 1.8078058
0.93525982 -0.0096219415 0.20259698
0.89281446 0.023808964 0.18455234
0.88426811 0.05596754 0.17420304
7.9548726 -0.3786819 1.5004725
0.88207126 -0.0093056895 0.1570978
0.86947143 0.022746081 0.14637661
0.87825537 0.05524841 0.13962886
7.9681239 -0.38000965 1.2004545
0.88129342 -0.0097435983 0.12380254
0.8762458 0.022464195 0.11465088
0.86102659 0.053395197 0.10460971
7.5104895 -0.35949832 0.85017866
0.873294 -0.0096704001 0.090267092
0.85696244 0.021625601 0.080428816
0.85632598 0.052683622 0.072465912
7.4517403 -0.35785943 0.56906402
0.89296305 -0.010168773 0.059486594
0.87429643 0.021849262 0.050044492
0.86939013 0.053197972 0.041411277
7.50139 -0.3626059 0.29651862
0.88953912 -0.010564552 0.02662033
0.89154428 0.021828771 0.018338209
0.87233877 0.053011637 0.0095336717
7.5361195 -0.36533937 0.021464642
0.90291137 -0.011054349 -0.0061622388
0.8796311 0.02118377 -0.014160293
0.87910831 0.053099629 -0.022585386
0 -0 -0
0.89009541 -0.011223731 -0.038538616
0.87154275 0.020456286 -0.046084899
0.86375612 0.051960509 -0.053986311
7.5468926 -0.37484005 -0.53341687
0.94688487 -0.012435691 -0.075858437
0.91010439 0.021218343 -0.08158306
0.91981995 0.055059209 -0.091519788
7.4724898 -0.37323648 -0.80512184
0.93651205 -0.012708167 -0.10969358
0.9531396 0.021972008 -0.1206782
0.94750649 0.056484144 -0.12963451
7.4564395 -0.37856686 -1.0817266
0 -0 -0
0.96972734 0.021981848 -0.15948299
0.95782548 0.056948312 -0.16734172
4.4000974 -0.22678284 -0.80570018
2.5635865 -0.037427403 -0.49390721
0.97400153 0.021483455 -0.19721963
0.95684165 0.056588154 -0.20408806
3.6491935 -0.19159339 -0.81038862
2.6037865 -0.039196126 -0.60306686
0.94068331 0.020650003 -0.2274041
0.93979865 0.055909429 -0.23768415
3.1281211 -0.16719203 -0.81948149
2.548254 -0.04027307 -0.6925751
0.94290543 0.020451814 -0.2662915
0.94536388 0.056273624 -0.27800995
6.1190896 -0.33429015 1.8932493
0.90960127 -0.014829066 0.27019751
0.92363435 0.020008622 0.26461342
0.8727842 0.051531918 0.2413325
7.2018604 -0.38890424 1.9256651
0.92600423 -0.015338973 0.23710103
0.90581977 0.018942585 0.22275729
0.87456465 0.050595544 0.20634152
7.9711256 -0.43030542 1.8128996
0 -0 0
0.89490193 0.018370507 0.18495706
0.88459486 0.050540719 0.17420304
7.9828196 -0.42912021 1.5062124
0.91251314 -0.015227012 0.1625331
0.88734144 0.017765997 0.14936389
0.87167543 0.049466792 0.13853189
7.9695916 -0.42910662 1.2010496
0.90200984 -0.015508424 0.12672372
0.873393 0.017029241 0.11426179
0.87224108 0.048720032 0.10593389
7.5140958 -0.40589663 0.85085279
0.8742128 -0.015045767 0.09036991
0.86603802 0.016538056 0.08126954
0.85364836 0.047263052 0.072213411
7.4852471 -0.40551752 0.57180208
0.88490278 -0.015507831 0.058954868
0.87341583 0.016465452 0.049987365
0.86970013 0.047862496 0.041411277
7.5169835 -0.40960535 0.29722878
0.89445448 -0.016112477 0.026769882
0.89466035 0.016412962 0.018399885
0.88462907 0.048312418 0.0096645691
7.5207553 -0.41086411 0.021427659
0.8918286 -0.016392155 -0.0060871728
0.88174391 0.015821934 -0.014192475
0.8784194 0.047650374 -0.022559751
7.5741377 -0.41775817 -0.25694364
0.8730287 -0.016366696 -0.037803311
0.8756457 0.01517744 -0.046296056
0.88199764 0.047628336 -0.055107135
7.5524182 -0.42158461 -0.53398025
0 -0 -0
0.91619265 0.015736276 -0.082118608
0.90424168 0.048560452 -0.089938454
7.4680734 -0.41896838 -0.80490786
0 -0 -0
0.95226455 0.016106462 -0.12055263
0.95575029 0.051092416 -0.13071704
7.4727497 -0.42538026 -1.084451
0 -0 -0
0.96885735 0.016014991 -0.15932074
0.95127082 0.050703097 -0.16613907
4.4280849 -0.25547686 -0.81109679
2.5937426 -0.053787693 -0.49977133
0.96431506 0.015350687 -0.19523552
0.95131063 0.050405513 -0.20283854
3.6732891 -0.2154672 -0.81601787
2.6346648 -0.055832416 -0.61028653
0.9495393 0.015016016 -0.2295184
0.95367885 0.050864834 -0.2411111
3.1222076 -0.18609485 -0.81821609
3.0149081 -0.066154048 -0.81949914
0.96610737 0.015025035 -0.27281293
0.94856584 0.050625332 -0.27885497
6.1321821 -0.37275741 1.897972
0 -0 0
0.92758465 0.014400622 0.26571482
0.87212127 0.046124734 0.24106641
7.2012677 -0.43320277 1.9261811
0 -0 0
0.90494794 0.013369879 0.22251855
0.88749552 0.045881663 0.20932201
7.9839096 -0.48014387 1.816443
0 -0 0
0.89597702 0.012893236 0.18515942
0.87606883 0.044662375 0.1724668
7.994751 -0.47897536 1.5089897
0 -0 0
0.89236397 0.012389488 0.15019369
0.87196255 0.044117361 0.13853189
7.9835892 -0.47900587 1.2035794
0.93060791 -0.021712616 0.13075773
0.8814128 0.01177585 0.11529936
0.87549806 0.043514986 0.10629502
7.523366 -0.45271084 0.85220104
0.8770873 -0.020479208 0.090678334
0.8711009 0.011288339 0.081736602
0.85889852 0.042269174 0.072634235
7.5174537 -0.45354018 0.57446414
0.87880588 -0.020795574 0.058556076
0.87250209 0.011093269 0.049930234
0.87297052 0.042671517 0.041553747
7.5342765 -0.45693076 0.2980178
0.87835062 -0.02121429 0.026291316
0.89374453 0.010910917 0.018379327
0.87292361 0.042302709 0.0095336717
7.5220852 -0.45724556 0.021439038
0.90170807 -0.022109117 -0.006155415
0.88882303 0.010493986 -0.014305115
0.88468629 0.042547729 -0.022713566
7.5484881 -0.46281761 -0.25616506
0.87191308 -0.021698337 -0.037760057
0.88570774 0.0099160867 -0.046823945
0.87031025 0.041643187 -0.054359917
7.5247998 -0.46637481 -0.53221977
0 -0 -0
0.92623144 0.010224266 -0.08301121
0.90750456 0.043153014 -0.090234958
7.458416 -0.46435127 -0.80415887
0 -0 -0
0.95532155 0.010295247 -0.12092936
0.95505613 0.045180261 -0.13058174
7.480864 -0.47190955 -1.0860282
5.1619868 -0.13630398 -0.79745847
0.96893734 0.010069894 -0.15932074
0.96632457 0.045561202 -0.16871619
4.376368 -0.27944538 -0.80192268
4.1207194 -0.11075218 -0.79411054
0.98203242 0.0096060364 -0.19880691
0.96918809 0.04539106 -0.20658711
3.6884596 -0.23907553 -0.81969845
3.4123814 -0.093263872 -0.79055232
0.94961357 0.0091894697 -0.2295184
0.94622499 0.044646628 -0.23915283
3.0862544 -0.2029634 -0.80910516
2.8784337 -0.080832437 -0.78252333
0 0 -0
0.94598323 0.044668321 -0.27800995
6.1421728 -0.41120645 1.9018092
0 -0 0
0.92861688 0.0087178228 0.26599017
0.88201696 0.041222662 0.24372719
7.1801572 -0.47616604 1.9212799
0 -0 0
0.9147234 0.0079008434 0.22490609
0.88581562 0.040346656 0.20886348
8.0012465 -0.53047788 1.8210937
0 -0 0
0.89603925 0.007395382 0.18515942
0.89593095 0.040164959 0.17632511
8.0053892 -0.52892822 1.5115818
0 -0 0
0.87664557 0.0067915791 0.14753833
0.87517679 0.038897827 0.13900201
8.0091152 -0.52987635 1.2078949
0 -0 0
0.87254471 0.0063029202 0.1141321
0.87376505 0.038055822 0.10605427
7.5452337 -0.50050902 0.85500985
0 -0 0
0.88110983 0.0060110735 0.082670741
0.85416406 0.036783915 0.072213411
7.527463 -0.50051785 0.57545292
0 -0 0
0.87754554 0.0057723229 0.050215878
0.88020164 0.037612781 0.041886177
7.5482802 -0.50428396 0.2986885
