# .PCD v0.7 - Point Cloud Data file format
VERSION 0.7
FIELDS x y z
SIZE 4 4 4
TYPE F F F
COUNT 1 1 1
WIDTH 1615
HEIGHT 1
VIEWPOINT 0 0 0 1 0 0 0
POINTS 1615
DATA ascii
2.0264325 -5.1569648 -0.18768059
1.6552083 -3.8003004 -0.17945759
1.5586525 -3.2528129 -0.19067429
1.4581816 -2.7773826 -0.19570816
0 -0 -0
0 -0 -0
0 -0 -0
0 -0 -0
0 -0 -0
0.3023378 -0.69598114 -0.088871576
0 -0 -0
0 -0 -0
0 -0 -0
0.29691187 -0.68453658 -0.11523084
0 -0 -0
0.35580018 -0.67883974 -0.13366722
0 -0 -0
0 -0 -0
0.32769096 -0.68635929 -0.15396622
0 -0 -0
0 -0 -0
0.29283482 -0.67685121 -0.17078999
0 -0 -0
0.36461079 -0.69559073 -0.19827411
0 -0 -0
0 -0 -0
0.32606882 -0.68360597 -0.21384838
0.35149375 -0.67050958 -0.22223894
1.8933641 -4.898922 1.6225742
2.9562392 -6.8564653 2.2176695
2.7806652 -5.8300967 1.8500911
3.1210632 -5.9607124 1.8572226
2.127372 -5.4941297 1.5730351
2.9239967 -6.7865705 1.891848
0 -0 0
0 -0 0
2.1444969 -5.5380692 1.3487121
2.9481361 -6.8399701 1.6133664
0 -0 0
0 -0 0
2.1424634 -5.5290918 1.1172078
2.949281 -6.8475575 1.327792
0 -0 0
0 -0 0
2.1353951 -5.5122776 0.88958925
2.9548585 -6.8700762 1.0505133
0 -0 0
0 -0 0
2.1261423 -5.4912381 0.66580659
2.9643993 -6.89259 0.77549505
0 -0 0
0 -0 0
1.8281716 -4.723866 0.38637334
2.4861047 -5.7855043 0.41946357
3.2411604 -6.8450322 0.43337616
0 -0 0
2.1141615 -5.4679461 0.23146285
2.9689603 -6.9184937 0.22528577
3.5906425 -7.59304 0.17271221
3.4006603 -6.5650778 0.080654435
2.1006162 -5.4351697 0.016577132
2.9645307 -6.9151645 -0.051345166
2.2357569 -4.7328134 -0.08423765
2.3368769 -4.5154629 -0.1303851
1.5888932 -4.1175394 -0.1494945
1.6385454 -3.8259978 -0.1801929
0 -0 -0
0.48006517 -0.92816818 -0.06519454
0 -0 -0
0 -0 -0
0 -0 -0
0 -0 -0
0 -0 -0
0 -0 -0
0 -0 -0
0.36694673 -0.71040428 -0.10920151
0 -0 -0
0.29309371 -0.68725455 -0.11538346
0.32062268 -0.68120933 -0.12378994
0 -0 -0
0 -0 -0
0 -0 -0
0.32389021 -0.68924409 -0.15416463
0 -0 -0
0 -0 -0
0.28829488 -0.67773885 -0.17056437
0 -0 -0
0 -0 -0
0 -0 -0
0.29298279 -0.69019699 -0.20376025
0.32186815 -0.68559378 -0.21384838
0.3451716 -0.66839093 -0.22083059
1.5327822 -4.039484 1.334779
2.9099977 -6.8647671 2.2145376
2.7415719 -5.8400874 1.8478882
3.0778017 -5.9669003 1.8532313
1.5563105 -4.0937338 1.1693288
2.5444951 -6.0069118 1.6701238
0 -0 0
0 -0 0
1.5400581 -4.0507708 0.98418337
2.9122126 -6.8723288 1.6167537
0 -0 0
0 -0 0
1.5438086 -4.0578632 0.81800199
2.9118164 -6.8764043 1.3298961
0 -0 0
0 -0 0
1.5376549 -4.0427499 0.65089715
2.9122632 -6.8871655 1.0503742
0 -0 0
0 -0 0
1.5511224 -4.0803013 0.49356875
2.9135289 -6.8904939 0.77323329
0 -0 0
0 -0 0
1.5561956 -4.0955834 0.33419773
2.3305743 -5.5166373 0.39892572
3.1931951 -6.8521218 0.43257636
3.4830611 -6.8193336 0.36405832
1.5567935 -4.1010365 0.17319277
2.9171283 -6.9144778 0.22456791
0 -0 0
0 -0 0
1.5450101 -4.0717092 0.012389465
2.9135005 -6.9129519 -0.051195033
2.1910787 -4.7128959 -0.083642282
2.3154826 -4.5421858 -0.13074401
1.5448326 -4.0776768 -0.14770029
1.6150386 -3.8359797 -0.1801929
0.4624806 -0.99636334 -0.058068026
0.50652874 -0.99423659 -0.069615565
0 -0 -0
0 -0 -0
0 -0 -0
0 -0 -0
0 -0 -0
0.29223618 -0.6959759 -0.08840628
0.31924534 -0.6885339 -0.09606538
0.36482731 -0.71705782 -0.1098781
0 -0 -0
0.29269233 -0.69815427 -0.1169097
0.31809574 -0.68674529 -0.1244389
0.34431687 -0.67700821 -0.13246454
0 -0 -0
0.28745425 -0.68656713 -0.14338632
0.31389543 -0.6787641 -0.15138689
0 -0 -0
0 -0 -0
0.28826511 -0.68938184 -0.17304613
0 -0 -0
0 -0 -0
0 -0 -0
0.28948554 -0.6937629 -0.20428474
0 -0 -0
0.33845377 -0.66536498 -0.21914057
1.5066336 -4.0452313 1.3335984
2.2601883 -5.424233 1.7453221
2.6988323 -5.8419628 1.8432072
3.0367653 -5.9770789 1.8505706
1.5193403 -4.0715246 1.1603004
2.2774601 -5.4697161 1.5168514
0 -0 0
0 -0 0
1.5158559 -4.0619712 0.98462629
2.2702122 -5.4501638 1.2788802
3.1550872 -6.8499851 1.5583745
0 -0 0
1.5243815 -4.0819888 0.8209644
2.2646325 -5.4407816 1.0495396
3.1364834 -6.818675 1.2631207
0 -0 0
1.5190457 -4.0687842 0.65357578
2.2644892 -5.4482083 0.82878149
3.1455834 -6.8478999 0.98568624
0 -0 0
1.521541 -4.0776396 0.49210817
2.2771807 -5.479013 0.61326104
3.1353996 -6.8329601 0.70536357
0 -0 0
1.5265067 -4.0929098 0.33320898
2.265686 -5.4561925 0.39354205
3.1427681 -6.853436 0.4314338
0 -0 0
1.5322984 -4.1123843 0.17327167
2.2704659 -5.475256 0.17736916
3.137109 -6.850244 0.15492909
4.759306 -9.4707785 0.11562578
1.5238367 -4.0914207 0.012420759
2.2625327 -5.461782 -0.040344581
2.1612875 -4.7244325 -0.083610088
2.2871203 -4.5554142 -0.13071837
1.5187383 -4.0842686 -0.14759873
1.5941452 -3.8522792 -0.18049568
0 -0 -0
0.45073491 -0.89830697 -0.062703826
0 -0 -0
0 -0 -0
0 -0 -0
0 -0 -0
0 -0 -0
0.29023364 -0.70326447 -0.089104228
0.31089675 -0.68145388 -0.094809622
0 -0 -0
0 -0 -0
0 -0 -0
0.31305751 -0.6868884 -0.12411442
0 -0 -0
0 -0 -0
0.28286248 -0.68740994 -0.14319715
0 -0 -0
0.33969712 -0.67872375 -0.16160442
0 -0 -0
0.28402972 -0.69113761 -0.17304613
0.30709285 -0.67508084 -0.17924516
0.34566593 -0.69004762 -0.19484715
0 -0 -0
0.27936497 -0.6812405 -0.2000889
0 -0 -0
0 -0 -0
1.4922793 -4.0831161 1.3430439
2.2054303 -5.3856592 1.7285237
3.0830226 -6.7825961 2.1339791
3.0017588 -5.9990478 1.8516347
1.4979837 -4.0907502 1.1631379
2.2394531 -5.4728284 1.5138752
3.1175301 -6.8721981 1.8553559
3.4444981 -6.9043312 1.8174103
1.4986165 -4.092257 0.98971999
2.2352467 -5.4603729 1.2780334
3.105721 -6.8531599 1.5547321
4.8009486 -9.6405354 2.1174448
1.4901766 -4.0663528 0.81596529
2.2330697 -5.4591308 1.0504162
3.1047504 -6.8602514 1.2672696
0 -0 0
1.4981337 -4.0891705 0.65536153
2.2325149 -5.4656677 0.82933789
3.1059563 -6.8724933 0.98646444
4.7609806 -9.5908804 1.2984123
1.4339677 -3.9161446 0.47154745
2.2408864 -5.4864368 0.61254138
3.08604 -6.8357358 0.70368212
4.7816591 -9.6443691 0.9092325
1.5010216 -4.101263 0.33313292
2.2310338 -5.4672203 0.39334261
3.1072264 -6.8871512 0.43234783
4.7794237 -9.6478968 0.51189464
1.4970857 -4.0944939 0.17212757
2.2345643 -5.4835305 0.17718971
3.0929642 -6.8648062 0.1548263
4.7472291 -9.593008 0.11676022
1.5000768 -4.1044512 0.012432139
2.2380259 -5.4977903 -0.04050836
2.1408761 -4.7567525 -0.083948016
2.2741895 -4.5998302 -0.13158999
1.4963896 -4.1010213 -0.14786954
1.5463921 -3.8027577 -0.17772746
0.41911283 -0.93273711 -0.054056056
0.48544741 -0.98248178 -0.068370208
0 -0 -0
0 -0 -0
0 -0 -0
0 -0 -0
0 -0 -0
0.28591302 -0.70503211 -0.089104228
0.30955324 -0.68968439 -0.095688649
0.34679353 -0.70282179 -0.10703642
0 -0 -0
0 -0 -0
0.30924064 -0.68969673 -0.12427667
0 -0 -0
0 -0 -0
0.27974355 -0.69186366 -0.14376464
0.30874592 -0.68972158 -0.15297417
0 -0 -0
0 -0 -0
0.27650064 -0.68473727 -0.17101559
0 -0 -0
0 -0 -0
0 -0 -0
0.28167149 -0.69905323 -0.20480922
0.31037268 -0.69403774 -0.21466355
0 -0 -0
1.4617158 -4.0769062 1.3380259
2.031003 -5.0478067 1.6160601
3.0444868 -6.8084064 2.1361818
2.9657452 -6.019083 1.852167
1.470242 -4.0925908 1.1610743
2.201494 -5.4756808 1.5108992
3.0563087 -6.8486323 1.8438957
0 -0 0
1.4668844 -4.0830207 0.98529077
2.2031593 -5.4776125 1.2788802
3.059226 -6.8622484 1.5525061
0 -0 0
1.4721797 -4.0948396 0.81985348
2.2054052 -5.4873462 1.0532216
3.0509672 -6.8530474 1.2624568
4.8033619 -9.8050709 1.7324321
1.4776974 -4.1113138 0.65744483
2.2015181 -5.4856963 0.8303116
3.0391581 -6.836153 0.97855306
4.8118992 -9.8446684 1.328748
0 -0 0
2.2075505 -5.5010061 0.6126442
3.036361 -6.837254 0.70190728
0 -0 0
1.484926 -4.1357336 0.33518648
2.1309803 -5.3150306 0.38144532
2.990797 -6.7390924 0.42189333
0 -0 0
1.483742 -4.1365213 0.17350838
2.193074 -5.4776516 0.17656158
3.0374162 -6.8534918 0.15414786
4.6825843 -9.6102705 0.11661842
1.4782389 -4.1229911 0.012460588
2.1864259 -5.4668527 -0.040180802
2.1165059 -4.7807703 -0.084141105
2.254236 -4.6307759 -0.13207708
1.4769239 -4.1261225 -0.14844505
1.5285895 -3.8260911 -0.17837626
0.41055596 -0.92889756 -0.053686533
0 -0 -0
0 -0 -0
0 -0 -0
0 -0 -0
0 -0 -0
0 -0 -0
0 -0 -0
0 -0 -0
0.33598012 -0.69156849 -0.10500666
0 -0 -0
0.28015727 -0.70434177 -0.11706232
0.30619746 -0.69428974 -0.12476339
0 -0 -0
0 -0 -0
0.27404311 -0.68991679 -0.14300799
0.30371815 -0.68980902 -0.15257736
0 -0 -0
0 -0 -0
0.27265319 -0.68732655 -0.17124122
0.30152661 -0.68502605 -0.18088962
0.33166537 -0.68289948 -0.19166496
0 -0 -0
0.27418047 -0.69269294 -0.20244905
0.30223352 -0.68711984 -0.21194629
0.32573 -0.67061895 -0.21885888
0.17280366 -1.2106975 0.37782335
0.20702824 -1.1373973 0.34337008
0.25450069 -1.1488323 0.33703104
0.7074796 -2.7104313 0.77322185
0.17715575 -1.2356384 0.33328325
0.21965875 -1.2085841 0.31448129
0.27085969 -1.2270381 0.30894741
0.34235469 -1.317997 0.32074642
0.17730756 -1.2365438 0.28369462
0.21652701 -1.1904082 0.26208472
0.31693301 -1.4383814 0.30434948
0.49275458 -1.9026005 0.38641047
0.18105702 -1.2606566 0.23995711
0.21991375 -1.2108279 0.21916544
0.26018798 -1.1836984 0.2039647
0.51750076 -2.0013151 0.32799464
0.17603923 -1.2264795 0.18645957
0.2167035 -1.196597 0.17081968
0.29200029 -1.3317504 0.1783314
0.63131106 -2.4504473 0.30684713
0.17541006 -1.2236146 0.13976771
0.21924564 -1.2107546 0.12717585
0.24306999 -1.1107209 0.10667795
0.69550157 -2.7050753 0.23591399
0.18105306 -1.2643925 0.097429968
0.21759236 -1.2037814 0.081486665
0.26563871 -1.2152717 0.071182005
0.68337399 -2.661566 0.13064498
0.17778906 -1.2443842 0.04963018
0.21969275 -1.2188039 0.037059091
0.25688094 -1.1780635 0.024793589
0.69763696 -2.7218494 0.030651739
0.1756335 -1.2305241 0.0035361894
0.21385115 -1.1888919 -0.0082436148
0.25090069 -1.152861 -0.018987665
0.69075131 -2.6990976 -0.071447752
0.17868848 -1.2566314 -0.04299321
0.21427967 -1.1937853 -0.052509405
0.25940919 -1.1954707 -0.064666666
0 -0 -0
0.17625727 -1.2454596 -0.088797189
0.21510336 -1.2019931 -0.097817451
0 -0 -0
0 -0 -0
0.17241502 -1.2207668 -0.13267124
0.21258314 -1.1909066 -0.1416827
0 -0 -0
0.21771143 -0.85349357 -0.12029757
0.17612559 -1.2544695 -0.18353792
0.20169111 -1.1335479 -0.17780653
0 -0 -0
0 -0 -0
0.15424527 -1.1047865 -0.2039884
0.18974468 -1.0693278 -0.20921539
0.19760908 -0.91692197 -0.18987845
0.21306996 -0.83694422 -0.18388751
0.16114774 -1.1623724 -0.26024234
0.17096217 -0.96602494 -0.22719355
0 -0 -0
0.20384343 -0.79953468 -0.20831019
0.12337298 -0.89610791 -0.23663224
0.16025431 -0.90949708 -0.25096339
0.17568746 -0.81665713 -0.23585819
0.19630173 -0.76984167 -0.23322415
0.16614687 -1.217415 0.37959439
0.21265191 -1.2104015 0.36500865
0.2510857 -1.1672895 0.34198737
0.68536764 -2.6932352 0.76710206
0.16970192 -1.2376595 0.33354121
0.21089986 -1.2022758 0.3124972
0.25783122 -1.20304 0.30250108
0.3337833 -1.3181857 0.32028788
0.17051187 -1.2434052 0.28502342
0.21124668 -1.2032657 0.2646251
0.25586337 -1.1960994 0.25274765
0.42006665 -1.663941 0.33740985
0.17117864 -1.2461668 0.2369947
0.21299008 -1.2150638 0.21969146
0.2545664 -1.1929879 0.20529239
0.50110769 -1.9881721 0.32533056
0.16824143 -1.2255772 0.18616195
0.21583574 -1.2349728 0.17610563
0.26049823 -1.2239261 0.1636758
0.62786829 -2.5004911 0.31262535
0.17019323 -1.2414036 0.14167772
0.21164122 -1.2110972 0.12707303
0.25983381 -1.2232158 0.11732706
0.67913258 -2.7102585 0.23599814
0.17275037 -1.261528 0.097125739
0.21105926 -1.2100086 0.08181899
0.25838417 -1.2178555 0.071239136
0.6837604 -2.7325697 0.13392179
0.16920353 -1.2385215 0.049354021
0.21186763 -1.2181594 0.03699927
0.26020488 -1.2295018 0.025842074
0.67874199 -2.7173474 0.030553566
0.16862074 -1.2355418 0.0035475693
0.21373366 -1.2315621 -0.0085302303
0.2529138 -1.1974235 -0.019695681
0.67514455 -2.707165 -0.071550295
0.17339784 -1.2755299 -0.043602563
0.20371176 -1.1763737 -0.051687595
0.24610171 -1.1687019 -0.063135788
0 -0 -0
0.16513541 -1.2208163 -0.086966313
0.21213286 -1.2288295 -0.099893577
0.23543455 -1.1189166 -0.10246974
0 -0 -0
0.16704932 -1.2375669 -0.13438313
0.20493482 -1.190231 -0.14145005
0 -0 -0
0 -0 -0
0.16987237 -1.2663162 -0.18511519
0.18570578 -1.0821656 -0.16956486
0 -0 -0
0 -0 -0
0.15669625 -1.1749411 -0.21676016
0.17771426 -1.038532 -0.20297298
0.19258106 -0.9209953 -0.19047368
0.20581122 -0.82969207 -0.18201323
0.15503757 -1.1710819 -0.26197442
0.17125914 -1.0035484 -0.23576689
0 -0 -0
0 -0 -0
0 -0 -0
0.15919611 -0.93710172 -0.25830612
0.17322941 -0.82996672 -0.23939063
0.18949205 -0.76265091 -0.23068911
0.160648 -1.2335707 0.38431719
0.20185937 -1.1918354 0.35902956
0.2344918 -1.1236367 0.32877046
0 -0 0
0.16273145 -1.2434673 0.334831
0.20545712 -1.2150096 0.31547335
0.24728195 -1.1893874 0.29868102
0.35389805 -1.4345578 0.34802938
0.16401829 -1.2531303 0.28701657
0.2028811 -1.1987575 0.26335493
0.2431471 -1.1717569 0.24728394
0.41523865 -1.6884022 0.34184694
0.16557319 -1.2627835 0.23995711
0.20569462 -1.2173185 0.2198668
0.24284439 -1.1732827 0.20164125
0.46605548 -1.8981711 0.31012964
0.16405852 -1.2520791 0.19003102
0.20957001 -1.244086 0.17721847
0.25418621 -1.2313279 0.16445397
0.62477821 -2.5544405 0.31888509
0.16051014 -1.2266601 0.13988006
0.20387566 -1.2104113 0.12686743
0.25292608 -1.2277125 0.1176073
0.6575284 -2.6940458 0.2342307
0.16539417 -1.2655305 0.097353913
0.20346539 -1.2102969 0.081752524
0.25211391 -1.2252852 0.0715819
0.66792685 -2.7405956 0.13411175
0.16366777 -1.2553898 0.049985249
0.20339777 -1.2135216 0.036819804
0.24582191 -1.1977766 0.025143083
0.66087407 -2.716603 0.030499026
0.1600033 -1.2286203 0.0035248101
0.20567811 -1.2298915 -0.0085097589
0.23954311 -1.1695666 -0.019212943
0.65781313 -2.7083423 -0.07147339
0.16158313 -1.2458448 -0.042553119
0.20454675 -1.2258881 -0.053807002
0.23952535 -1.173125 -0.06329415
0.25485918 -1.0504229 -0.067436188
0.15866268 -1.2297211 -0.087529659
0.19739313 -1.1868428 -0.096380129
0 -0 -0
0 -0 -0
0.15996042 -1.2425132 -0.1348111
0.19860296 -1.1973449 -0.14214799
0 -0 -0
0.20861994 -0.86187893 -0.12110948
0.16260147 -1.2712615 -0.18568875
0.18583146 -1.1242368 -0.17597504
0.19564007 -0.9621281 -0.16142988
0 -0 -0
0.15419802 -1.212962 -0.22359575
0.18299536 -1.1103307 -0.21678194
0 -0 -0
0.20416126 -0.8452003 -0.18513703
0.14882654 -1.17976 -0.26370648
0.16241243 -0.9882378 -0.23193143
0.19049595 -0.94027537 -0.23186761
0 -0 -0
0 -0 -0
0.15577984 -0.95234603 -0.26223969
0.16966031 -0.83856016 -0.24156444
0.18548588 -0.76659703 -0.23153411
0.1504894 -1.2136732 0.37782335
0.19747385 -1.2110279 0.36443922
0.23693296 -1.1712251 0.34226272
0 -0 0
0.15593505 -1.2511536 0.33663672
0.19784243 -1.2152911 0.31522533
0.24247314 -1.2032576 0.30178481
0.3464531 -1.4423809 0.34940496
0.15704986 -1.2599192 0.28834537
0.19819376 -1.2163782 0.2669538
0.23653203 -1.176107 0.24789102
0.39116207 -1.6336637 0.33027199
0.15672581 -1.2549995 0.23829076
0.19885369 -1.2224447 0.22056811
0.2420408 -1.2066575 0.20711793
0.34992686 -1.4639294 0.23882647
0.15502582 -1.2422683 0.1883941
0.19987194 -1.2326409 0.17541011
0.24934915 -1.2464764 0.1662697
0 -0 0
0.1533491 -1.2305801 0.14021713
0.20265342 -1.2499328 0.130877
0.24343915 -1.2194778 0.11667316
0.58870262 -2.4779603 0.21512528
0.15750276 -1.2655319 0.097277857
0.19874476 -1.2282672 0.082882442
0.24829985 -1.2454119 0.072667345
0.64302874 -2.7106259 0.1324496
0.15559247 -1.2533956 0.049866892
0.19897228 -1.233496 0.037388101
0.23632301 -1.1884757 0.024916939
1.7166957 -7.2500863 0.081276193
0.15492266 -1.2494268 0.0035817076
0.19717446 -1.2252067 -0.0084688133
0.239952 -1.2092636 -0.019840501
1.2200409 -5.1610107 -0.1359994
0.15491542 -1.254748 -0.042823944
0.18989401 -1.1827307 -0.051860604
0.23832935 -1.2049412 -0.06493061
0.27295184 -1.1559008 -0.074098855
0.15378886 -1.2524533 -0.089078866
0.19404469 -1.2126389 -0.098376416
0.22438949 -1.1354011 -0.10371938
0 -0 -0
0.15305887 -1.2493925 -0.13545306
0.1918785 -1.2024642 -0.14261329
0.19881378 -1.0073757 -0.1299708
0 -0 -0
0.15443948 -1.2692879 -0.18525858
0.1809472 -1.1380442 -0.17795914
0 -0 -0
0 -0 -0
0.14687058 -1.214862 -0.22377564
0.17664026 -1.1143422 -0.21734944
0.18919486 -0.96368319 -0.19880691
0.20792393 -0.88452196 -0.19346716
0.14239858 -1.1874363 -0.26522201
0.16988145 -1.0748581 -0.25201112
0.19164771 -0.97671813 -0.24055971
0 -0 -0
0.13634352 -1.14608 -0.30192757
0.1430365 -0.90943295 -0.2501767
0.17061855 -0.87075108 -0.25053138
0.18077865 -0.7677207 -0.23153411
0.14371009 -1.2202671 0.37959439
0.19033635 -1.2141107 0.36500865
0.22974201 -1.1726568 0.34226272
0.30560166 -1.3006161 0.36878371
0.14745994 -1.2453706 0.334831
0.18873416 -1.2059541 0.3124972
0.23248172 -1.1913792 0.29844224
0.31633037 -1.3534887 0.32739523
0.14920151 -1.2598908 0.28812391
0.19087772 -1.218537 0.26716551
0.22968552 -1.1794589 0.24829575
0.36643758 -1.5729616 0.31753951
0.1504118 -1.2676479 0.24051258
0.18982811 -1.2139149 0.21881479
0.23200025 -1.1945674 0.2047945
0 -0 0
0.14646906 -1.2353404 0.18720362
0.19428737 -1.2465641 0.17721847
0.23736 -1.2255932 0.16328672
0.28582796 -1.2340519 0.15360413
0.14614598 -1.2344582 0.14055417
0.19697131 -1.2639296 0.13221353
0.23368505 -1.209218 0.11555221
0.24904953 -1.0776579 0.093422942
0.15043707 -1.2724158 0.097734205
0.19473113 -1.25214 0.084411144
0.2400859 -1.2439711 0.07249596
0.3126308 -1.354827 0.066106074
0.14871791 -1.261273 0.050143052
0.19002187 -1.2258039 0.037118908
0.23375037 -1.2144477 0.025430905
1.6833988 -7.3092051 0.081821598
0.14807212 -1.2573057 0.0036016218
0.19393206 -1.254064 -0.0086598899
0.2336591 -1.2166047 -0.01993705
1.1890227 -5.1713223 -0.1360763
0.14581703 -1.2437633 -0.042417709
0.18080549 -1.172025 -0.051341567
0.23299673 -1.2171696 -0.065511294
0.25669453 -1.1176717 -0.071545869
0.14656302 -1.2573365 -0.089360535
0.18917526 -1.2305555 -0.099733874
0.22546418 -1.1788224 -0.10755753
0 -0 -0
0.14699766 -1.2641346 -0.13695095
0.18735594 -1.222272 -0.14482345
0.1965373 -1.0290405 -0.13260789
0 -0 -0
0.14687538 -1.2721779 -0.18554536
0.17694479 -1.1586723 -0.18101163
0.21134514 -1.1088825 -0.1856038
0.19983682 -0.8729009 -0.15617415
0.13885322 -1.2108539 -0.22287622
0.1680261 -1.103756 -0.21507949
0.20925181 -1.1015577 -0.22698113
0.20903176 -0.9143855 -0.19971475
0.13124964 -1.1543367 -0.25764427
0.16182123 -1.0662483 -0.24975495
0.18456326 -0.97214586 -0.23915017
0.1943315 -0.84871709 -0.219815
0.12855001 -1.1401656 -0.300156
0.14019117 -0.92842299 -0.25515926
0.17226343 -0.90865731 -0.26112869
0.17799231 -0.77723318 -0.23406915
0.13770294 -1.2344196 0.38372684
0.18331109 -1.2180996 0.36586282
0.22558603 -1.1901014 0.34694371
0.28494641 -1.2470226 0.35308513
0.140462 -1.2520127 0.33637875
0.18492885 -1.2310395 0.31869754
0.22678839 -1.2013714 0.30059105
0.27048779 -1.1902499 0.28750253
0.14222933 -1.2675662 0.28967413
0.18208942 -1.210987 0.26526022
0.22280675 -1.1827706 0.24870047
0.27874726 -1.2306695 0.24808981
0.14175242 -1.2607344 0.23903136
0.18573719 -1.2374498 0.22284743
0.2279433 -1.2134137 0.20778178
0.31625381 -1.3987536 0.22754332
0.13943841 -1.2411292 0.18794768
0.18575595 -1.2418565 0.17638384
0.23129587 -1.2348235 0.16432428
0 -0 0
0.13856874 -1.2353317 0.14055417
0.18494545 -1.2365854 0.12923205
0.23138253 -1.2380322 0.11816778
0.27344635 -1.2172213 0.10537435
0.14229386 -1.2703421 0.097506031
0.18512985 -1.2404822 0.083547093
0.22896819 -1.2267739 0.071410514
0.26321226 -1.1734847 0.057177957
0.14186342 -1.2701062 0.050458666
0.18499686 -1.2437541 0.037627388
0.22666013 -1.2178249 0.025472021
0.26278335 -1.1738747 0.013122435
0.14157417 -1.2691228 0.0036329157
0.18461929 -1.2443496 -0.0085848244
0.22545952 -1.2140832 -0.019872684
0.2633726 -1.178533 -0.030968383
0.14160141 -1.2754277 -0.043467149
0.18063115 -1.2205507 -0.05341772
0.22297977 -1.2048293 -0.064772248
0.22634891 -1.0140244 -0.06482093
0.13961129 -1.2651526 -0.089853458
0.18016703 -1.2218318 -0.098935366
0.22202994 -1.2007512 -0.10943198
0 -0 -0
0.14130512 -1.2837902 -0.13898382
0.17754135 -1.2076763 -0.14296226
0.2141771 -1.159981 -0.14930944
0 -0 -0
0.1397115 -1.2789581 -0.18640569
0.16381769 -1.1186663 -0.17460144
0.19488245 -1.0577559 -0.17684278
0 -0 -0
0.13396662 -1.2351539 -0.22719343
0.16139223 -1.1057378 -0.21526863
0.17947873 -0.97750038 -0.20118783
0.19366002 -0.87173021 -0.19013511
0.12927695 -1.202684 -0.26825315
0.15892276 -1.0922868 -0.25562093
0.18736668 -1.0210626 -0.25089628
0 -0 -0
0.12175664 -1.1428568 -0.30066216
0 -0 -0
0.15922646 -0.86899281 -0.24944448
0.17634666 -0.79235959 -0.23829423
0.12872472 -1.2219386 0.37959439
0.17569667 -1.2182527 0.36557809
0.21931887 -1.1971368 0.3485958
0.26078165 -1.1744062 0.33206499
0.13257352 -1.2509295 0.33586285
0.1746112 -1.2129737 0.31373727
0.2225496 -1.219936 0.30488861
0 -0 0
0.13444901 -1.268415 0.28967413
0.17535245 -1.2169182 0.26631871
0.21589597 -1.1860424 0.24910519
0.26844934 -1.2198989 0.2455819
0.13432546 -1.2645122 0.23958682
0.18024321 -1.2531832 0.22547741
0.21838026 -1.2031461 0.20579025
0.27545789 -1.2540414 0.20372337
0.13526459 -1.2744117 0.19285841
0.17869452 -1.246894 0.17694026
0.22318508 -1.2332922 0.16393518
0 -0 0
0.13412744 -1.2658027 0.14392479
0 -0 0
0 -0 0
0.23963015 -1.0981567 0.094937906
0.13638492 -1.2890396 0.098875068
0 -0 0
0 -0 0
0 -0 0
0.13867971 -1.3146759 0.052194539
0 -0 0
0 -0 0
0 -0 0
0.14195594 -1.347538 0.0038548163
0 -0 -0
0 -0 -0
0 -0 -0
0.13679422 -1.3050981 -0.044448886
0 -0 -0
0 -0 -0
0 -0 -0
0.13628891 -1.3086479 -0.092881434
0 -0 -0
0 -0 -0
0 -0 -0
0.13383614 -1.288589 -0.13941179
0 -0 -0
0 -0 -0
0 -0 -0
0.13267279 -1.2876669 -0.18755281
0.16394752 -1.1695648 -0.18238524
0.19962271 -1.1220791 -0.18738845
0.19077426 -0.88299078 -0.15754864
0.12788637 -1.2506316 -0.2298917
0 -0 -0
0.19760014 -1.1146585 -0.22916366
0.19944511 -0.92453045 -0.20138077
0.12337071 -1.2180243 -0.27150077
0.16672733 -1.1974516 -0.27998728
0.1770284 -0.9992224 -0.24525814
0 -0 -0
0.1172531 -1.1686103 -0.3072423
0 -0 -0
0 -0 -0
0.16965725 -0.78498602 -0.23575918
0.12028198 -1.2131977 0.37664264
0.17149359 -1.2430482 0.37269601
0.21180183 -1.1975133 0.34832048
0.25031981 -1.1609075 0.32780775
0.12595065 -1.2622947 0.33870038
0.17126177 -1.2437729 0.32142568
0.21640731 -1.2289295 0.30679864
0.25932983 -1.2096591 0.29140007
0.12676047 -1.2701863 0.28989559
0.16988407 -1.2324939 0.26949421
0.2111565 -1.2018129 0.25214058
0.25747421 -1.2052107 0.24230234
0.12666184 -1.2662904 0.23977198
0.16812262 -1.22208 0.21969146
0.21099378 -1.2044634 0.20579025
0.25931337 -1.2161049 0.19729824
0.1274424 -1.2752177 0.19285841
0.17050248 -1.2440425 0.17638384
0.21544294 -1.2336617 0.16380548
0.26306468 -1.239104 0.15360413
0.12606218 -1.2636358 0.14358774
0.16989176 -1.2397473 0.12933485
0.20950794 -1.2025251 0.11452466
0.25766274 -1.2165859 0.10503769
0.12876943 -1.2928288 0.099103242
0.16854171 -1.2327747 0.082882442
0.21543661 -1.2383437 0.071924672
0.26222342 -1.2401484 0.060264803
0.1284385 -1.2936269 0.051326606
0.16891068 -1.2399883 0.037447926
0.21186933 -1.2214997 0.025492577
0.24918412 -1.1809247 0.013166066
0.13102111 -1.3215156 0.0037780046
0.16946992 -1.2475125 -0.0085916482
0.21497639 -1.2423745 -0.020291056
0.25033259 -1.1885237 -0.031147836
0.12682205 -1.2860208 -0.043771826
0.16644424 -1.2286155 -0.053677242
0.20919584 -1.2133794 -0.06508898
0.25189912 -1.1974119 -0.076340504
0.12504779 -1.2766982 -0.090557635
0.16609281 -1.2308656 -0.099494323
0.2108286 -1.2239982 -0.11130643
0 -0 -0
0.12515382 -1.2814695 -0.13855585
0.16416422 -1.2205918 -0.14424182
0.20278473 -1.1791434 -0.15144424
0 -0 -0
0.12343386 -1.2746658 -0.18554536
0.16109727 -1.2028736 -0.18742181
0.1915659 -1.116475 -0.18625274
0 -0 -0
0.11851712 -1.2337674 -0.22665378
0.15989043 -1.1981536 -0.23286089
0.18481134 -1.0810702 -0.22202089
0 -0 -0
0.11450843 -1.2041799 -0.26825315
0.15398286 -1.157892 -0.27051148
0.17711423 -1.0366988 -0.25418514
0 -0 -0
0.10890165 -1.1567863 -0.30395222
0.1132117 -0.85622543 -0.23470455
0.15955433 -0.93539107 -0.26792186
0.17310889 -0.82545376 -0.24758941
0.11265881 -1.2120103 0.37605229
0.16273654 -1.2355235 0.37013358
0.20671271 -1.2120576 0.35217538
0.24792941 -1.1850661 0.33419362
0.11766282 -1.2572719 0.33715263
0.16274312 -1.2380769 0.31968957
0.2077249 -1.2235326 0.30512738
0.25150624 -1.2093216 0.29094154
0.11860084 -1.2670566 0.28900975
0.16104335 -1.2238233 0.2673772
0.20328769 -1.2001892 0.25153351
0.24907883 -1.2019638 0.24133776
0.118247 -1.2601949 0.23847592
0.16113368 -1.2269932 0.22039279
0.2054055 -1.2164314 0.20761581
0.24904609 -1.2041327 0.19510429
0.11980002 -1.2779448 0.19315605
0.16119623 -1.2323005 0.17457549
0.20803387 -1.2359382 0.16393518
0.25605732 -1.2436118 0.15396528
0.11756571 -1.2564707 0.1426889
0.16228162 -1.2407664 0.12933485
0.20492814 -1.22048 0.11611268
0.24678499 -1.2015506 0.10360689
0.12055615 -1.2906162 0.098875068
0.16484705 -1.2634677 0.084876403
0.20783421 -1.2396423 0.071924672
0.2509976 -1.2241209 0.059409983
0.12049853 -1.2943906 0.051326606
0.16374691 -1.2598344 0.038016222
0.20618333 -1.233624 0.025718722
0.24393782 -1.1922278 0.013275147
0.12429827 -1.3372302 0.0038206778
0.16181214 -1.2485288 -0.0085916482
0.20504722 -1.2298627 -0.020065779
0.24463546 -1.197873 -0.031352926
0.11883681 -1.2857795 -0.04373797
0.16299987 -1.2613201 -0.05506134
0.20256485 -1.2195657 -0.065352924
0.25132909 -1.2321844 -0.078457616
0.11803206 -1.2863816 -0.091191404
0.16019131 -1.244714 -0.10053238
0.20412955 -1.2301816 -0.11175273
0 -0 -0
0.11656396 -1.2742922 -0.1376999
0.16122025 -1.2570413 -0.14842948
0.19716726 -1.1901529 -0.15269999
0 -0 -0
0.11462756 -1.2645575 -0.18396808
0.15884568 -1.2440327 -0.19367938
0.1901823 -1.15073 -0.19176896
0 -0 -0
0.11129684 -1.2383903 -0.22737332
0.15340307 -1.2059307 -0.23418504
0.18104061 -1.0995916 -0.22559227
0.2057845 -1.0141355 -0.22033182
0.10858729 -1.2213914 -0.27193376
0.1526327 -1.2042398 -0.28111535
0.15575793 -0.94664985 -0.23186761
0.19024804 -0.9358933 -0.2411111
0.10315792 -1.1728523 -0.30800152
0.11483126 -0.91147768 -0.24965221
0.15817976 -0.9629426 -0.27553019
0.16918777 -0.832142 -0.24927944
0.10678916 -1.2307642 0.38166064
0.15443633 -1.2307917 0.36842525
0.20145302 -1.226584 0.35603034
0.24180293 -1.1922334 0.3357901
0.10977789 -1.2560452 0.33663672
0.15610623 -1.2467421 0.32167369
0.20178016 -1.2343677 0.30751491
0.24292718 -1.205117 0.28956592
0.11073916 -1.266789 0.28878829
0.1559623 -1.2441834 0.27161121
0.19544679 -1.1985143 0.25092641
0.2415058 -1.2025074 0.24114484
0.10956854 -1.2501281 0.23643924
0.15653469 -1.2514042 0.22460076
0.19777952 -1.2166954 0.20744984
0.2399061 -1.1969227 0.19369391
0.11031763 -1.259939 0.19032864
0.15571301 -1.2499719 0.17694026
0.20092213 -1.2401278 0.16432428
0.24919879 -1.2490538 0.1544468
0.11063243 -1.2660774 0.14370008
0.15466537 -1.2417388 0.12933485
0.20093001 -1.2433378 0.11816778
0.23882431 -1.2001104 0.10335439
0.1111619 -1.2744451 0.097582087
0.15795256 -1.2713866 0.085341655
0.1978385 -1.2261099 0.07106775
0.24581738 -1.2373946 0.059979863
0.11220797 -1.2911236 0.051168796
0.15527713 -1.2548636 0.037836764
0.19781627 -1.2299304 0.025615929
0.24128412 -1.2172427 0.013536942
0.11289251 -1.3011063 0.0037154173
0.15378095 -1.2465208 -0.0085711759
0.19258736 -1.200493 -0.019566951
0.23825093 -1.2042547 -0.031481106
0.11025821 -1.2785186 -0.043467149
0.15635516 -1.2712208 -0.055450622
0.19602339 -1.2267023 -0.065669663
0.23970109 -1.2131416 -0.077149987
0.1120078 -1.3089471 -0.092740595
0.1524297 -1.2446841 -0.10045253
0.19799054 -1.2402629 -0.11255606
0 -0 -0
0.10908083 -1.278946 -0.13812788
0.15470716 -1.2678658 -0.14959273
0.1915784 -1.2021173 -0.15408133
0.20608701 -1.0459944 -0.14560202
0.10811564 -1.2800293 -0.18611892
0.15168607 -1.2489083 -0.19428986
0.18048429 -1.1353085 -0.18901086
0 -0 -0
0.10262963 -1.2263064 -0.22503482
0.14871319 -1.2292706 -0.23853581
0.1793488 -1.1326276 -0.23213981
0.18937261 -0.96355444 -0.20908615
0.10173482 -1.2298183 -0.27366585
0.14524075 -1.2051537 -0.28111535
0.15951753 -1.0080721 -0.24666767
0.18693697 -0.94941002 -0.24429327
0.096590281 -1.181177 -0.3100262
0.12782493 -1.0673865 -0.29213506
0.15602243 -0.98765969 -0.28232333
0.16964065 -0.86140734 -0.25772959
0.096318893 -1.1952068 0.370444
0.14744899 -1.2364755 0.36984885
0.19572279 -1.2391919 0.35933456
0.22835149 -1.1624808 0.32700953
0.10245994 -1.2615101 0.33792651
0.14845343 -1.2476765 0.32167369
0.19390084 -1.2336639 0.30703738
0.23590113 -1.2084956 0.29002449
0.10256941 -1.2625848 0.28768095
0.14959687 -1.2557921 0.27393991
0.18808916 -1.1996909 0.25092641
0.23449743 -1.205893 0.24153069
0.10277356 -1.261551 0.23847592
0.14850467 -1.2494084 0.22407478
0.19244178 -1.2315265 0.20977329
0.23236924 -1.1974026 0.19353719
0.10282533 -1.263549 0.19077508
0.14478163 -1.2233682 0.17304535
0.19330907 -1.2413373 0.16432428
0.24040051 -1.244711 0.15372452
0.10173591 -1.2528667 0.14212714
0.14669263 -1.239701 0.12902643
0.19207482 -1.2366766 0.11742047
0.23484875 -1.2191656 0.10486936
0.10374268 -1.2800723 0.097962379
0.14968076 -1.2683682 0.085075796
0.18954659 -1.2223679 0.07078211
0.2350138 -1.2222042 0.059172533
0.1025952 -1.2708722 0.05034031
0.15189092 -1.2925234 0.038943447
0.19011313 -1.2301328 0.025595371
0.23249188 -1.2118261 0.013460586
0.10410366 -1.2918068 0.0036869682
0.14799108 -1.2633319 -0.0086803632
0.18658848 -1.2105459 -0.01971177
0.23424117 -1.223367 -0.031942554
0.10312913 -1.2881373 -0.043771826
0.14553939 -1.2463559 -0.054326039
0.18940191 -1.2338041 -0.065986395
0.23225288 -1.2145895 -0.077149987
0.10152676 -1.2787837 -0.090557635
0.14720659 -1.2663889 -0.10212941
0.1859985 -1.212904 -0.10996754
0.21571743 -1.129933 -0.11425149
0.099663049 -1.2597681 -0.13598801
0.14715329 -1.2707646 -0.14982538
0.1867508 -1.2199414 -0.15621611
0.20857202 -1.0939562 -0.15209727
0.099178098 -1.2668555 -0.18411146
0.14571708 -1.2645423 -0.19657925
0.17083386 -1.1188365 -0.18609051
0.21255325 -1.1157905 -0.19809549
0.093506761 -1.2063174 -0.22125725
0.14083187 -1.2272333 -0.23796831
0.17681615 -1.1627761 -0.23809209
0.19551671 -1.0281147 -0.22283085
0.092473045 -1.2080305 -0.26868615
0.1365158 -1.1944072 -0.27840799
0.1601924 -1.054198 -0.25770897
0.18981859 -0.99625647 -0.25604284
0.089413829 -1.1827122 -0.31027928
0.11866045 -1.0451385 -0.28584129
0.1460624 -0.96290821 -0.27498674
0.17405142 -0.91332966 -0.27293986
0.09118142 -1.2253122 0.37959439
0.13889034 -1.2287841 0.36728638
0.18364692 -1.2109047 0.35079864
0.22769418 -1.1979519 0.33658832
0.094500624 -1.2592247 0.33715263
0.14198914 -1.2591532 0.32440186
0.18574803 -1.2309896 0.30608237
0.23064891 -1.2213979 0.29277569
0.094893403 -1.2641628 0.28790244
0.1413404 -1.2518306 0.27288142
0.18538833 -1.2318115 0.25740194
0.22763795 -1.2102022 0.24210943
0.095768712 -1.2719573 0.24032743
0.13830106 -1.2277946 0.22004214
0.18268764 -1.2180557 0.2072839
0.22574657 -1.2026887 0.19416404
0.093438931 -1.2424624 0.18750125
0.13892768 -1.2389952 0.1751319
0.18656805 -1.248384 0.16510244
0.23476356 -1.2568971 0.1550487
0.09441828 -1.2584218 0.1426889
0.13875075 -1.2376122 0.128718
0.18301545 -1.2279843 0.11648634
0.21696261 -1.1647463 0.10007196
0.093801863 -1.2528437 0.095832765
0.14278223 -1.2771957 0.085607521
0.18321812 -1.2314079 0.071239136
0.23061413 -1.2403179 0.059979863
0.093978144 -1.2605169 0.049906347
0.14229879 -1.2785298 0.038494792
0.18138851 -1.2233645 0.025430905
0.22724038 -1.2250278 0.013591482
0.095433235 -1.2824489 0.0036585194
0.14111862 -1.2721672 -0.0087349564
0.17813346 -1.2047441 -0.019599132
0.22509263 -1.2159346 -0.031711832
0.09500239 -1.2857556 -0.043670267
0.14052397 -1.2710578 -0.055364117
0.18313703 -1.2438347 -0.066461496
0.22588451 -1.2218802 -0.077523589
0.094115451 -1.2853518 -0.09098015
0.1399785 -1.2722225 -0.10252866
0.18232089 -1.2396429 -0.11228827
0.2293693 -1.2427932 -0.1255185
0.092799343 -1.2722554 -0.13727194
0.13935325 -1.2716435 -0.14982538
0.17983827 -1.2249905 -0.15671842
0.22143066 -1.201424 -0.16684692
0.091402955 -1.2674402 -0.18411146
0.13741972 -1.2605003 -0.19581613
0.17711715 -1.2096871 -0.20101669
0.2137312 -1.1606716 -0.20582689
0.087013215 -1.219624 -0.22359575
0.13573617 -1.2505271 -0.24231908
0.16345662 -1.121165 -0.22936206
0.19557039 -1.0639255 -0.23032796
0.084167935 -1.1959147 -0.26587155
0.12876572 -1.1913481 -0.27750552
0.16563188 -1.1369193 -0.27767733
0.18914643 -1.0269622 -0.26363111
0.082356192 -1.186134 -0.31103855
0.11780614 -1.0976596 -0.30000225
0.13322689 -0.91616839 -0.26140043
0.15992624 -0.86814237 -0.25913793
0.081774727 -1.1982051 0.37103435
0.13043167 -1.2210344 0.36472392
0.1789798 -1.2310356 0.35630566
0.22016521 -1.1983784 0.33632225
0.086639605 -1.2578532 0.33663672
0.13354193 -1.2532576 0.32266575
0.17791334 -1.2301841 0.30560488
0.22664511 -1.241941 0.29736105
0.087671071 -1.2725042 0.28967413
0.13469356 -1.2623924 0.2749984
0.17614898 -1.2212945 0.25497362
0.22090985 -1.2154377 0.24288109
0.087487951 -1.2656583 0.23903136
0.13441168 -1.2628844 0.22617877
0.17633261 -1.2269626 0.20861158
0.22435494 -1.237092 0.19949217
0.086017877 -1.2459718 0.18794768
0.13476487 -1.2723217 0.17972234
0.17820191 -1.2445976 0.16445397
0.22457905 -1.2446365 0.15336338
0.086626701 -1.2579861 0.14257655
0.13523975 -1.2770178 0.13272758
0 -0 0
0 -0 0
0 -0 0
0.13640958 -1.2919395 0.086538039
0 -0 0
0 -0 0
0 -0 0
0.13967463 -1.3290827 0.039990313
0 -0 0
0 -0 0
0 -0 0
0.13987145 -1.3356651 -0.00916488
0 -0 -0
0 -0 -0
0 -0 -0
0.13645509 -1.3076682 -0.056921232
0 -0 -0
0 -0 -0
0 -0 -0
0.13474305 -1.2978443 -0.10452493
0 -0 -0
0 -0 -0
0.084659964 -1.2678406 -0.13673697
0.13216077 -1.2784022 -0.15052332
0.17618459 -1.2535789 -0.16023453
0.21613795 -1.2144657 -0.16847073
0.083950005 -1.2729148 -0.1848284
0.13049145 -1.2691846 -0.1970371
0.16928044 -1.2078196 -0.20052998
0.191774 -1.0785483 -0.19105135
0.078504413 -1.2044294 -0.22071762
0.12606114 -1.2317996 -0.23853581
0.163211 -1.1697119 -0.23908415
0.19108963 -1.0766617 -0.23282699
0.079205781 -1.2334311 -0.27409884
0.12135459 -1.1911466 -0.27727991
0.16415595 -1.177385 -0.28730911
0.18352063 -1.0319219 -0.26461026
0.0748934 -1.1837204 -0.31027928
0.11718537 -1.1588484 -0.31652334
0 -0 -0
0.16434272 -0.92389888 -0.27547491
0.073414639 -1.1824729 0.36601636
0.12389678 -1.2313497 0.36757109
0.17261522 -1.2406802 0.35878384
0.21415484 -1.2072998 0.33845085
0.078738511 -1.2554682 0.33586285
0.12720382 -1.2675482 0.32613793
0.17089409 -1.2351002 0.30655989
0.22020251 -1.2500185 0.29896593
0.079434089 -1.2662054 0.28812391
0.12743376 -1.2680572 0.27605692
0.1717305 -1.2446651 0.25962791
0.21276978 -1.2129045 0.24210943
0.079349868 -1.2602867 0.23792046
0.12705296 -1.2676036 0.22688007
0.17081511 -1.2426757 0.21110097
0.21641952 -1.2364997 0.19917876
0.078805491 -1.2533846 0.18898936
0.1264642 -1.2681977 0.17902681
0.17177248 -1.2545091 0.16562124
0.21727844 -1.2479471 0.15360413
0.080087632 -1.2773366 0.14471127
0.12631606 -1.2669359 0.13159668
0.17170316 -1.2577591 0.11910191
0.21253857 -1.2242635 0.10495353
0.07835824 -1.2529054 0.095756702
0.12778908 -1.2858019 0.08607278
0.16849744 -1.2365311 0.071410514
0.21418247 -1.236165 0.059647433
0.07918521 -1.2725453 0.05034031
0.1291561 -1.306042 0.039272465
0.17080042 -1.2581915 0.026109336
0.21201999 -1.2267388 0.013580574
0.079874329 -1.2865176 0.003667054
0.12843786 -1.3036579 -0.0089396816
0.16977286 -1.2543995 -0.020371512
0.20862527 -1.2097391 -0.031481106
0.079032809 -1.2838321 -0.043568708
0.12725772 -1.2965494 -0.056402192
0.16719283 -1.2410401 -0.066197552
0.21188942 -1.2304617 -0.077897206
0.078031965 -1.2814316 -0.090628058
0.12522748 -1.2827733 -0.10324732
0.16483681 -1.225006 -0.11077087
0.21308954 -1.23963 -0.1249255
0.077600911 -1.2802455 -0.13802089
0.12373774 -1.2732579 -0.14982538
0.16848947 -1.2546363 -0.16023453
0.20884968 -1.2167456 -0.16860604
0.076669581 -1.282297 -0.18611892
0.12213118 -1.2640592 -0.19612136
0.16003276 -1.1951431 -0.19825859
0.19497626 -1.136991 -0.20118804
0.069431953 -1.1764109 -0.21550098
0.11897045 -1.2374371 -0.23948163
0.15926786 -1.1949795 -0.24404439
0.1867899 -1.0913107 -0.23574254
0.071183421 -1.2260967 -0.27236679
0.11404356 -1.1918688 -0.27727991
0.15962316 -1.1986037 -0.29224247
0.16980952 -0.9900254 -0.25359502
0.067518495 -1.1822259 -0.30977312
0.10378013 -1.0932584 -0.2984288
0 -0 -0
0.15915741 -0.92772698 -0.27631992
0.066637926 -1.1914868 0.36867294
0.11525764 -1.2206343 0.36415449
0.16525255 -1.2436219 0.35933456
0.21015617 -1.2285444 0.34403849
0.070651717 -1.2491754 0.33405712
0.11869737 -1.2605889 0.32415381
0.1626765 -1.2313119 0.30536613
0.21285437 -1.2532655 0.2994245
0.071993798 -1.2725105 0.28945267
0.11955895 -1.2678424 0.27584523
0.16396224 -1.2447244 0.25942555
0.20581432 -1.2170895 0.24268816
0.072730035 -1.2803725 0.24162349
0.11835097 -1.2585576 0.22512676
0.15972309 -1.217301 0.20662004
0.20833552 -1.2348827 0.19870862
0.071113378 -1.2538445 0.18898936
0.11692822 -1.2502162 0.17638384
0.16355778 -1.2516066 0.16510244
0.20830287 -1.2414244 0.15264109
0.071238853 -1.2599465 0.1426889
0.11798424 -1.2617449 0.13097982
0.16102435 -1.2360815 0.11695341
0.20568027 -1.2294757 0.10529018
0.071342655 -1.2653087 0.096669391
0.11989713 -1.2865618 0.08607278
0.16669972 -1.2820933 0.0739813
0.20741589 -1.2423822 0.059884883
0.071711153 -1.2789932 0.050577022
0.12169351 -1.3127815 0.039451927
0.16423275 -1.2681394 0.026294362
0.20416038 -1.2260439 0.013558758
0.071643859 -1.280993 0.003649985
0.12117185 -1.3123873 -0.0089942757
0.16232885 -1.2574009 -0.020403694
0.20021547 -1.2050794 -0.031327289
0.07082215 -1.2783054 -0.04336559
0.11710415 -1.2734292 -0.055364117
0.16059284 -1.2499664 -0.066619866
0.20531549 -1.2376463 -0.078270815
0.070222303 -1.2828822 -0.090698481
0.11690038 -1.2785542 -0.10284807
0.16137373 -1.2576075 -0.11362717
0.20808031 -1.256622 -0.12650684
0.071420036 -1.311474 -0.14133768
0.11601283 -1.2749822 -0.1499417
0.160662 -1.2546625 -0.16010897
0.2010567 -1.2160492 -0.16833542
0.068482079 -1.2768139 -0.18525858
0.11374971 -1.2578949 -0.19505301
0.15769474 -1.2352549 -0.20474824
0.19104648 -1.1566333 -0.20445241
0.064185672 -1.2141428 -0.22233656
0.1097919 -1.2205399 -0.23607667
0.15230317 -1.1988512 -0.24463964
0.18899928 -1.1464791 -0.24740472
0.062950447 -1.2128609 -0.26933569
0.1082914 -1.2100122 -0.28134099
0.14969525 -1.1793108 -0.28730911
0.17653306 -1.0685343 -0.27342245
0.061395619 -1.2048403 -0.31559402
0.1027851 -1.1582768 -0.31599885
0.1071495 -0.84590477 -0.24074925
0.15064617 -0.91164595 -0.27124983
0.058945853 -1.1842391 0.36631155
0.1077658 -1.2213186 0.36415449
0.15665248 -1.2369826 0.35713172
0.20214391 -1.2269573 0.34324026
0.064347446 -1.2766036 0.34127998
0.11070561 -1.2583984 0.32340977
0.15548208 -1.2351774 0.30608237
0.20657428 -1.2631932 0.30148789
0.064577334 -1.2807199 0.29122439
0.1116058 -1.266605 0.27542183
0.15583394 -1.2418203 0.25861612
0.19991918 -1.2280141 0.24461733
0.064574182 -1.2749058 0.24051258
0.11010944 -1.2533758 0.22407478
0.15567498 -1.2456567 0.21126692
0.20328768 -1.2517357 0.201216
0.064317442 -1.2720342 0.19166794
0.10847937 -1.2420315 0.1751319
0.155875 -1.2525866 0.16510244
0.20210612 -1.2514995 0.15372452
0.064906769 -1.2881473 0.1458348
0.10937479 -1.2525358 0.12995172
0.15637814 -1.2607595 0.11919532
0.20034979 -1.2444878 0.1064685
0.064477913 -1.283648 0.098038428
0.11208717 -1.2882673 0.086139239
0.15478241 -1.2503954 0.072096065
0.19915514 -1.2396866 0.059694927
0.06421075 -1.286395 0.050853182
0.11122385 -1.2856202 0.038614433
0.15718243 -1.2750769 0.026417714
0.19884838 -1.2410965 0.013711472
0.06408076 -1.287401 0.003667054
0.11225866 -1.3031434 -0.008926034
0.15363508 -1.2504342 -0.020274965
0.19770892 -1.2368866 -0.032122005
0.063321427 -1.2857035 -0.043602563
0.10920294 -1.2731282 -0.055320863
0.15304133 -1.2519194 -0.066672653
0.19756027 -1.2378972 -0.078208543
0.062446181 -1.2852817 -0.090839311
0.1085451 -1.2732881 -0.10236896
0.15425768 -1.2635174 -0.11407347
0.19942668 -1.2519788 -0.12591383
0.061932456 -1.2820944 -0.13812788
0.10801965 -1.2736907 -0.14970906
0.15583974 -1.2792599 -0.16312277
0.1968594 -1.2378086 -0.17117709
0.060317829 -1.2702901 -0.18425485
0.10578038 -1.2556148 -0.19459513
0.14975555 -1.2332606 -0.20426151
0.17235267 -1.0848142 -0.19156675
0.053521495 -1.1457306 -0.20974468
0.10262864 -1.2251047 -0.23683333
0.14788315 -1.2240893 -0.24959987
0.17721291 -1.117671 -0.24094887
0.053633247 -1.1722634 -0.26024234
0.100056 -1.2009454 -0.27908483
0.14595075 -1.2091573 -0.29435673
0 -0 -0
0.0515333 -1.1501052 -0.30116832
0.096390702 -1.1675413 -0.31835902
0.1010365 -0.83890253 -0.23857544
0.15047199 -0.94666731 -0.28139001
0.053593945 -1.2284871 0.37988958
0.098074786 -1.1952057 0.35618237
0.14974912 -1.2436473 0.35878384
0.19717628 -1.2443597 0.34776357
0.05642771 -1.275044 0.34076408
0.10329804 -1.2629161 0.32440186
0.1491693 -1.2467144 0.30870867
0.19806361 -1.2596292 0.30034155
0.05645898 -1.2752466 0.28989559
0.10311367 -1.2584993 0.27351651
0.14786342 -1.2398359 0.25800905
0.1957183 -1.2505449 0.24886149
0.056488171 -1.2693877 0.23940168
0.10289762 -1.2599151 0.22512676
0.14756373 -1.2426715 0.21060309
0.19590802 -1.2549112 0.20152941
0.056774426 -1.2783321 0.19256081
0.10390048 -1.2801809 0.18041785
0.149234 -1.2623818 0.1662697
0.19244401 -1.2399633 0.15215959
0.055947665 -1.2646966 0.1431383
0.10217001 -1.259132 0.13056858
0.14607657 -1.239942 0.11714023
0.19072957 -1.232892 0.10537435
0.056336924 -1.2780427 0.097582087
0.10209037 -1.2630727 0.084411144
0.15060422 -1.2810677 0.073809914
0.19063051 -1.2349622 0.059409983
0.056316368 -1.2867647 0.050853182
0.10221276 -1.2723297 0.038195688
0.1495882 -1.2780033 0.02645883
0.19001237 -1.2343868 0.013624207
0.056049459 -1.2847728 0.0036585194
0.10290553 -1.286862 -0.0088100219
0.14769728 -1.2662503 -0.020516334
0.18677779 -1.2163385 -0.031558014
0.055818636 -1.2950543 -0.043907236
0.10091349 -1.2677988 -0.05506134
0.14570208 -1.2558107 -0.066831023
0.18920474 -1.2341534 -0.077897206
0.054558665 -1.2856406 -0.090839311
0.10253748 -1.2967855 -0.10420553
0.14661661 -1.2654294 -0.11416272
0.19143993 -1.2512115 -0.12571616
0.054943949 -1.3033112 -0.14037473
0.099813111 -1.2693788 -0.14912744
0.14627856 -1.2654092 -0.16123913
0.18701643 -1.2243015 -0.16914731
0.052931074 -1.2805246 -0.18568875
0.097997159 -1.2552549 -0.1944425
0.14376667 -1.24788 -0.20653288
0.16911101 -1.10825 -0.19551836
0.046649907 -1.149969 -0.21046422
0.095413469 -1.2296274 -0.23758999
0.14137374 -1.2337373 -0.25138557
0.15930898 -1.0462176 -0.22532988
0.046284825 -1.1686684 -0.25937632
0.092760175 -1.202508 -0.27931044
0.13886042 -1.2129273 -0.2950615
0.14351161 -0.94026709 -0.24013197
0.040663239 -1.0517942 -0.27535388
0.084153719 -1.1017189 -0.30026448
0 -0 -0
0.14205402 -0.93049937 -0.27631992
0.042977586 -1.1466825 0.35450459
0.090449162 -1.1919615 0.35504353
0.14026125 -1.2283053 0.35410285
0.18721703 -1.2302984 0.34350631
0.047940854 -1.257988 0.33612081
0.095400892 -1.2615942 0.32390583
0.14228292 -1.2543604 0.31037995
0.19047625 -1.2617834 0.30057082
0.049153294 -1.2892115 0.29299608
0.094503753 -1.2474138 0.27097613
0.14168319 -1.2533703 0.26063973
0.18410565 -1.2255234 0.24365275
0.048434645 -1.2628365 0.2381056
0.094720304 -1.2546326 0.22407478
0.13541487 -1.2033757 0.20379873
0.18776532 -1.2531594 0.2010593
0.048324656 -1.2628462 0.19017984
0.093525767 -1.2472191 0.17568831
0.14137499 -1.2622882 0.16614
0.18483211 -1.2411207 0.15215959
0.04803529 -1.2610443 0.1426889
0.094739653 -1.2637029 0.13097982
0.14199908 -1.2724783 0.12012945
0.18403885 -1.2399529 0.10587934
0.048229359 -1.2713895 0.097049676
0.094041243 -1.2596952 0.084145278
0.14075224 -1.2641075 0.0727816
0.18568315 -1.2538943 0.060264803
0.04853256 -1.2900816 0.050971538
0.094182193 -1.2699424 0.038105953
0.14152344 -1.2769097 0.026417714
0.18258078 -1.2365186 0.013635115
0.047715746 -1.273101 0.0036243808
0.094492413 -1.2804884 -0.0087622534
0.14069314 -1.2740895 -0.020628972
0.18193288 -1.2352637 -0.032019462
0.047612917 -1.2883812 -0.043670267
0.092913046 -1.2654051 -0.054931585
0.13930184 -1.2685928 -0.067464493
0.18453228 -1.2550399 -0.079142563
0.047175579 -1.2999072 -0.091825165
0.092621833 -1.2705476 -0.10204956
0.13960925 -1.2732357 -0.11478753
0.18332563 -1.249409 -0.12541966
0.046802819 -1.2996495 -0.13994676
0.092166029 -1.2719486 -0.14936008
0.1398059 -1.2781174 -0.16274604
0.18510117 -1.2636592 -0.17442471
0.044864092 -1.2748909 -0.1848284
0.089230105 -1.2410464 -0.19215316
0.13739015 -1.26051 -0.20847979
0.16473238 -1.1258377 -0.19843912
0.040202074 -1.1679295 -0.21370214
0.08786682 -1.2301897 -0.23758999
0.13274495 -1.2248375 -0.24940148
0.16842952 -1.1536349 -0.24823771
0.039047845 -1.166979 -0.25894332
0.084138595 -1.1855625 -0.27524936
0.12984598 -1.199261 -0.2915377
0.14279421 -0.97566682 -0.24894416
0.037541624 -1.1545187 -0.30218062
0.080906861 -1.1522714 -0.31390095
0.10189521 -0.94341475 -0.26792186
0.15176897 -1.0367359 -0.30758545
0.033726357 -1.0762565 0.33266166
0.083867051 -1.2030132 0.3581754
0.1329283 -1.2310545 0.35465357
0.18063872 -1.238101 0.34536889
0.040221084 -1.2582585 0.33612081
0.087859452 -1.2650551 0.32464984
0.13458364 -1.2552098 0.31037995
0.1818942 -1.2571483 0.2991952
0.04130426 -1.2914382 0.293439
0.08779788 -1.2616198 0.27393991
0.13461415 -1.2600586 0.26185384
0.17798063 -1.236342 0.2455819
0.041033123 -1.2739141 0.24014227
0.087088324 -1.2561722 0.22425009
0.13449253 -1.2649815 0.21408825
0.17670406 -1.2308251 0.19729824
0.040543318 -1.2621306 0.19003102
0.087231018 -1.2675284 0.1784704
0.13529612 -1.2789088 0.16821514
0 -0 0
0 -0 0
0 -0 0
0.13617121 -1.2921385 0.12190431
0 -0 0
0 -0 0
0 -0 0
0.13737758 -1.306649 0.075181
0 -0 0
0 -0 0
0 -0 0
0.13930373 -1.3314496 0.027527874
0 -0 0
0 -0 0
0 -0 -0
0.13629311 -1.3077468 -0.021159982
0 -0 -0
0 -0 -0
0 -0 -0
0.13429376 -1.2962425 -0.068889797
0 -0 -0
0.039018251 -1.2941898 -0.091402657
0.08548788 -1.281038 -0.10284807
0.13251159 -1.2810035 -0.11541236
0.17427175 -1.240656 -0.12443133
0.037847847 -1.2671162 -0.136416
0.084425464 -1.2734812 -0.14947641
0.13226636 -1.2819117 -0.16312277
0.17789435 -1.2686961 -0.17496599
0.036523417 -1.2573357 -0.1822474
0.082261749 -1.2514322 -0.19367938
0.12914874 -1.2564213 -0.20766859
0.16847932 -1.2029246 -0.21184018
0.033452146 -1.1829036 -0.2164004
0.078782149 -1.207189 -0.23305006
0.12771758 -1.250005 -0.25436172
0.16513783 -1.1817693 -0.25406882
0.03140676 -1.1496301 -0.25504619
0.077303551 -1.1928618 -0.27682871
0.12238631 -1.1990681 -0.29130277
0.16276693 -1.1618434 -0.29618722
0 -0 -0
0.074637018 -1.1652656 -0.31731007
0.11637819 -1.1431668 -0.32444084
0.12063807 -0.86090547 -0.25519451
0.02803643 -1.1127385 0.3438783
0.078003883 -1.2274222 0.36529338
0.12371742 -1.2155881 0.34997258
0.17143872 -1.2277298 0.34217593
0.032774162 -1.2691057 0.33895832
0.079789624 -1.2607362 0.32340977
0.12726967 -1.2598766 0.31133497
0.17364319 -1.2543842 0.29827815
0.033228215 -1.2858182 0.29211023
0.079374552 -1.2514057 0.27161121
0.12727226 -1.2647585 0.2626633
0.17052509 -1.2383828 0.24577482
0.032806005 -1.2584238 0.23717983
0.078882448 -1.2488225 0.22284743
0.12564759 -1.2549894 0.21226269
0.16592409 -1.2084029 0.19353719
0.033183526 -1.2771835 0.19226319
0.077222601 -1.2324595 0.17346266
0.12528457 -1.2580081 0.16536185
0.1689169 -1.2383773 0.15155768
0.032095283 -1.2436588 0.14066654
0.079846799 -1.2746978 0.13200791
0.12627487 -1.2731344 0.12003604
0.17189519 -1.2648276 0.10781512
0.033237435 -1.2958083 0.098875068
0.079630889 -1.277684 0.085275196
0.12788311 -1.2925645 0.074324071
0.1688059 -1.2451905 0.059742413
0.032444544 -1.280591 0.050577022
0.079331212 -1.2829742 0.038464881
0.12897696 -1.3103896 0.027075585
0.16846436 -1.2465936 0.01372238
0.032215182 -1.2785891 0.0036386054
0.078219607 -1.2725687 -0.0087008355
0.12543768 -1.2797004 -0.020693336
0.16449085 -1.2205611 -0.031583652
0.031700309 -1.2848719 -0.043534853
0.077377588 -1.2664499 -0.054931585
0.12517591 -1.2851152 -0.068256333
0.16845183 -1.2522643 -0.078831218
0.030861039 -1.2854297 -0.090768889
0.078349188 -1.2934783 -0.10380628
0.12301014 -1.2649397 -0.11389495
0.16811204 -1.2525508 -0.1255185
0.030473219 -1.2842222 -0.13823487
0.077325366 -1.2858722 -0.15087229
0.12353633 -1.2738122 -0.16199259
0.17155358 -1.280566 -0.17645448
0.028989188 -1.2654514 -0.18339452
0.07411138 -1.2440211 -0.19245839
0.1233345 -1.2768337 -0.2109134
