# .PCD v0.7 - Point Cloud Data file format
VERSION 0.7
FIELDS x y z
SIZE 4 4 4
TYPE F F F
COUNT 1 1 1
WIDTH 1459
HEIGHT 1
VIEWPOINT 0 0 0 1 0 0 0
POINTS 1459
DATA ascii
7.4275169 0.048516449 0.2222648
7.3956289 0.3173717 0.15221536
7.8210006 0.61995578 0.085584886
7.4955888 -0.22518086 0.021333778
7.4426856 0.045887534 -0.050792407
7.4213357 0.31549031 -0.11954184
7.8460293 0.61904603 -0.20183285
7.5061879 -0.22943313 -0.25437084
7.442903 0.043160811 -0.32223645
7.4171276 0.31077248 -0.3924343
7.8355193 0.61629033 -0.49036011
7.5216055 -0.23489767 -0.53123391
7.4639859 0.039374813 -0.59792417
7.4028602 0.30900982 -0.66400039
7.7321415 0.60585099 -0.77030802
7.427412 -0.23403218 -0.79966521
7.1311741 0.034507487 -0.83520669
7.2498684 0.30072236 -0.91846031
7.758131 0.60598016 -1.0627865
5.4868131 -0.17739081 -0.79537874
5.1548443 0.022065032 -0.79608482
4.8872008 0.20083986 -0.80422902
7.7167597 0.60152918 -1.3499013
4.4035263 -0.14575303 -0.80570018
4.1427984 0.015780745 -0.79808295
3.9799442 0.16112083 -0.80633855
3.7845213 0.29381108 -0.8082304
3.7428434 -0.12748189 -0.83052385
3.5061865 0.011764687 -0.81198567
3.3934531 0.13702185 -0.82081604
3.2111881 0.25042808 -0.81316864
3.1132655 -0.10897604 -0.81492603
3.0532584 0.0079534631 -0.82972646
2.8809574 0.1155727 -0.81409115
2.8066754 0.2189803 -0.82642472
6.1805406 -0.2236395 1.9106646
6.3967991 0.013474201 1.8999242
6.6404333 0.26620674 1.9035093
6.8870058 0.53399968 1.9067129
7.2106957 -0.25637865 1.926439
7.4971943 0.013829302 1.9193776
7.831531 0.30806959 1.9269819
7.7672243 0.59297651 1.8348346
7.9543061 -0.28267896 1.8075844
7.8724155 0.015620635 1.7052442
7.8481245 0.30570427 1.6229274
7.7921491 0.58927119 1.536382
7.9491005 -0.28068811 1.4986212
7.8790164 0.013571003 1.4031849
7.8408642 0.30144688 1.3205428
7.8119183 0.58774954 1.2430259
7.9514341 -0.28146526 1.1973294
7.4350004 0.0090430193 1.0443926
7.3787985 0.27981332 0.96584284
7.8229485 0.58157718 0.95123816
7.4756069 -0.2659283 0.84579688
7.431406 0.0089089451 0.76809275
7.4022603 0.27772734 0.69499469
7.8177972 0.57735276 0.66212463
7.4804826 -0.26727825 0.57096547
7.4365172 0.0065788189 0.49536714
7.3827882 0.27519029 0.42275029
7.8598862 0.57784045 0.37469608
7.4982848 -0.27027303 0.29624248
7.4386702 0.0029455021 0.22259381
7.4204168 0.27283192 0.15268822
7.8525815 0.57399648 0.085890315
7.5110545 -0.27178341 0.02138214
7.4428272 0.00021920935 -0.050792407
7.4311252 0.27023861 -0.11967056
7.8536682 0.57118213 -0.2019354
7.5116301 -0.27574256 -0.2546078
7.4530187 -0.0025121646 -0.322669
7.4268785 0.26554143 -0.3928566
7.8600578 0.5697161 -0.49166772
7.539959 -0.28179002 -0.53264225
7.4630904 -0.0064232256 -0.5978443
7.4175568 0.26404154 -0.66516078
7.7297583 0.55796623 -0.76971507
7.4377589 -0.28005046 -0.80094916
7.1382041 -0.0092582405 -0.83602095
7.0899687 0.25052196 -0.89799154
7.7636795 0.55850792 -1.0630571
7.4229445 -0.28559056 -1.0762779
5.1588359 -0.009572247 -0.79669535
4.873549 0.17033179 -0.80179542
7.7399578 0.5555793 -1.3533375
4.393703 -0.17242265 -0.80408126
4.2115531 -0.009799215 -0.81132436
3.9926124 0.13710096 -0.80871952
3.7599118 0.2687017 -0.80260754
3.7712555 -0.15162171 -0.83701909
3.4730692 -0.0096569899 -0.80431473
3.3349717 0.11416881 -0.80648577
3.1952565 0.22946975 -0.80876249
3.120271 -0.12839483 -0.81695068
3.029125 -0.010695943 -0.82317048
2.8768032 0.097729929 -0.81273252
2.7926536 0.20065451 -0.82191795
6.1456413 -0.26014408 1.9003333
6.4398985 -0.025949899 1.9127364
6.641942 0.2254568 1.9035093
6.8959222 0.49214345 1.9083095
7.2080216 -0.30057758 1.9261811
7.5203881 -0.032272652 1.9253299
7.8361855 0.26010707 1.9276983
7.7833395 0.54619235 1.8378153
7.9611907 -0.33184585 1.8095776
7.8870234 -0.032744758 1.7084198
7.8439794 0.25735062 1.6217132
7.8014913 0.54185629 1.5375395
7.9570465 -0.32986459 1.5004725
7.8789515 -0.034773987 1.4031849
7.8622785 0.25396731 1.323862
7.8045392 0.5390569 1.2413021
7.9643779 -0.33086476 1.1995616
7.4339256 -0.036572583 1.0442536
7.3892961 0.23481604 0.96701008
7.8283505 0.53370059 0.9514789
7.4787989 -0.31199986 0.84635866
7.4313211 -0.036689475 0.76809275
7.4068103 0.23239636 0.69527489
7.8221865 0.52944005 0.6622088
7.4856753 -0.31346464 0.57149792
7.4434018 -0.039087594 0.49583238
7.4003038 0.2303822 0.42366433
7.8682671 0.52993786 0.37493351
7.4944892 -0.31619233 0.29616359
7.4505424 -0.042766225 0.22295274
7.4349422 0.22769381 0.15295547
7.8609438 0.52613699 0.085944854
7.5282283 -0.31866881 0.021436194
7.4476881 -0.045479655 -0.050826527
7.4476347 0.22509007 -0.11991193
7.8630099 0.52338052 -0.20208921
7.5187831 -0.32221296 -0.25491247
7.4488664 -0.04821711 -0.32249597
7.4353552 0.22017288 -0.39322615
7.865397 0.52160907 -0.49179226
7.5390854 -0.32809243 -0.5327127
7.4718814 -0.052278534 -0.59856296
7.4289932 0.21881653 -0.66605335
7.7389936 0.51092011 -0.77030802
7.4567599 -0.32659602 -0.80319595
7.1797266 -0.053367324 -0.84090662
7.2143388 0.21060368 -0.91356289
7.7689376 0.51099038 -1.0633277
7.4596114 -0.33285201 -1.08187
7.4642739 -0.059651464 -1.1527662
4.8656249 0.14016931 -0.80033523
7.757966 0.50904489 -1.3559146
4.3434281 -0.19714847 -0.79508704
4.1849022 -0.035416272 -0.80621696
3.9649665 0.11179905 -0.80296564
3.8317616 0.25021502 -0.81760174
3.6873591 -0.17091651 -0.81861591
3.4865832 -0.031088771 -0.80747342
3.4123683 0.09585996 -0.82504457
3.2130518 0.2109395 -0.81292379
3.1010635 -0.14666961 -0.81214207
2.9768944 -0.028778363 -0.80900949
2.8446407 0.079166099 -0.80349386
2.7708533 0.18200594 -0.81515777
6.1630158 -0.29877344 1.9062368
6.4396181 -0.065463886 1.9127364
6.6412783 0.18464494 1.9029586
6.8930402 0.44944528 1.9067129
7.1896358 -0.3440145 1.9217957
7.5171423 -0.078385971 1.9245858
7.8405466 0.21209905 1.9284146
7.788487 0.49854875 1.8382738
7.9658232 -0.38101467 1.8111278
7.907197 -0.081349149 1.7128655
7.8395376 0.2090594 1.620499
7.8134828 0.49453488 1.5392758
7.97156 -0.37947628 1.5036203
7.8874497 -0.083211139 1.4047629
7.8617172 0.20566894 1.3235301
7.8096714 0.491283 1.2416155
7.9710875 -0.38015097 1.2009009
7.4325714 -0.082174659 1.0441145
7.39258 0.18952258 0.96726948
7.8255329 0.48528799 0.95075661
7.4787283 -0.35797805 0.84658337
7.4329457 -0.082308546 0.76829845
7.4100871 0.18699488 0.69546169
7.8153419 0.48082215 0.66136712
7.5005417 -0.36020306 0.57279086
7.4579878 -0.084929138 0.49682936
7.4145527 0.18529472 0.42440701
7.8723674 0.48171011 0.37498102
7.50139 -0.3626059 0.29651862
7.4671311 -0.088682882 0.22346121
7.4381986 0.18211852 0.15299658
7.8650227 0.47795394 0.085955769
7.5271301 -0.36490357 0.021439038
7.4722667 -0.091482997 -0.050997134
7.4308834 0.17895471 -0.1196223
7.8650756 0.47506389 -0.20206358
7.5306396 -0.36902612 -0.25538641
7.4584203 -0.094047561 -0.32292852
7.4445524 0.17473371 -0.39364845
7.8604798 0.47285861 -0.49129412
7.5329447 -0.37414727 -0.53243101
7.4873676 -0.098333597 -0.59984058
7.4511065 0.17371649 -0.6679278
7.7638364 0.46473303 -0.7724824
7.4655385 -0.37288928 -0.80437285
7.1971402 -0.097662866 -0.84300041
7.1926827 0.1658075 -0.91067463
7.7640142 0.46283981 -1.0622451
7.4683003 -0.37916905 -1.0834472
7.4479561 -0.10522688 -1.1503242
4.8476501 0.10988688 -0.79725266
7.7638936 0.46160874 -1.3564302
4.4973536 -0.23179546 -0.82350874
4.1551509 -0.060663648 -0.80054212
3.919523 0.086452536 -0.79364032
3.7902646 0.22415839 -0.80843866
3.6462686 -0.19143984 -0.80973911
3.4541814 -0.051997557 -0.80002815
3.4031744 0.074706934 -0.82269537
3.1610529 0.18805376 -0.79946077
3.1136301 -0.16641751 -0.81568521
2.9342072 -0.046372741 -0.79747099
2.8585429 0.062002391 -0.807298
2.755635 0.16403162 -0.81036937
6.1906414 -0.33819905 1.9153873
6.4055481 -0.10442849 1.9027712
6.6432476 0.14391217 1.903234
6.8889327 0.40674421 1.9048504
7.1980019 -0.38869587 1.9246334
7.5184574 -0.12454091 1.925082
7.8417006 0.16398636 1.9284146
7.7991729 0.4511998 1.8401078
7.9740462 -0.43046311 1.8135638
7.9202299 -0.13008997 1.7158293
7.8504639 0.16115397 1.6225227
7.822248 0.44691876 1.5404333
7.9798756 -0.42896196 1.5056568
7.9310875 -0.13234523 1.4126529
7.8608594 0.15738699 1.3231982
7.8342319 0.44458559 1.2450632
7.9725542 -0.42926615 1.2014961
7.4398479 -0.1279147 1.0452273
7.382699 0.14394638 0.96584284
7.5934529 0.42414108 0.92222673
7.4912744 -0.40466386 0.84826863
7.4412513 -0.12806875 0.76922369
7.4081092 0.1414669 0.69518149
7.6609464 0.42415562 0.64806908
7.5121298 -0.4069739 0.5738557
7.4663048 -0.13084623 0.49742755
7.4165483 0.1398152 0.42446414
7.596911 0.41808331 0.36173132
7.5169835 -0.40960535 0.29722878
7.4924302 -0.13496673 0.22423889
7.4321785 0.13634679 0.15285268
7.6022186 0.41518143 0.083054215
7.5367312 -0.41173691 0.021473177
7.4775634 -0.1374405 -0.051038079
7.444838 0.13358951 -0.11983148
7.5384355 0.40892684 -0.19360368
7.547194 -0.41627207 -0.25602964
7.4956603 -0.14052139 -0.32457212
7.4504771 0.12913804 -0.3939124
7.5792003 0.40928078 -0.47354776
7.5404673 -0.42091748 -0.53313524
7.4955926 -0.14444622 -0.60055923
7.4639826 0.12819934 -0.66899896
7.6860542 0.41276383 -0.76447684
7.4650955 -0.41880134 -0.80458689
7.3026586 -0.14391582 -0.85544711
7.1013145 0.12011059 -0.89899611
5.8581758 0.31316584 -0.80121708
7.4253225 -0.4226805 -1.0775683
7.4649558 -0.15128514 -1.1530715
4.8857245 0.08075992 -0.8034178
4.5881352 0.24454936 -0.80131602
4.3956771 -0.25360709 -0.80516058
4.1674628 -0.086422697 -0.80300122
3.9621198 0.063071981 -0.80217201
3.7876618 0.20069054 -0.80760562
3.705451 -0.21735375 -0.82316262
3.4839911 -0.073830888 -0.80702215
3.3919063 0.053639606 -0.81987637
3.1369741 0.16731174 -0.79309642
3.0787499 -0.18350461 -0.80682737
2.9917536 -0.065645978 -0.81320536
2.9098692 0.045254685 -0.8216995
2.7987483 0.1493703 -0.82276297
6.1693759 -0.3750183 1.9094838
6.415329 -0.14396681 1.9059032
6.6391997 0.10307264 1.9018574
6.8884106 0.36431414 1.9040521
7.1819797 -0.43204245 1.9210219
7.5214252 -0.1707589 1.9260739
7.8532395 0.1160253 1.9310408
7.808599 0.40368825 1.8417126
7.9897494 -0.48049507 1.8177717
7.9300299 -0.17892765 1.7181579
7.8601174 0.11310821 1.6243439
7.8209229 0.3987141 1.5396616
7.994751 -0.47897536 1.5089897
7.937016 -0.18116423 1.4138802
7.8715372 0.1092876 1.3248577
7.8437171 0.39685661 1.2461601
7.9727316 -0.47835442 1.2019426
7.4616933 -0.1740936 1.0484266
7.4022813 0.098895952 0.96830708
7.3371301 0.36467826 0.89080769
7.5074959 -0.45175588 0.85040337
7.4691639 -0.17439833 0.77220517
7.4257622 0.096228257 0.69676954
7.3479118 0.3616145 0.62138885
7.5055099 -0.45281962 0.57355148
7.4653611 -0.17665616 0.49742755
7.4202614 0.094343565 0.42463553
7.3908176 0.36126927 0.3518059
7.5113363 -0.45553949 0.29711041
7.4874644 -0.18084036 0.22411926
7.4258771 0.090655804 0.15270877
7.4218483 0.35966983 0.081058033
7.5340633 -0.45797366 0.021473177
7.4785786 -0.1833684 -0.051051725
7.4795108 0.088307664 -0.12037858
7.3870306 0.35526875 -0.18965571
7.544498 -0.46257296 -0.25602964
7.5016484 -0.18668523 -0.32487491
7.4601159 0.083520949 -0.39438748
7.4190707 0.35499269 -0.46339807
7.5616369 -0.46865791 -0.53482527
7.510509 -0.19084072 -0.60183686
7.4656243 0.082409784 -0.66908818
7.4081397 0.35226661 -0.73660582
7.4792547 -0.46564868 -0.80640572
7.2668872 -0.18782319 -0.85137576
6.9630342 0.075038768 -0.88141555
6.0678234 0.28704685 -0.82963383
7.4601221 -0.47060111 -1.0830171
7.4727783 -0.19732119 -1.1544451
4.8969817 0.050892957 -0.80520248
4.5698686 0.21546456 -0.79787982
4.4882803 -0.28659135 -0.82242942
4.150167 -0.11154364 -0.79978544
3.9790936 0.038922664 -0.80554497
3.8005459 0.17799519 -0.81010467
3.7225578 -0.24128567 -0.82727623
3.4688649 -0.094807625 -0.80363798
3.3183019 0.032111414 -0.80202234
3.1389101 0.14810617 -0.79334122
3.0543971 -0.20086835 -0.80075336
3.0453134 -0.085518762 -0.82789075
2.8908455 0.027218001 -0.81626499
2.7794847 0.1312443 -0.81684786
6.1688652 -0.41299346 1.9100741
6.4085755 -0.18316349 1.9041948
6.669507 0.0626131 1.9103931
6.8741469 0.32127574 1.8995289
7.1579843 -0.47469559 1.9153467
7.520236 -0.21690628 1.9260739
7.8722534 0.067995906 1.9355772
7.8119016 0.35581231 1.841942
7.9954081 -0.53009081 1.8197647
7.9326911 -0.22769421 1.7190049
7.8861251 0.065087445 1.6296053
7.8389058 0.35142142 1.5427482
7.9897003 -0.52789164 1.5086194
7.9298506 -0.22969043 1.4128282
7.8760042 0.06101726 1.3255216
7.853898 0.34907183 1.2474139
7.9804997 -0.52798325 1.2035794
7.4723625 -0.22022448 1.0500959
7.4077058 0.053510357 0.96895552
7.3630323 0.32068831 0.89369678
7.5135064 -0.49840444 0.85141456
7.4759078 -0.22045955 0.77302766
7.435173 0.050723951 0.69761026
7.3738852 0.31755069 0.62340879
7.5095544 -0.49932709 0.57408386
7.472116 -0.22269724 0.49795929
7.4456592 0.04897609 0.42606372
7.4028749 0.3163397 0.3522808
7.5283403 -0.5029518 0.29789945
7.4892111 -0.22686996 0.22420898
7.4342918 0.045138333 0.15287323
7.41892 0.31391209 0.081003487
7.5470753 -0.50526196 0.021518694
7.4963036 -0.2298349 -0.051181387
7.4909101 0.042474952 -0.12055559
7.387074 0.3098523 -0.18960445
7.5504923 -0.509462 -0.2563343
7.4963675 -0.23258704 -0.32470191
7.4744682 0.037815697 -0.39512652
7.4161234 0.30925551 -0.46308672
7.5685711 -0.5157246 -0.53552943
7.5032187 -0.23673213 -0.6013577
7.4779415 0.036658611 -0.67015928
7.4061847 0.30663982 -0.73621047
7.5099831 -0.51383936 -0.81004351
7.2229118 -0.23104301 -0.84637386
6.9752679 0.032368224 -0.88292241
7.2396073 0.29797101 -0.98957944
7.488688 -0.51855445 -1.0876055
7.4516721 -0.24252661 -1.1513926
4.860692 0.020689281 -0.79919952
4.6842999 0.19206145 -0.81763786
4.3922343 -0.30752972 -0.80516058
4.2396941 -0.13998771 -0.8171885
3.9635754 0.014449502 -0.80237037
3.7927713 0.15431428 -0.8082304
3.7297719 -0.26474443 -0.82922482
3.4604282 -0.11582966 -0.80183303
3.3184364 0.011750091 -0.80202234
3.1291034 0.12840609 -0.79064858
3.0531073 -0.219606 -0.80075336
3.0331581 -0.10380676 -0.82474393
2.8765225 0.0094322581 -0.81218904
2.7840724 0.11434473 -0.81797451
6.1624036 -0.45055848 1.9088935
6.3929605 -0.22198334 1.8999242
6.6534233 0.021635456 1.9057122
6.882731 0.27936438 1.9013914
7.1713185 -0.51979464 1.9197321
7.4974642 -0.26230034 1.9206177
7.8676667 0.019679239 1.9343833
7.8275542 0.30840918 1.8451517
7.9968681 -0.57949215 1.8208721
7.937005 -0.2765682 1.7202749
7.8893142 0.01670409 1.6302124
7.8477783 0.30358168 1.5440987
7.9921913 -0.57733041 1.5097302
7.9322271 -0.27848092 1.4135295
7.8870778 0.012707332 1.327347
7.8637872 0.30117702 1.2486675
7.9978218 -0.5784387 1.2067044
7.4748297 -0.26621088 1.0506523
7.4237599 0.0080737751 0.97103071
7.385694 0.27628288 0.89622474
7.5192261 -0.54514372 0.85242575
7.4664612 -0.26604334 0.77220517
7.441318 0.0051057315 0.69817072
7.373703 0.27222586 0.62324047
7.5192776 -0.5463348 0.57507259
7.4805799 -0.2688995 0.49862394
7.4568014 0.0032943143 0.42669213
7.4086695 0.27105665 0.35247076
7.5639782 -0.55197155 0.29943806
7.4986658 -0.27321899 0.224538
7.444427 -0.00047911599 0.15307882
7.425703 0.26856527 0.081058033
7.5508146 -0.55207086 0.02153861
7.5027461 -0.27612123 -0.051235978
7.4840302 -0.0034859474 -0.12044294
7.4048204 0.26509246 -0.19001462
7.5821095 -0.55835032 -0.25751916
7.4987926 -0.27872795 -0.32487491
7.4915357 -0.0080657648 -0.39602396
7.438827 0.26448995 -0.46439436
7.569243 -0.56245041 -0.53581107
7.5145741 -0.28325468 -0.60239577
7.4820099 -0.0092307823 -0.67051637
7.4417391 0.26238272 -0.7395708
7.4987564 -0.55931842 -0.80918753
7.24617 -0.27630371 -0.84928191
6.6826711 -0.0099941362 -0.84587765
7.2531819 0.25396004 -0.99120331
5.3961735 -0.40694204 -0.784051
7.4530063 -0.28835928 -1.1518506
4.8488865 -0.0091134999 -0.79725266
4.6834211 0.16324688 -0.8172943
4.3677049 -0.33275548 -0.80102324
4.1995077 -0.16446231 -0.80962193
3.9616294 -0.0098659303 -0.80197358
3.7975566 0.13117442 -0.80906337
3.6716206 -0.2832692 -0.81666732
3.4859357 -0.13810152 -0.80792457
3.3408022 -0.0086696902 -0.8074255
3.2160723 0.11221288 -0.81243426
3.0806377 -0.24059521 -0.80834591
2.9206147 -0.11790073 -0.7943241
2.8707519 -0.0082014324 -0.81055868
2.7617075 0.096456029 -0.81121439
6.1680951 -0.48904142 1.91155
6.3943515 -0.26132306 1.9007782
6.6640053 -0.019220088 1.908741
6.8978028 0.23759203 1.9051164
7.2036324 -0.56659025 1.9292767
7.4831305 -0.30778143 1.9173934
7.8666692 -0.0285927 1.9341447
7.8409734 0.26076263 1.847903
8.0135775 -0.63015449 1.8255228
7.9468765 -0.32574385 1.7228154
7.8941646 -0.031723823 1.6312242
7.8514547 0.25548673 1.5444845
7.9982958 -0.62712687 1.5115818
7.9411893 -0.32759327 1.4154581
7.8919377 -0.035709418 1.3281769
7.8763461 0.25326926 1.2503914
8.0128527 -0.62897182 1.2095318
7.4780025 -0.31227717 1.0513479
7.4325933 -0.037522763 0.97219795
7.4021344 0.23142524 0.89803046
7.5385237 -0.593063 0.85500985
7.4845648 -0.31268206 0.77426136
7.4451914 -0.040575135 0.69854432
7.3891778 0.22740567 0.62441874
7.5545506 -0.59551787 0.57803887
7.4827771 -0.31496227 0.4988898
7.4536867 -0.042442769 0.42652076
7.4081964 0.22553201 0.35237578
7.5674224 -0.59892476 0.29971424
7.4988456 -0.31930983 0.22459781
7.4472828 -0.046175849 0.1531405
7.4282107 0.22302695 0.08106894
7.5642319 -0.59973502 0.021586971
7.5258875 -0.32322472 -0.051406585
7.4698701 -0.049314618 -0.12021767
7.474256 0.22166753 -0.19175787
7.5885034 -0.60565794 -0.25785771
7.5218945 -0.32581529 -0.32595623
7.4983354 -0.054083228 -0.39639348
7.4562721 0.21931069 -0.46539065
7.5795698 -0.61000413 -0.53679693
7.5276327 -0.3300128 -0.60359359
7.4818125 -0.055139359 -0.67051637
7.4501719 0.21691884 -0.74026263
7.4654527 -0.60291827 -0.80597782
7.3505082 -0.32546109 -0.86172861
6.5674057 -0.050119814 -0.83131087
7.1100068 0.20527586 -0.97144687
7.4916244 -0.61121786 -1.0890393
7.4589949 -0.33443877 -1.1530715
4.9247169 -0.039474543 -0.80974519
4.6646399 0.13394135 -0.81385803
4.3832273 -0.36100233 -0.80426115
4.224905 -0.19142695 -0.81472933
4.1075263 -0.03543359 -0.83153665
3.8344641 0.10889792 -0.81676877
3.6396532 -0.30327937 -0.8099556
3.485996 -0.15953277 -0.80815023
3.3406861 -0.029168304 -0.8074255
3.1381969 0.090220414 -0.79260683
3.108988 -0.26201168 -0.81619143
3.0345478 -0.14115499 -0.82553065
2.8870075 -0.025963007 -0.8151781
2.7353923 0.078735702 -0.80332762
6.131659 -0.5240314 1.9012189
6.3868828 -0.30028304 1.89907
6.6618395 -0.06009195 1.9081904
6.8615518 0.19419985 1.8947394
7.1807661 -0.60914695 1.9241174
7.483036 -0.35378274 1.9178895
7.8644028 -0.076842152 1.9336669
7.8502102 0.2128575 1.8497372
8.0260782 -0.68071401 1.8292878
7.9515619 -0.37482098 1.7242973
7.9085097 -0.080310069 1.6342595
7.861702 0.20753935 1.5462208
8.0099649 -0.67751688 1.5145442
7.9645982 -0.37752527 1.4200168
7.8955145 -0.084174812 1.3288407
7.8747897 0.20485906 1.2499212
8.019681 -0.67904365 1.2111688
7.4828696 -0.35848716 1.0523216
7.4371805 -0.083183043 0.97284639
7.4202857 0.1864261 0.90007687
7.5486045 -0.6404835 0.85658282
7.4924412 -0.35907677 0.77528948
7.456749 -0.086395629 0.69966531
7.4023881 0.18235672 0.62542874
7.5676446 -0.6432963 0.57933187
7.48768 -0.36120635 0.49935505
7.4642668 -0.088306844 0.42714915
7.4264164 0.18048449 0.35318309
7.5775433 -0.64653558 0.30026656
7.5127192 -0.36609429 0.22507639
7.4648542 -0.092092648 0.15351056
7.4304395 0.17746799 0.081079848
7.5793405 -0.64775491 0.021641025
7.5277572 -0.36959276 -0.05143388
7.471427 -0.095173426 -0.12024985
7.4534883 0.17528512 -0.19119388
7.6065507 -0.65409243 -0.25860247
7.5427046 -0.37309787 -0.32695106
7.4948668 -0.10005115 -0.39623511
7.4714465 0.17388083 -0.4662624
7.5895977 -0.65770572 -0.53778285
7.5403996 -0.37694177 -0.60479134
7.4952765 -0.10123418 -0.67176598
7.4523573 0.17122422 -0.74036145
7.5160913 -0.65345049 -0.81186241
7.4336805 -0.37485868 -0.87173247
6.7743006 -0.093270227 -0.85755616
7.1111326 0.16164581 -0.97144687
7.5311117 -0.6609813 -1.0953485
7.4607506 -0.38040131 -1.153682
4.9263554 -0.069719218 -0.81006968
4.617115 0.10422774 -0.80543941
4.3740711 -0.38728321 -0.803002
4.1667733 -0.21441998 -0.80375785
4.103312 -0.060578361 -0.83074301
3.8331044 0.085324503 -0.81635225
3.5871594 -0.32108024 -0.79869717
3.4460351 -0.17889911 -0.79912561
3.3258655 -0.049449064 -0.80390167
3.1280289 0.070722036 -0.78991425
3.1025045 -0.28064737 -0.81492603
2.9873683 -0.15733579 -0.8129431
2.870435 -0.043429356 -0.81055868
2.7271905 0.06175467 -0.80079257
6.1530662 -0.56391186 1.9088935
6.3609886 -0.33819419 1.891952
6.6892209 -0.10138961 1.9161755
6.8664694 0.15217994 1.8958038
7.1672711 -0.65232009 1.9215379
7.4981375 -0.4006215 1.9223537
7.8433928 -0.12477141 1.9286531
7.8542871 0.16474672 1.8504249
8.0431166 -0.73189247 1.83416
7.9627757 -0.4243319 1.7272611
7.9176602 -0.12899379 1.6362832
7.8716564 0.15947582 1.5479569
8.0320816 -0.72905087 1.5195434
7.9690137 -0.42675656 1.4212441
7.9066811 -0.13281795 1.3308322
7.8758984 0.1565364 1.2499212
8.0458927 -0.73101246 1.2157818
7.474596 -0.40407369 1.051487
7.4523926 -0.12908992 0.97492152
7.4292302 0.14104332 0.9010399
7.5583863 -0.68804997 0.85815579
7.5020161 -0.40568733 0.77652323
7.4710112 -0.1324124 0.70106655
7.408349 0.13702522 0.62584955
7.5744772 -0.69071436 0.58016849
7.5062451 -0.40828112 0.50075084
7.4685755 -0.13419475 0.4274348
7.4363728 0.13507673 0.35361052
7.5813937 -0.69374675 0.30058217
7.5193138 -0.41267753 0.22534558
7.4881392 -0.13833761 0.15400395
7.4543834 0.13228038 0.081330732
7.5811982 -0.69479626 0.021658095
7.5263467 -0.41583043 -0.051440705
7.4886961 -0.1413551 -0.12053949
7.4564228 0.12958281 -0.19124515
7.5974178 -0.70029438 -0.25843319
7.5402732 -0.41937202 -0.32695106
7.504096 -0.14623146 -0.396763
7.4733706 0.12805071 -0.46632466
7.594358 -0.70509219 -0.53841656
7.5449114 -0.42359284 -0.60535032
7.4935184 -0.14720286 -0.67167675
7.4691873 0.12576224 -0.74194282
7.4931307 -0.69780439 -0.80982953
7.4381819 -0.42085657 -0.87254673
6.9481726 -0.13830981 -0.87965745
7.390368 0.12262881 -1.0094712
7.5604153 -0.71032643 -1.1002238
5.2224708 -0.29841655 -0.80783689
4.9139967 -0.099705257 -0.80812281
4.6895723 0.077077508 -0.81798148
4.3774881 -0.41467133 -0.80408126
4.1193042 -0.23732823 -0.79486716
4.1116819 -0.085938998 -0.83252871
3.8345339 0.061819181 -0.81656051
3.6414886 -0.3484787 -0.81125468
3.4448724 -0.20004021 -0.79912561
3.3225842 -0.069794022 -0.80319691
3.1468232 0.051830862 -0.79456508
3.1161313 -0.30116776 -0.81897533
2.9834566 -0.17549297 -0.81215638
2.8768499 -0.061184444 -0.81246084
2.7658932 0.04565319 -0.81205946
6.143785 -0.60109752 1.9071224
6.3884578 -0.37897789 1.9007782
6.6654058 -0.14194079 1.9095671
6.871129 0.11010699 1.896868
7.1314001 -0.69320071 1.9130251
7.5071425 -0.44731313 1.9253299
7.8444214 -0.17293802 1.9291307
7.8794823 0.11691165 1.8561567
8.0413866 -0.78151333 1.8348244
7.9795351 -0.47434253 1.7314951
7.9382591 -0.17805634 1.6407351
7.8764119 0.11122867 1.5487287
8.041151 -0.77964878 1.5221355
7.9809871 -0.47652566 1.4238741
7.9224772 -0.18171436 1.3336536
7.8934989 0.10843849 1.2525853
8.0510988 -0.78132254 1.21727
7.4927344 -0.45117933 1.0544081
7.4623647 -0.17507033 0.97634816
7.4319415 0.095481277 0.9012807
7.5619345 -0.7351836 0.85905457
7.5113006 -0.45242885 0.77775693
7.4740391 -0.17834617 0.70144016
7.4140325 0.091627441 0.62627041
7.5760512 -0.73775733 0.58062482
7.5135579 -0.45493391 0.50141549
7.4726019 -0.18013884 0.42772046
7.4430537 0.089517526 0.35389543
7.5909171 -0.74161249 0.3011345
7.5176377 -0.45886829 0.22537549
7.4981441 -0.18455197 0.1542301
7.4350572 0.086306527 0.081112571
7.5678353 -0.74042416 0.021632491
7.5196609 -0.46175823 -0.051413409
7.5026817 -0.18767728 -0.12078086
7.4650745 0.083918519 -0.19145024
7.6019297 -0.74777859 -0.25873786
7.543541 -0.46599996 -0.32721058
7.512042 -0.19250321 -0.39723811
7.4849939 0.082313292 -0.46700963
7.6077566 -0.75344658 -0.53968412
7.5501289 -0.47037539 -0.6059891
7.5004392 -0.19338483 -0.67239082
7.4668331 0.079897858 -0.74164629
7.4778252 -0.74268734 -0.80865264
7.3650799 -0.46207297 -0.86428773
7.1951299 -0.18739794 -0.91105133
6.0326653 0.063077509 -0.82395041
7.5706854 -0.75818217 -1.1023746
5.2254729 -0.3307676 -0.80860001
4.9024415 -0.12956832 -0.80633819
4.6180463 0.047560785 -0.80543941
4.3748612 -0.44152328 -0.80408126
4.1951866 -0.26753634 -0.80981112
4.0326962 -0.10904672 -0.81665593
3.8690717 0.038631544 -0.82384932
3.6198568 -0.36883664 -0.80692452
3.4377472 -0.22079913 -0.79777199
3.359988 -0.091208369 -0.81235886
3.1684117 0.032741755 -0.7999503
3.0824664 -0.31701612 -0.81062359
2.9755831 -0.1933578 -0.81032073
2.8985467 -0.079441734 -0.81871051
2.7546077 0.02856175 -0.80867934
6.1380801 -0.63858598 1.9065319
6.4089699 -0.41967291 1.9076115
6.6884341 -0.18349539 1.916451
6.8649278 0.067877747 1.8950055
7.1318178 -0.73744202 1.914315
7.4868565 -0.49222368 1.9208657
7.840301 -0.22098517 1.9284146
7.8868647 0.068621129 1.8577615
8.0500193 -0.83224362 1.837925
7.9764743 -0.5232951 1.7314951
7.946806 -0.2270409 1.6427586
7.8838143 0.06295266 1.5500791
8.044035 -0.82978028 1.5236166
7.9897013 -0.52626359 1.4259782
7.9310708 -0.23060896 1.3353132
7.8989534 0.060040385 1.2533687
8.0500879 -0.83111465 1.2178652
7.5006943 -0.49786684 1.0559382
7.4611497 -0.22085525 0.97634816
7.4333801 0.049884606 0.9014011
7.596817 -0.7856577 0.8635487
7.50739 -0.49844289 0.77765405
7.4797702 -0.22441167 0.70209408
7.4373727 0.046276666 0.62820619
7.5832834 -0.78546196 0.58153754
7.5245638 -0.50195748 0.50234604
7.4863248 -0.22643922 0.42857736
7.4474587 0.043869659 0.35408542
7.5901995 -0.78858852 0.3012923
7.5426049 -0.50686353 0.22621298
7.5248513 -0.23141675 0.15480573
7.4484458 0.040755376 0.081254378
7.5919933 -0.78984642 0.021714991
7.5406308 -0.50950724 -0.051577188
7.5193777 -0.23426978 -0.1210705
7.4664483 0.038117208 -0.19147587
7.6091266 -0.79565638 -0.2591441
7.568449 -0.51417357 -0.32842168
7.5097213 -0.2385609 -0.3971853
7.5053191 0.036481705 -0.46825498
7.6188631 -0.80178308 -0.54081076
7.555057 -0.51723796 -0.60662794
7.5130486 -0.23984794 -0.67364043
7.4831047 0.034153394 -0.74322766
7.518611 -0.79335582 -0.81357431
7.4354296 -0.51230758 -0.87289566
7.4070325 -0.23840462 -0.93805015
6.0299668 0.026047748 -0.8235445
7.58951 -0.80713254 -1.1058159
7.601357 -0.52800584 -1.1767282
7.4953346 -0.24412775 -1.2330322
4.6251469 0.019252796 -0.80664212
4.35642 -0.46668214 -0.80120307
4.1915073 -0.29313549 -0.8094328
3.967299 -0.13164352 -0.80356085
3.8281574 0.014732549 -0.81510276
3.5719059 -0.38610941 -0.79674864
3.3993986 -0.23928912 -0.78919864
3.3564506 -0.11172614 -0.81165409
3.2005486 0.013434436 -0.80802816
3.0535345 -0.33298725 -0.80353731
2.9695275 -0.21126957 -0.80900949
2.896081 -0.097160846 -0.81816703
2.8123014 0.011902921 -0.8255797
6.1387949 -0.67676002 1.9080079
6.3861952 -0.45755109 1.9016324
6.703516 -0.2250798 1.9211318
6.8488283 0.02569259 1.8904822
7.1338816 -0.78192496 1.9161208
7.4952908 -0.53898674 1.9238418
7.8533545 -0.2695879 1.9319957
7.9046574 0.020271879 1.8618883
8.052516 -0.88247174 1.8396965
7.9877353 -0.57327735 1.7346705
7.9570079 -0.276205 1.6451869
7.8997517 0.014606327 1.5531658
8.0563765 -0.88104498 1.5269494
7.9931955 -0.5757727 1.4272054
7.9531589 -0.28010178 1.3392963
7.9159636 0.011596782 1.2560329
8.0507345 -0.88113898 1.2187581
7.5310793 -0.54631686 1.0606679
7.4705544 -0.26702145 0.97777486
7.4514155 0.0042835795 0.90356791
7.612596 -0.83453 0.86590815
7.5160956 -0.54536182 0.77888781
7.4852171 -0.27055418 0.70274794
7.4305415 0.00064033165 0.627617
7.5981441 -0.83415359 0.58305866
7.535274 -0.54913318 0.50327653
7.4947715 -0.27273324 0.42914867
7.4655676 -0.0018323259 0.35494024
7.6040888 -0.83722401 0.30204186
7.5463309 -0.5536465 0.22642235
7.5033073 -0.27684674 0.15439457
7.4845533 -0.0049721086 0.081647068
7.6178174 -0.8398121 0.021803183
7.5692749 -0.55811912 -0.051795561
7.5337858 -0.28099969 -0.12132797
7.4785376 -0.0077091418 -0.1917835
7.6239681 -0.84453082 -0.25982115
7.578104 -0.56156284 -0.32898396
7.5131054 -0.28482434 -0.39744925
7.5063996 -0.0095720245 -0.46831724
7.6375933 -0.8511681 -0.54250085
7.5646629 -0.56454957 -0.60766596
7.5393033 -0.28700349 -0.67613965
7.5030751 -0.011793997 -0.74520433
7.5175533 -0.83991575 -0.81400222
7.4380889 -0.55836701 -0.87359363
7.299355 -0.27978298 -0.92461354
7.4201059 -0.013476659 -1.0133954
7.5598278 -0.85091835 -1.1022311
7.5831919 -0.57351899 -1.1744388
4.9083705 -0.19002445 -0.80763608
4.6271482 -0.0091308225 -0.80698568
4.3691139 -0.49517632 -0.80408126
4.2033372 -0.31989178 -0.8120811
3.9546642 -0.15552175 -0.80117989
3.8399124 -0.0087837083 -0.81760174
3.5374608 -0.40436009 -0.78960389
3.3823245 -0.25895303 -0.7855888
3.3625007 -0.13258691 -0.81329852
3.1540313 -0.0061138021 -0.7962786
3.0668113 -0.35348958 -0.80758667
3.0124333 -0.2329081 -0.82107252
2.9117777 -0.11557792 -0.82278639
2.8295925 -0.0053861351 -0.83064973
6.1373739 -0.71474582 1.9088935
6.3861341 -0.49695054 1.9024866
6.7548409 -0.26830611 1.9362763
6.8652439 -0.016370591 1.8950055
7.1404662 -0.82701683 1.9192163
7.4590049 -0.58240283 1.9154093
7.847672 -0.31761304 1.9310408
7.9085259 -0.028244471 1.8628052
8.0701981 -0.93455672 1.8450116
8.0064774 -0.62402511 1.7395396
7.955163 -0.32502308 1.6451869
7.9114671 -0.033916388 1.5554807
8.0664387 -0.93226659 1.5299119
7.9934382 -0.6251142 1.4279068
7.9709959 -0.32971126 1.3426154
7.9227991 -0.037007168 1.2571299
8.0451765 -0.93052077 1.2187581
7.5364699 -0.59321576 1.0619197
7.4816542 -0.31339437 0.9794609
7.4532866 -0.041448567 0.90380865
7.5945001 -0.87973785 0.86444753
7.5274825 -0.59264058 0.78043002
7.4903793 -0.31677201 0.70340186
7.4294095 -0.0449466 0.62753284
7.6087298 -0.88259745 0.5842756
7.5685658 -0.59826756 0.5057357
7.5089164 -0.31939399 0.43006271
7.4754038 -0.047703892 0.35541511
7.6186595 -0.88617504 0.3028309
7.5527563 -0.60073203 0.22672147
7.5064621 -0.32309592 0.15449736
7.5053806 -0.051039167 0.081876144
7.6155009 -0.88688534 0.021811718
7.5736828 -0.60519004 -0.051850155
7.5369143 -0.32743785 -0.12140843
7.482348 -0.053625096 -0.19188605
7.6265841 -0.89222378 -0.26009199
7.5784988 -0.60837036 -0.32915697
7.5201955 -0.33131412 -0.39792436
7.5002112 -0.055585865 -0.46794364
7.6233101 -0.89696634 -0.54186702
7.5660248 -0.61135626 -0.60806519
7.5602865 -0.33427027 -0.67819268
7.496891 -0.057785761 -0.74461132
7.5665665 -0.89243215 -0.81988686
7.4464021 -0.60496086 -0.87498951
7.277679 -0.3236841 -0.92210203
7.4545603 -0.059281081 -1.0181315
7.5524993 -0.89705509 -1.1019444
7.5243707 -0.61552548 -1.1658919
7.4976888 -0.33635399 -1.2340057
4.6486773 -0.037698049 -0.8107655
4.3669701 -0.5220921 -0.80426115
4.1905303 -0.3447912 -0.81000024
3.968322 -0.18045203 -0.80415601
3.8613031 -0.032526053 -0.82218337
3.5358825 -0.42617476 -0.78982043
3.5059178 -0.29006398 -0.81469303
3.3664789 -0.15343761 -0.81447315
3.2441022 -0.026194518 -0.8190434
3.0424957 -0.36961704 -0.80176574
2.9888294 -0.249541 -0.81504101
2.8850567 -0.1322522 -0.81544977
2.8007219 -0.022516672 -0.82219964
6.1527877 -0.75483376 1.9150921
6.3715024 -0.53516299 1.89907
6.6820025 -0.30648839 1.9159002
6.9218855 -0.058979206 1.910704
7.1553974 -0.8732723 1.9246334
7.4755626 -0.62986749 1.9206177
7.831995 -0.36512634 1.9276983
7.9043107 -0.07673195 1.8618883
8.0701208 -0.98476571 1.8463405
8.0122375 -0.67395937 1.7416567
7.9569325 -0.37401289 1.6459965
7.91994 -0.082551643 1.557217
8.0791006 -0.98400116 1.5334297
8.0051489 -0.67547375 1.4307122
7.975718 -0.37894177 1.3437771
7.9243979 -0.085641198 1.2574433
8.0687637 -0.98345673 1.2232224
7.5573568 -0.6415416 1.0653974
7.4845424 -0.35953289 0.98010933
7.4419727 -0.087052561 0.90248448
7.6037545 -0.92812628 0.86613286
7.5445185 -0.64058441 0.78258896
7.5042067 -0.3634969 0.70489651
7.4628706 -0.090944581 0.63039446
7.6170278 -0.93096071 0.58534044
7.571712 -0.64528924 0.50620097
7.499835 -0.36512202 0.42966282
7.4879546 -0.09373375 0.35603249
7.6279554 -0.93472862 0.30342269
7.5708375 -0.64894158 0.22737949
7.5342956 -0.37062228 0.15511411
7.5059257 -0.09710329 0.081887044
7.6188488 -0.93469244 0.021837322
7.5728154 -0.65190715 -0.051870629
7.5447497 -0.37417257 -0.12156934
7.4598875 -0.099242359 -0.19132206
7.6497316 -0.94254714 -0.26107371
7.5925398 -0.65640867 -0.32993552
7.5369701 -0.37840229 -0.39892736
7.4797697 -0.10133485 -0.46669826
7.6463718 -0.94728184 -0.54390919
7.5899363 -0.6601876 -0.61030102
7.5710249 -0.38130429 -0.67935306
7.4993801 -0.10382605 -0.7449078
7.5866013 -0.94202828 -0.82266867
7.4465079 -0.65098572 -0.87545484
7.0625305 -0.35754839 -0.89510328
7.3381443 -0.1033872 -1.0022994
5.5170093 -0.68964291 -0.80555934
5.1350541 -0.4518047 -0.79608482
4.9273491 -0.25134933 -0.81120533
4.5951672 -0.065463312 -0.80148786
4.38906 -0.55206937 -0.80893815
4.1942043 -0.37101647 -0.81113523
3.9955258 -0.20626318 -0.80991
3.8131104 -0.05552021 -0.81197894
3.6629839 -0.46431357 -0.8188324
3.4245005 -0.30449519 -0.79619271
3.2994654 -0.17067651 -0.79849845
3.1711693 -0.045066152 -0.80068469
3.0737581 -0.39256817 -0.81062359
2.9814754 -0.2673583 -0.81346762
2.9043736 -0.15100141 -0.82115602
2.7775052 -0.039374731 -0.81543952
6.1281409 -0.790007 1.9088935
6.36237 -0.57373112 1.8973618
6.651195 -0.34598443 1.9076397
6.9262123 -0.10152063 1.9120345
7.1594872 -0.9183898 1.927213
7.4725218 -0.67581213 1.9208657
7.834456 -0.41343158 1.928892
7.904665 -0.12524587 1.8621176
8.075532 -1.0357531 1.848998
8.0429926 -0.72627306 1.7492778
7.9701347 -0.42366037 1.6492342
7.9202652 -0.13116217 1.5574098
8.0885067 -1.0355518 1.5363921
8.0224237 -0.72653317 1.4345694
7.9801354 -0.42824262 1.3449389
7.9326105 -0.13441336 1.2588537
8.0821943 -1.0354606 1.2261987
7.5759602 -0.68996632 1.0685967
7.4990273 -0.4063625 0.98231417
7.4611497 -0.13306805 0.90489209
7.608758 -0.9761554 0.86736876
7.56422 -0.68903023 0.78505641
7.5107818 -0.41002342 0.70573717
7.4771166 -0.13700803 0.63165694
7.6250176 -0.97945893 0.58640522
7.5745654 -0.69237202 0.50666624
7.5124063 -0.41195321 0.43051973
7.4902349 -0.13973311 0.35617498
7.6418972 -0.98406762 0.30421171
7.574676 -0.69611496 0.22761877
7.5338759 -0.41695535 0.15515524
7.4981904 -0.14302346 0.08181069
7.6337976 -0.98410821 0.021897065
7.590579 -0.70038211 -0.052020758
7.5393167 -0.42029229 -0.12152106
7.5061135 -0.14592676 -0.19252695
7.6576805 -0.99126351 -0.26154765
7.5973225 -0.70381272 -0.33032483
7.551456 -0.42559642 -0.39982477
7.4979668 -0.14760117 -0.46788138
7.6661344 -0.99752784 -0.54574007
7.5996385 -0.70804071 -0.61141896
7.5705314 -0.42786446 -0.67953151
7.5254645 -0.1503762 -0.7475763
7.5609603 -0.98598969 -0.82052881
7.38304 -0.69111031 -0.86847544
7.0701089 -0.40143892 -0.89635903
7.4215732 -0.15011437 -1.0138015
5.4979553 -0.72154999 -0.8034085
5.1331692 -0.48339701 -0.79623753
7.4910264 -0.42822421 -1.2336812
4.5828595 -0.093416579 -0.79942614
4.3865652 -0.57911849 -0.80911803
4.3003602 -0.40701488 -0.83213246
4.025497 -0.23258451 -0.81625915
3.8302996 -0.079280294 -0.81572753
3.5613544 -0.47365206 -0.79674864
3.5050039 -0.33334187 -0.81536984
3.341053 -0.19338988 -0.80883503
3.2755258 -0.066653624 -0.8271212
3.0415664 -0.40743911 -0.80277807
2.9471183 -0.28251636 -0.80455142
2.9033923 -0.16881946 -0.82115602
2.798316 -0.056845166 -0.82163626
6.117497 -0.82682586 1.9071224
6.3530049 -0.61220741 1.8956534
6.6460676 -0.38662139 1.9068136
6.9148579 -0.1437967 1.9091076
7.1355238 -0.95985496 1.9223117
7.4499135 -0.71987957 1.9161533
7.8395271 -0.46195212 1.9308021
7.9193172 -0.1740879 1.865786
8.0912542 -1.088274 1.8540918
8.0481129 -0.77654898 1.7513949
7.9840045 -0.47354195 1.6526743
7.9359879 -0.18013607 1.5606894
8.0985584 -1.0873857 1.5395398
8.0364342 -0.77754557 1.4379008
7.9921236 -0.47808304 1.3474283
7.9405236 -0.18328956 1.2602642
8.09725 -1.0879294 1.2294724
7.5912967 -0.73835588 1.0713788
7.5062904 -0.45296532 0.98361117
7.4770646 -0.17925078 0.90693855
7.6380777 -1.0275931 0.87141347
7.5885606 -0.73822349 0.7880379
7.5081248 -0.456101 0.70573717
7.4980502 -0.18342027 0.63350856
7.6247935 -1.0270253 0.58686155
7.5840778 -0.74019265 0.50759679
7.5177093 -0.45852697 0.43097675
7.5102062 -0.18620962 0.35717225
7.6565104 -1.0337465 0.30504021
7.5861788 -0.74414045 0.22809735
7.509222 -0.46182433 0.15470295
7.4921732 -0.18890278 0.081756152
7.6504083 -1.0340104 0.021962496
7.5970855 -0.74802172 -0.052095827
7.5355983 -0.466483 -0.12150497
7.5190678 -0.19233854 -0.19288586
7.6564059 -1.0389034 -0.26171693
7.6047912 -0.75159484 -0.33084384
7.5387359 -0.47130018 -0.39929688
7.5248561 -0.19432649 -0.46962488
7.6697526 -1.0458953 -0.54644424
7.6179647 -0.75692475 -0.61325556
7.5588169 -0.47374761 -0.67872822
7.5641909 -0.19758816 -0.75152969
7.5695448 -1.0343835 -0.82213372
7.3786607 -0.73639882 -0.86847544
7.1823668 -0.45204139 -0.91092581
7.3947601 -0.19497049 -1.0102831
7.6160846 -1.0471082 -1.1138457
5.1369901 -0.51557529 -0.79730588
4.9229088 -0.3117342 -0.81104314
4.5556111 -0.12082949 -0.79478735
4.2874365 -0.59281933 -0.79148936
4.263587 -0.4299455 -0.82551175
3.985847 -0.25484115 -0.80852109
3.8150749 -0.10238748 -0.81260371
3.6028609 -0.5016889 -0.80670798
3.5513556 -0.35975116 -0.82665062
3.3077927 -0.21183652 -0.80108261
3.1800699 -0.084234618 -0.80313247
3.0572126 -0.42864642 -0.80758667
2.9395692 -0.30000633 -0.80297798
2.9051831 -0.18681644 -0.82197118
2.7489965 -0.0727202 -0.807271
6.0933881 -0.86167097 1.9012189
6.3548503 -0.65176404 1.8973618
6.637814 -0.42702329 1.9051614
6.9157729 -0.18627468 1.9096398
7.134284 -1.0042931 1.9236015
7.4463196 -0.76567692 1.9164014
7.8326683 -0.50979352 1.929847
7.9297762 -0.22300498 1.8685372
8.1114626 -1.1417061 1.8602927
8.0519466 -0.82681513 1.7533002
7.9975605 -0.52360958 1.6561143
7.9533687 -0.2293644 1.5643548
8.1092501 -1.1395184 1.5428724
8.0442438 -0.8281523 1.4401802
8.0018311 -0.52795678 1.3495857
7.9520831 -0.23238328 1.2623013
8.1256742 -1.1425495 1.2348297
7.6585302 -0.7923609 1.0815334
7.5152416 -0.49980408 0.98516744
7.4797931 -0.22524534 0.9074201
7.6434364 -1.0761026 0.87276173
7.6046658 -0.78692216 0.7901969
7.5171056 -0.50295901 0.70685816
7.4918036 -0.22927158 0.63308775
7.6430316 -1.0772699 0.588763
7.5972571 -0.7885679 0.50879312
7.5306926 -0.50571644 0.43189082
7.5278921 -0.23287471 0.35807458
7.6638746 -1.0826633 0.30559251
7.6043353 -0.79305899 0.22878528
7.5511346 -0.51092857 0.15562807
7.518858 -0.23574777 0.082061574
7.6518407 -1.0820531 0.021985255
7.5804181 -0.79337335 -0.052013934
7.5555377 -0.51427346 -0.12187507
7.515748 -0.23840767 -0.19283459
7.6607718 -1.0874077 -0.26208931
7.6258702 -0.80095613 -0.33196843
7.5765491 -0.5203535 -0.40146124
7.5344954 -0.24084525 -0.47030982
7.6710911 -1.0940632 -0.54700762
7.6280465 -0.80522305 -0.61445332
7.5825968 -0.5219655 -0.68113822
7.5857115 -0.24473546 -0.75380284
7.5089211 -1.0730737 -0.81624907
7.4026456 -0.78469574 -0.87184876
7.2804098 -0.50307888 -0.92373455
7.4102592 -0.24088746 -1.0125835
5.4397073 -0.78192347 -0.79623908
7.5865989 -0.80848014 -1.1782544
4.9071221 -0.34097713 -0.80877179
4.7398896 -0.1548263 -0.82708734
4.3947058 -0.63515615 -0.81199622
4.2540345 -0.4553667 -0.82418758
3.9695427 -0.27826497 -0.80554497
3.8114424 -0.1256977 -0.81197894
3.5668674 -0.51900661 -0.79934675
3.509367 -0.37726572 -0.8174004
3.3675172 -0.23641735 -0.81588262
3.2105033 -0.10475742 -0.81096554
3.0688832 -0.44950011 -0.81138283
2.9271197 -0.31689504 -0.80009335
2.8655825 -0.20193282 -0.81110215
2.7274005 -0.088898666 -0.80107421
6.0634112 -0.89541394 1.8935444
6.3526378 -0.69095165 1.8979311
6.6331511 -0.46760893 1.9046108
6.88656 -0.22778141 1.9019235
7.1002669 -1.0439736 1.9161208
7.4472599 -0.81198227 1.9178895
7.809052 -0.55639499 1.9248332
7.9350677 -0.27189031 1.870142
8.1081638 -1.192023 1.8611785
8.0525513 -0.87684011 1.7545702
8.006896 -0.57358152 1.6587451
7.9606366 -0.27846974 1.5660911
8.1215515 -1.1921088 1.5465755
8.0664139 -0.88048649 1.4450895
8.0122118 -0.57803863 1.3519093
7.9623518 -0.28159085 1.2641819
8.1234026 -1.1931046 1.2355736
7.7775555 -0.85293996 1.0990605
7.5169783 -0.54626667 0.98581594
7.4971194 -0.27181965 0.90970725
7.6347232 -1.1226923 0.87253702
7.6046381 -0.83411098 0.79071099
7.5327449 -0.55045229 0.70863301
7.499218 -0.27556542 0.63384521
7.6560073 -1.1270508 0.59028411
7.6012025 -0.83615094 0.50939137
7.5553269 -0.55395848 0.43349043
7.534307 -0.27935669 0.3584545
7.6630182 -1.1305426 0.30582923
7.6340995 -0.84354573 0.22983216
7.5558343 -0.55784076 0.15579255
7.5282617 -0.28229034 0.082181565
7.6648426 -1.1319053 0.022042153
7.6072121 -0.84339714 -0.05223231
7.554234 -0.5607717 -0.12190725
7.5151424 -0.28455678 -0.19286022
7.6865802 -1.1392281 -0.26320645
7.6337199 -0.84916842 -0.33253071
7.5861592 -0.56780148 -0.4021475
7.5368648 -0.28722352 -0.47055888
7.6849532 -1.1441964 -0.54848635
7.6348495 -0.8533414 -0.61541152
7.6060681 -0.57049304 -0.68354821
7.6208591 -0.29268894 -0.7574597
7.5316968 -1.1235282 -0.8194589
7.4687567 -0.83807701 -0.88022411
7.1832037 -0.5406673 -0.9118048
7.411612 -0.28646624 -1.0129895
7.606576 -1.1410776 -1.1144192
7.5736389 -0.85412943 -1.1770334
4.915761 -0.37189907 -0.81055641
4.6699433 -0.18123265 -0.81506073
4.4014249 -0.66372305 -0.81397486
7.6817493 -0.86998791 -1.4892882
4.0039196 -0.30537421 -0.81288612
3.8350327 -0.1500378 -0.81718528
3.5916071 -0.54513127 -0.80562544
3.466331 -0.39416867 -0.80792457
3.2855604 -0.25093186 -0.79638416
3.2349901 -0.12543143 -0.81732994
3.0412021 -0.46452397 -0.80480272
2.9433362 -0.3369348 -0.80507594
2.8738849 -0.22024728 -0.81381941
2.8236418 -0.10938336 -0.82952309
6.086132 -0.93696278 1.9023995
6.3492308 -0.7300272 1.8982158
6.6282401 -0.50815338 1.9040601
6.8859959 -0.27007005 1.9021896
7.1013675 -1.0886915 1.9181844
7.450799 -0.8586607 1.9201217
7.8025861 -0.60407507 1.9241168
7.9497843 -0.32124197 1.8740396
8.124795 -1.2454454 1.8667152
8.058671 -0.92757422 1.7571107
8.0120134 -0.62338382 1.6605663
7.969563 -0.3277536 1.5682132
8.1315689 -1.2445954 1.5499083
8.0745516 -0.93154413 1.4475441
8.0232611 -0.6283446 1.3543986
7.98317 -0.33138373 1.2677861
8.1296139 -1.2450222 1.2376571
7.9108768 -0.9167189 1.1186742
7.5352316 -0.59409422 0.98866922
7.5072126 -0.31832066 0.91115177
7.6443882 -1.1720772 0.87444705
7.6072817 -0.88167262 0.79153341
7.5312104 -0.59681928 0.70881981
7.4844437 -0.32101947 0.63275105
7.6607742 -1.1758212 0.59119684
7.5850263 -0.88150823 0.5086602
7.5557666 -0.60062313 0.43371895
7.5733662 -0.32734957 0.36040157
7.6549497 -1.1773889 0.30578977
7.6357293 -0.8911829 0.23004153
7.5562553 -0.6045109 0.15587477
7.5283856 -0.32856476 0.082203381
7.6725788 -1.1811969 0.022084827
7.6436081 -0.89494228 -0.052518927
7.5656013 -0.60831511 -0.12214862
7.5402198 -0.3318502 -0.19355239
7.6982112 -1.1892698 -0.26384965
7.6521802 -0.89878917 -0.33356881
7.5855184 -0.61458045 -0.40230587
7.5479226 -0.3340371 -0.47136834
7.709331 -1.1962233 -0.55073977
7.6354098 -0.90087271 -0.61589062
7.5944824 -0.61650753 -0.68283415
7.6308494 -0.33997563 -0.75864571
7.5737844 -1.1773571 -0.82480854
7.4565697 -0.88307101 -0.87940985
7.1975498 -0.58618194 -0.91406518
7.424562 -0.33260274 -1.0150193
7.6444101 -1.194759 -1.1210151
5.1295733 -0.6103934 -0.79776371
4.927155 -0.40318128 -0.81282783
4.6608701 -0.20952952 -0.81368625
4.2942619 -0.67453688 -0.79490715
4.2179003 -0.50392485 -0.81832349
4.005878 -0.33025819 -0.81367975
3.8565125 -0.17458363 -0.82197511
3.5592654 -0.56258607 -0.79913026
3.469651 -0.41612631 -0.80927831
3.3527379 -0.27676457 -0.81306362
3.3164907 -0.14897692 -0.83813649
3.0402057 -0.48347959 -0.80530888
2.9479198 -0.35579786 -0.80691159
2.8465841 -0.23573251 -0.80648285
2.7433581 -0.12313582 -0.80614436
6.0812116 -0.97444016 1.9026947
6.3455834 -0.76908696 1.8985004
6.6202068 -0.54841709 1.9026834
6.9390984 -0.31480679 1.917356
7.1088648 -1.1345282 1.9220537
7.4434667 -0.90412813 1.9196255
7.7919588 -0.65137321 1.9224455
7.9651647 -0.37082967 1.8781663
8.1237411 -1.2963504 1.8682654
8.0722322 -0.97935808 1.7613448
8.0226755 -0.6737622 1.6636018
7.9732823 -0.37692574 1.5693706
8.1451302 -1.2978684 1.5539817
8.0901852 -0.98368543 1.4514015
8.0271158 -0.67822683 1.3557264
7.992825 -0.38092551 1.2696667
8.1520939 -1.2997075 1.2422702
8.0112638 -0.97820455 1.1336974
7.5472527 -0.64166236 0.99074441
7.510076 -0.36461878 0.91175371
7.6635466 -1.2231889 0.87748057
7.6076527 -0.92905688 0.79215032
7.5482388 -0.64479828 0.71078151
7.4942765 -0.36752281 0.63376105
7.6662154 -1.2248498 0.59218562
7.6349368 -0.93482327 0.51238227
7.5728283 -0.6487627 0.43491864
7.5622363 -0.3733694 0.35997418
7.6761942 -1.2289174 0.30693388
7.6380539 -0.93899381 0.23028082
7.5842791 -0.65361083 0.15653266
7.5412087 -0.37549782 0.082367003
7.6888838 -1.2320499 0.022153104
7.6419425 -0.94231522 -0.052546222
7.5846372 -0.65670907 -0.12251872
7.5540166 -0.37891117 -0.19396257
7.717412 -1.2407663 -0.26476368
7.6604023 -0.94744194 -0.33417434
7.5955319 -0.66232723 -0.40304491
7.5467281 -0.38039425 -0.47143066
7.7116933 -1.2450942 -0.55144393
7.645566 -0.94967169 -0.61716825
7.6104012 -0.66482842 -0.68461931
7.6425328 -0.38749671 -0.76002938
7.6321783 -1.2344431 -0.83197707
7.4441118 -0.92794704 -0.87859559
6.4624777 -0.56625307 -0.82113922
7.3392615 -0.373918 -1.0036526
7.6115375 -1.2375125 -1.117287
5.1208286 -0.64124244 -0.79700059
4.9226227 -0.43323314 -0.81250334
4.6368685 -0.23696771 -0.80973464
4.4036279 -0.71943003 -0.81595361
4.1777062 -0.52514207 -0.81113523
3.9881551 -0.35344717 -0.81050515
3.8690436 -0.19894662 -0.82489061
3.5586367 -0.58488977 -0.79977977
3.5714202 -0.45057765 -0.83364463
3.3606586 -0.29819047 -0.81541282
3.3029261 -0.16868083 -0.83495432
3.062953 -0.50638551 -0.81214207
2.9188764 -0.37047705 -0.79956895
2.8585041 -0.25438869 -0.810287
2.837419 -0.14480804 -0.83402985
6.0807729 -1.0126772 1.9044658
6.348352 -0.8089776 1.9007782
6.6186323 -0.58919811 1.903234
6.9129691 -0.3561385 1.910704
7.109395 -1.179391 1.9241174
7.4493103 -0.95125592 1.9226017
7.781045 -0.69856369 1.9207743
7.9705157 -0.4201059 1.8800006
8.1406469 -1.3503213 1.8740234
8.0806122 -1.0307248 1.7645202
8.0300951 -0.72403109 1.6660302
7.9913955 -0.42694104 1.5734218
8.1399212 -1.3483033 1.5545372
8.0908327 -1.0341811 1.4526287
8.0345888 -0.72853613 1.3577179
8.007103 -0.43086356 1.2723308
8.1625013 -1.3527753 1.2450976
8.0699377 -1.0356619 1.1428783
7.5688472 -0.69030088 0.99411649
7.5166183 -0.41118088 0.91283709
7.6725612 -1.2729533 0.87939054
7.6254878 -0.97875834 0.79461777
7.5619869 -0.69273615 0.71246296
7.4918799 -0.41349989 0.63376105
7.6929832 -1.2775831 0.59484762
7.6399426 -0.98305345 0.51311338
7.5716872 -0.69549048 0.43509001
7.5428481 -0.41882196 0.35916683
7.6872368 -1.2791107 0.30768347
7.6599054 -0.98942769 0.23111831
7.6010323 -0.70206577 0.15696438
7.5527401 -0.42254472 0.082519718
7.6959758 -1.281669 0.022195777
7.6399837 -0.98970145 -0.052573521
7.6003771 -0.70508236 -0.12284054
7.557538 -0.42559186 -0.1941164
7.7293687 -1.2913899 -0.26544076
7.6603889 -0.99519974 -0.33443385
7.6002736 -0.70975578 -0.40352002
7.5572062 -0.42742562 -0.47224012
7.7226005 -1.2955245 -0.55278188
7.6524444 -0.99824232 -0.61820632
7.6210537 -0.71290392 -0.68595821
7.5843754 -0.43121985 -0.75449467
7.6519146 -1.2858635 -0.83497286
7.4254751 -0.97193009 -0.87708336
6.6742101 -0.626095 -0.84851474
5.8807402 -0.33579898 -0.80446464
7.6438103 -1.2909498 -1.123166
5.0981803 -0.67020375 -0.7941007
4.8903995 -0.46065348 -0.80763608
4.6284423 -0.26502034 -0.808532
4.3807039 -0.74330997 -0.81253582
4.1675911 -0.54986703 -0.80981112
4.0044508 -0.37966913 -0.81427497
3.8003745 -0.21880378 -0.81052119
3.5790398 -0.61082017 -0.80519241
3.4623518 -0.45841721 -0.8088271
3.3897312 -0.32174462 -0.82293034
3.1653416 -0.18113369 -0.80043989
3.0531137 -0.52402431 -0.8103705
2.9653325 -0.3948763 -0.8129431
2.8118615 -0.26763752 -0.79751587
2.7607994 -0.15788744 -0.81177777
6.0942163 -1.0533864 1.9106646
6.3470697 -0.84842318 1.9019171
6.6158495 -0.62988925 1.9035093
6.8962183 -0.39771646 1.9067129
7.0810771 -1.219384 1.9184422
7.4366121 -0.99604589 1.9208657
7.7843456 -0.74703628 1.9226844
7.9813914 -0.46980488 1.8832103
8.1639214 -1.4057065 1.8813318
8.0915737 -1.0826201 1.7683309
8.0459719 -0.77526158 1.6702796
8.0042973 -0.47690099 1.5765084
8.1586132 -1.4028865 1.5597214
8.0882378 -1.0843294 1.45333
8.0466518 -0.77943796 1.3605391
8.0052948 -0.48004526 1.2724875
