# .PCD v0.7 - Point Cloud Data file format
VERSION 0.7
FIELDS x y z
SIZE 4 4 4
TYPE F F F
COUNT 1 1 1
WIDTH 1530
HEIGHT 1
VIEWPOINT 0 0 0 1 0 0 0
POINTS 1530
DATA ascii
0.23837729 -1.1959285 0.036490787
0.64826733 -2.7305071 0.057707798
0.74203193 -2.6883051 0.030422667
0.19841318 -1.22807 0.0035390344
0.24389333 -1.2259458 -0.0085302303
1.2084439 -5.0990815 -0.084334195
0.74536288 -2.7042367 -0.071934842
0.19765757 -1.2274747 -0.042113032
0.24108148 -1.2141371 -0.053590737
0.64634699 -2.7347331 -0.14854857
0 -0 -0
0.19409843 -1.2104863 -0.086543813
0.2282849 -1.1528504 -0.094144307
0 -0 -0
0 -0 -0
0.19092758 -1.1928422 -0.12999642
0 -0 -0
0.20591789 -0.87288433 -0.11352039
0.22157095 -0.8063491 -0.11420827
0.18907148 -1.187487 -0.17421763
0 -0 -0
0 -0 -0
0.21861139 -0.79606795 -0.14397573
0.17563215 -1.1085612 -0.20524758
0 -0 -0
0.19294061 -0.82153016 -0.17083108
0.22714573 -0.82816428 -0.18284623
0.1685463 -1.0704844 -0.24032363
0.18327989 -0.93498975 -0.22065073
0.20947504 -0.89235264 -0.22153105
0 -0 -0
0 -0 -0
0.16235939 -0.8315708 -0.23024647
0.19003062 -0.8104741 -0.23504302
0 -0 -0
0.18207698 -1.172609 0.36660674
0.23471218 -1.2053413 0.36472392
0 -0 0
0.73508006 -2.681093 0.76736814
0.18992409 -1.2180974 0.32915589
0.23687731 -1.2181598 0.31770545
0.31042135 -1.3285849 0.3354491
0 -0 0
0.19201778 -1.2313843 0.28303024
0.23093218 -1.1867023 0.26187304
0.37682524 -1.6155893 0.34279788
0.51065475 -1.876528 0.38235927
0.1916614 -1.2272698 0.23403226
0.23231448 -1.1954746 0.21688615
0 -0 0
0.52648282 -1.9376284 0.31859198
0.19961652 -1.2789409 0.19479296
0.2332554 -1.2035694 0.17221072
0.32491422 -1.3995409 0.18792887
0.71114838 -2.6264951 0.32995999
0.18888184 -1.2115518 0.13864417
0.22897753 -1.1816065 0.12439998
0 -0 0
0.71902633 -2.6607444 0.23279987
0.19149198 -1.229563 0.094920062
0.23140062 -1.1961224 0.081154339
1.7381275 -7.5088487 0.44103137
0.72561377 -2.6886611 0.13240211
0.19381346 -1.2470455 0.049827438
0.23065597 -1.1954057 0.03643097
1.7311722 -7.4960685 0.15819789
0.72214103 -2.6802559 0.030280862
0.19225506 -1.2381576 0.0035646383
0.23636648 -1.2274193 -0.0085302303
1.1771337 -5.1064005 -0.084334195
0.72745734 -2.7039325 -0.071806654
0.18996938 -1.2276767 -0.042079177
0.23287287 -1.211669 -0.05341772
0 -0 -0
0 -0 -0
0.18514851 -1.2017957 -0.085839629
0.2242088 -1.1698933 -0.095421925
0 -0 -0
0 -0 -0
0.19252065 -1.2519711 -0.136309
0.20834288 -1.0896786 -0.12993397
0 -0 -0
0 -0 -0
0.18731739 -1.2248216 -0.17952302
0.20503828 -1.0756515 -0.16910698
0.19584174 -0.85508138 -0.14423232
0.22086379 -0.82403755 -0.14878638
0.16882683 -1.1096179 -0.20524758
0.19826742 -1.0428022 -0.2044863
0.19247898 -0.84276432 -0.17499769
0.21598996 -0.80686706 -0.17784818
0.16022369 -1.0599146 -0.23772554
0.1838931 -0.9695971 -0.22854722
0 -0 -0
0 -0 -0
0 -0 -0
0.17158228 -0.90841031 -0.25122565
0.18569587 -0.81443971 -0.23585819
0.20449172 -0.76274085 -0.23181579
0.17417453 -1.168979 0.36513087
0.22695704 -1.2048748 0.36415449
0 -0 0
0.72085792 -2.6939337 0.76976281
0.18973854 -1.2679712 0.3423118
0.22921929 -1.2186384 0.31745747
0.2867738 -1.2622842 0.31825882
0.42432985 -1.5933428 0.38838062
0.18676786 -1.2479701 0.28657365
0.22545433 -1.1977015 0.26399001
0.35455936 -1.5634326 0.33126336
0.49913099 -1.879626 0.38235927
0.18704082 -1.2478597 0.2377353
0.22788474 -1.2123586 0.21969146
0 -0 0
0.52394921 -1.9761449 0.32439029
0.19015387 -1.2693843 0.19315605
0.23024473 -1.2283379 0.17554922
0.27833599 -1.2332112 0.16536185
0.61742854 -2.3371108 0.2931239
0.18262064 -1.2205497 0.13954301
0.22996894 -1.2269849 0.12902643
0 -0 0
0.70497322 -2.6737781 0.23355736
0.18143827 -1.2139503 0.09362708
0.22992909 -1.2289044 0.083281226
1.7772799 -7.898263 0.4632543
0.71393532 -2.711416 0.13330442
0.18306282 -1.2274573 0.048998956
0.22331676 -1.1967984 0.03643097
0.26651344 -1.1871957 0.025019731
0.70568168 -2.6846364 0.030280862
0.18229635 -1.2234888 0.0035191204
0.22681703 -1.2180327 -0.0084551647
0.26955655 -1.2030107 -0.019840501
0.71085262 -2.7083452 -0.071806654
0.18390059 -1.2387052 -0.042417709
0.22324339 -1.2012881 -0.052898683
0.24757789 -1.1080937 -0.060021229
0 -0 -0
0.18229176 -1.2334998 -0.088022582
0.222293 -1.1996706 -0.097737603
0 -0 -0
0 -0 -0
0.18410966 -1.2482108 -0.13577403
0.22060852 -1.1934865 -0.14214799
0 -0 -0
0 -0 -0
0.18166542 -1.2386774 -0.18138708
0.20165801 -1.094384 -0.1718542
0 -0 -0
0.21356067 -0.8167994 -0.1472401
0.16187318 -1.1096597 -0.20506771
0.19222014 -1.0459307 -0.20486462
0.18794136 -0.84680003 -0.17559293
0.20782258 -0.79587466 -0.17514087
0.15875708 -1.0956607 -0.24551983
0.17776465 -0.96974903 -0.22832163
0.1947196 -0.87777507 -0.21730247
0 -0 -0
0 -0 -0
0.16860439 -0.92368579 -0.25515926
0.17902967 -0.80804706 -0.23368436
0.19956501 -0.76305294 -0.23153411
0.16821356 -1.1785384 0.36778742
0.21973146 -1.2071878 0.36443922
0.26739204 -1.2070247 0.35410285
0.70236707 -2.6908445 0.76763421
0.17482474 -1.21938 0.32889795
0.21983199 -1.2095373 0.3147293
0.29576874 -1.3398802 0.33735913
0 -0 0
0.18104474 -1.2626067 0.28967413
0.21862581 -1.2019469 0.2646251
0.26509422 -1.2031142 0.2545689
0.48980248 -1.8912021 0.38409549
0.1803585 -1.2557929 0.23903136
0.22431205 -1.2350446 0.22354877
0.26548067 -1.2077768 0.20811369
0.52145684 -2.0166142 0.330502
0.17870864 -1.2450775 0.18928698
0.22005643 -1.2151111 0.17346266
0.27862138 -1.2707319 0.17016058
0.59267449 -2.3004789 0.28806794
0.17484604 -1.21968 0.13931829
0.21871392 -1.2078183 0.12686743
0.26392889 -1.2060367 0.11583244
0.69177961 -2.6905992 0.23465151
0.18020503 -1.2584703 0.096973628
0.22078702 -1.2214552 0.082683042
0.24623816 -1.126516 0.065983325
0.69604284 -2.7109079 0.13306697
0.17821305 -1.2473518 0.049748536
0.21614647 -1.1991299 0.03646088
0.26135397 -1.198577 0.025225319
0.69738865 -2.7208805 0.030640829
0.18057895 -1.2651728 0.0036357606
0.2202242 -1.2243224 -0.0084892856
0.26578459 -1.221251 -0.020114051
0.69446898 -2.7136245 -0.071832292
0.17812568 -1.2526734 -0.042857796
0.21604474 -1.2036188 -0.052941937
0.26089156 -1.202302 -0.065036193
0 -0 -0
0.17667659 -1.2484226 -0.089008443
0.21036232 -1.1755003 -0.095661476
0 -0 -0
0 -0 -0
0.17811584 -1.2611308 -0.13705795
0.21013968 -1.1772181 -0.14005417
0.19443548 -0.89785814 -0.11628306
0 -0 -0
0.17736396 -1.2632899 -0.1848284
0.18766795 -1.0547347 -0.16544402
0 -0 -0
0.21000491 -0.82382202 -0.14827095
0.1558775 -1.1164774 -0.206147
0.19094558 -1.0760957 -0.21053953
0.18955605 -0.87955523 -0.18214045
0.21065694 -0.82746577 -0.18180497
0.15283564 -1.1024164 -0.24681889
0.17418787 -0.9842518 -0.23148021
0 -0 -0
0 -0 -0
0.12917876 -0.93827766 -0.24776788
0.16293359 -0.92470294 -0.25515926
0.17427063 -0.81007123 -0.23395611
0.20056915 -0.78657734 -0.23829423
0.15800749 -1.1577749 0.36099839
0.21364717 -1.2160665 0.36671698
0.25371382 -1.1795075 0.34556696
0.68798262 -2.703511 0.77002889
0.17258935 -1.2587178 0.33921629
0.21558651 -1.2289931 0.31944159
0.25905216 -1.2087371 0.30393359
0.39614367 -1.564461 0.38012695
0.16878954 -1.2308456 0.28214437
0.20820476 -1.1859388 0.26081452
0.25750223 -1.2037605 0.25436655
0.42342913 -1.6772603 0.34011069
0.17398705 -1.2666117 0.2408829
0.21316007 -1.2160336 0.2198668
0.2389261 -1.119692 0.19267942
0.47503847 -1.8847409 0.30840582
0.17146908 -1.2490896 0.18973342
0.21975692 -1.2574091 0.17930502
0.25781479 -1.2113183 0.16198976
0.64285785 -2.5601873 0.32008886
0.16722396 -1.2197455 0.13920595
0.20992891 -1.2012987 0.12604494
0.25590321 -1.2047118 0.11555221
0.67695278 -2.7015593 0.23524065
0.1676098 -1.2239885 0.094235547
0.20711583 -1.1874008 0.08029028
0.25030318 -1.1797669 0.069011129
0.6820631 -2.7257869 0.13358936
0.16933879 -1.2395116 0.049393475
0.21101125 -1.2132356 0.036849719
0.25854883 -1.2216768 0.025677606
0.68164986 -2.7289891 0.030684464
0.16983773 -1.2444592 0.003573173
0.21219479 -1.2226949 -0.0084688133
0.25890604 -1.2257937 -0.020162325
0.67756355 -2.7168646 -0.071806654
0.16666655 -1.2260138 -0.041909914
0.21155339 -1.2216567 -0.053677242
0.25515559 -1.2116975 -0.065458499
0 -0 -0
0.16727482 -1.2366325 -0.088093005
0.20721531 -1.2003435 -0.097577892
0 -0 -0
0 -0 -0
0.1662513 -1.2316549 -0.13374117
0.20662014 -1.200019 -0.14261329
0 -0 -0
0 -0 -0
0.16724074 -1.2466986 -0.1822474
0.19272615 -1.1230755 -0.17597504
0 -0 -0
0.20898326 -0.84134841 -0.15119171
0.15643618 -1.1729909 -0.2164004
0.18781729 -1.0975726 -0.21451199
0.18235019 -0.87206745 -0.18035477
0.202279 -0.81545252 -0.17888944
0.14594033 -1.1023656 -0.24660237
0.17240633 -1.0102707 -0.23734619
0.19427332 -0.92957425 -0.2295184
0 -0 -0
0.13451302 -1.0234618 -0.27003914
0.15871124 -0.93424761 -0.25751939
0.18148778 -0.86953384 -0.25080311
0.19435081 -0.782206 -0.2366042
0.15534243 -1.1928307 0.37162468
0.20906292 -1.2343673 0.37184191
0.25039956 -1.1998634 0.35107398
0 -0 0
0.16185383 -1.2367613 0.33302528
0.20755692 -1.2274271 0.31869754
0.25637466 -1.2331219 0.30966368
0.33338222 -1.351395 0.32785374
0.1607278 -1.2279904 0.28125855
0.21119857 -1.2479028 0.27415162
0.24851944 -1.1976469 0.25274765
0.39039934 -1.5874029 0.32139787
0.16148497 -1.2316037 0.23403226
0.20930327 -1.238675 0.2237241
0.25363746 -1.2254287 0.21060309
0.48018551 -1.9557204 0.31953225
0.16303074 -1.2442353 0.18884054
0.21137948 -1.2548279 0.17874861
0.25218159 -1.2216171 0.16315702
0.57784319 -2.3625441 0.29492956
0.1619283 -1.2374982 0.14111595
0.20470174 -1.2153157 0.12738147
0.24790373 -1.2033339 0.11527197
0.66579771 -2.727927 0.23717645
0.16345596 -1.2507 0.09621305
0.20412707 -1.2142328 0.08201839
0.24849217 -1.2076832 0.070553593
0.65870261 -2.7027473 0.13225964
0.16328023 -1.2524172 0.049866892
0.2047196 -1.2214081 0.037059091
0.24381192 -1.1879828 0.024937497
0.66158313 -2.7195177 0.030531749
0.16439402 -1.2623353 0.0036215358
0.20600799 -1.2318641 -0.0085234065
0.24556179 -1.1989528 -0.019695681
0.6604085 -2.719028 -0.071755379
0.15926929 -1.2280046 -0.04194377
0.20257363 -1.2140628 -0.053287964
0.24491918 -1.1995425 -0.064719461
0.24568142 -1.012596 -0.065007739
0.16147088 -1.2514861 -0.089078866
0.19935563 -1.1986425 -0.097338349
0.20646469 -1.0120147 -0.09256196
0 -0 -0
0.16173775 -1.2563188 -0.136309
0.20412876 -1.230659 -0.14610301
0 -0 -0
0 -0 -0
0.15544449 -1.2153063 -0.17751557
0.17648348 -1.0676837 -0.16712287
0.19780292 -0.97276467 -0.16321452
0 -0 -0
0.15382585 -1.2100345 -0.22305609
0.17852427 -1.0832022 -0.21148536
0 -0 -0
0.19864959 -0.82238275 -0.18013896
0.14320584 -1.1352042 -0.25374711
0.16683613 -1.0151548 -0.23824863
0 -0 -0
0 -0 -0
0.12943244 -1.0338675 -0.27256995
0.16216682 -0.99139225 -0.27299154
0.16966031 -0.83856016 -0.24156444
0.18932198 -0.78245121 -0.23632254
0.15013669 -1.2108287 0.37693784
0.19531398 -1.1977822 0.36045316
0.24093586 -1.1910125 0.34804511
0.29117802 -1.2059511 0.34244204
0.15330626 -1.2300613 0.33096161
0.20204523 -1.2411077 0.32192171
0.24592608 -1.2203926 0.30608237
0.34440711 -1.4338629 0.34734157
0.15632613 -1.2541131 0.28701657
0.20353761 -1.2491752 0.27415162
0.2417454 -1.2020295 0.25335476
0.38293669 -1.599311 0.323327
0.15696935 -1.2569498 0.23866105
0.2037539 -1.2525685 0.22600342
0.24669544 -1.2298626 0.21110097
0.34074241 -1.4255061 0.23255806
0.1553932 -1.2452122 0.18884054
0.20557804 -1.2678313 0.18041785
0.24682064 -1.2338367 0.16458367
0.41158018 -1.7286615 0.21547915
0.15482362 -1.2424127 0.14156537
0.19437537 -1.1988751 0.1255309
0.24402387 -1.2224069 0.11695341
0.62601477 -2.6350141 0.22875997
0.1589805 -1.2774055 0.098190546
0.20288858 -1.2538764 0.084610537
0.23834445 -1.195478 0.069753796
0.64556491 -2.7213168 0.13297199
0.15448461 -1.2444711 0.049511828
0.19578873 -1.21376 0.036789894
0.23807789 -1.1973011 0.025101967
1.7160045 -7.2471676 0.08124347
0.15750676 -1.2702671 0.0036414503
0.19844553 -1.2331049 -0.0085234065
0.24053583 -1.2122059 -0.019888775
1.2096919 -5.1172323 -0.13484578
0.15516035 -1.2567317 -0.042891651
0.19591236 -1.2202151 -0.053504232
0.23774809 -1.2020024 -0.064772248
0 -0 -0
0.15281628 -1.2445326 -0.08851552
0.19388719 -1.2116545 -0.09829656
0.21183757 -1.071889 -0.09791752
0 -0 -0
0.15668586 -1.2789989 -0.13866284
0.19297405 -1.2093298 -0.14342755
0 -0 -0
0 -0 -0
0.15264645 -1.2545516 -0.18310775
0.17799866 -1.1194998 -0.1750593
0 -0 -0
0 -0 -0
0.14687058 -1.214862 -0.22377564
0.17310438 -1.092036 -0.21299867
0.20014624 -1.0194652 -0.21031469
0.19986662 -0.85024559 -0.18597005
0.14123614 -1.177743 -0.26305696
0.1609083 -1.018084 -0.23869988
0.19071193 -0.97194898 -0.2393851
0 -0 -0
0.12640062 -1.0625017 -0.27990937
0.14858404 -0.94470447 -0.25987956
0.17894593 -0.91324979 -0.26275906
0.18803619 -0.79854161 -0.24082927
0.14303961 -1.2145737 0.37782335
0.1952358 -1.2453632 0.37440434
0.23325375 -1.1905816 0.34749442
0.28311148 -1.2048998 0.34164378
0.14552863 -1.2290598 0.33044568
0.19023204 -1.2155252 0.31497732
0.23675938 -1.2133006 0.30393359
0.31455821 -1.3459061 0.32556108
0.14690787 -1.2405226 0.28369462
0.19133148 -1.2214338 0.26780063
0.23586288 -1.2111802 0.25497362
0.38246644 -1.6417668 0.33142948
0.14879075 -1.2539858 0.23792046
0.19317445 -1.2353141 0.22267212
0.23613639 -1.2158643 0.20844561
0.29664269 -1.275578 0.20779784
0.1474005 -1.2431962 0.1883941
0.19550739 -1.2543919 0.1783313
0.23321234 -1.204177 0.16043341
0.36893311 -1.5928555 0.1982649
0.15046845 -1.270969 0.14471127
0.18854721 -1.2098736 0.12655899
0.22348376 -1.1564308 0.11050789
0 -0 0
0.14762735 -1.2486508 0.095908813
0.18798454 -1.2087588 0.081486665
0.23573446 -1.2214248 0.071182005
0.27939132 -1.2107793 0.059077557
0.14778183 -1.2533343 0.049827438
0.19216557 -1.2396325 0.037537657
0.23223864 -1.2065935 0.025266435
1.6450224 -7.1425776 0.079956315
0.15134703 -1.2851135 0.0036812786
0.18934739 -1.2244171 -0.0084551647
0.23893954 -1.2440987 -0.020387603
1.1711022 -5.0933824 -0.13402542
0.1459334 -1.244756 -0.04245156
0.18857388 -1.2223816 -0.053547479
0.23543748 -1.22992 -0.066197552
0.24932212 -1.0855715 -0.069491029
0.14621654 -1.254364 -0.089149274
0.18660043 -1.2138066 -0.098376416
0.21367644 -1.1171911 -0.10193419
0 -0 -0
0.14745702 -1.268085 -0.13737893
0.18524913 -1.2085277 -0.14319491
0.22761849 -1.191777 -0.15357903
0 -0 -0
0.1473294 -1.2761105 -0.18611892
0.17828754 -1.1674649 -0.18238524
0.18991503 -0.99644339 -0.16678382
0.20291461 -0.88634491 -0.15857948
0.14019804 -1.2225813 -0.22503482
0.16713941 -1.0979314 -0.21394449
0.20175239 -1.0620788 -0.21884632
0.18963256 -0.82952595 -0.18118022
0.13455845 -1.1834376 -0.26413947
0.15728967 -1.0363896 -0.24276094
0.18256898 -0.96164143 -0.23656605
0 -0 -0
0.12529832 -1.1113249 -0.2925635
0.1453781 -0.96277374 -0.26459989
0.16796133 -0.88596457 -0.25460729
0.18548898 -0.80996865 -0.24392767
0.1367496 -1.2258736 0.38107026
0.1788888 -1.1887136 0.35703653
0.22934577 -1.2099363 0.35272607
0 -0 0
0.14423208 -1.2856175 0.34540734
0.18867059 -1.2559478 0.3251459
0.22894999 -1.2128221 0.30345607
0.30176428 -1.3278785 0.32074642
0.13994582 -1.2472153 0.28502342
0.18673976 -1.2419142 0.27203462
0.2277016 -1.208755 0.25416419
0.36328185 -1.6038897 0.323327
0.14307004 -1.2724532 0.2412532
0.18851376 -1.2559482 0.22617877
0.2293998 -1.2211672 0.20910946
0.29447326 -1.3024209 0.21187231
0.14032163 -1.2489907 0.18913816
0.18619545 -1.2447946 0.17680115
0.22581926 -1.2055854 0.16043341
0.26865575 -1.1931695 0.14830744
0.14100559 -1.2570561 0.14302595
0.18170853 -1.2149427 0.12697023
0.22571228 -1.2076931 0.11527197
0 -0 0
0.14218286 -1.2693512 0.097429968
0.18586625 -1.2454165 0.083879419
0.22896819 -1.2267739 0.071410514
0.25403044 -1.132549 0.055183373
0.14086518 -1.2611688 0.050103605
0.18543802 -1.2467202 0.037717119
0.22446488 -1.20603 0.025225319
0.26715216 -1.1933905 0.013340596
0.14578703 -1.3068885 0.003741021
0.17977634 -1.2117077 -0.0083596259
0.23057115 -1.241609 -0.020323237
0.26489875 -1.1853622 -0.031147836
0.14182198 -1.2774143 -0.043534853
0.18033864 -1.2185742 -0.053331215
0.22334321 -1.2067932 -0.064877823
0.25070152 -1.1231221 -0.071794942
0.13829833 -1.2532547 -0.089008443
0.18031244 -1.2228178 -0.099015214
0.21931343 -1.1860602 -0.10809309
0 -0 -0
0.13999976 -1.2719308 -0.1376999
0.18086393 -1.2302773 -0.14563772
0.21165526 -1.1463227 -0.1475514
0.19831879 -0.8907181 -0.12462775
0.13949656 -1.2769905 -0.18611892
0.16897279 -1.153869 -0.18009588
0.19970983 -1.0839573 -0.18122329
0 -0 -0
0.13364843 -1.2322202 -0.22665378
0.16706508 -1.1446038 -0.2228352
0.1964708 -1.0700448 -0.22023518
0.19620539 -0.88318777 -0.19263415
0.12958996 -1.2055961 -0.26890269
0.15752009 -1.0826461 -0.2533648
0.18385795 -1.0019417 -0.24619783
0.19543825 -0.87828636 -0.22715847
0.12226909 -1.1476668 -0.30192757
0 -0 -0
0.16460338 -0.8983379 -0.25786799
0.18364233 -0.82514048 -0.24815275
0.12892492 -1.2238392 0.38018477
0.17815971 -1.2353309 0.37070301
0.22001183 -1.2009192 0.34969723
0 -0 0
0.13104616 -1.2365179 0.33199346
0.17902823 -1.2436576 0.32167369
0.22237532 -1.2189807 0.30464986
0.27745074 -1.256519 0.30309275
0.13444901 -1.268415 0.28967413
0.179116 -1.2430365 0.27203462
0.22484048 -1.2351799 0.25942555
0.26844934 -1.2198989 0.2455819
0.1349483 -1.2703755 0.24069774
0.17940228 -1.2473365 0.22442544
0.22700982 -1.2506897 0.21392228
0 -0 0
0.13401215 -1.2626116 0.1910727
0.18080176 -1.2615979 0.17902681
0.22495078 -1.2430493 0.16523214
0 -0 0
0.13402274 -1.2648146 0.14381243
0 -0 0
0.21210617 -1.1747627 0.11200249
0 -0 0
0.13565055 -1.2820987 0.098342665
0 -0 0
0 -0 0
0 -0 0
0.13773631 -1.3057325 0.051839475
0 -0 0
0 -0 0
0 -0 0
0.14080355 -1.3365986 0.0038235229
0 -0 -0
0 -0 -0
0 -0 -0
0.13794026 -1.3160318 -0.044821266
0 -0 -0
0 -0 -0
0 -0 -0
0.13556562 -1.3017029 -0.092388511
0 -0 -0
0 -0 -0
0 -0 -0
0.13496599 -1.2994672 -0.14058872
0 -0 -0
0.21053843 -1.180807 -0.15182097
0 -0 -0
0.13257135 -1.2866824 -0.18740942
0.16888653 -1.2047986 -0.18787968
0.20031403 -1.1259651 -0.18803741
0 -0 -0
0.12698576 -1.2418242 -0.22827274
0.15949534 -1.1417173 -0.22207853
0.18955927 -1.0692999 -0.21983837
0.1965576 -0.91114533 -0.19846523
0.12258365 -1.2102538 -0.26976869
0.15866639 -1.1395571 -0.26645043
0.17838494 -1.0068793 -0.2471375
0.19885151 -0.92022032 -0.23768415
0.1135829 -1.132031 -0.29762515
0.13262592 -0.95779407 -0.26276422
0 -0 -0
0.17938671 -0.83000314 -0.24927944
0.12216727 -1.2322133 0.38254613
0.16559809 -1.2003155 0.35988373
0.21565276 -1.2192863 0.35465357
0.25905663 -1.2014263 0.3392491
0.12422398 -1.2449898 0.33405712
0.17430113 -1.265846 0.32712999
0.2160705 -1.2270168 0.30632114
0.26871547 -1.2534391 0.30194643
0.12714782 -1.2740678 0.29078147
0.17135204 -1.2431439 0.2718229
0.22047722 -1.2548624 0.26327041
0.26321408 -1.2320784 0.24770398
0.1273465 -1.2731352 0.24106804
0.17228208 -1.252315 0.22512676
0.21609849 -1.2336037 0.21076906
0.26199096 -1.228662 0.19933549
0.12586905 -1.2594743 0.19047746
0.17090589 -1.2469858 0.17680115
0.21407832 -1.2258476 0.16276793
0.25584894 -1.2051162 0.14939086
0.12616082 -1.2646244 0.14370008
0.16746087 -1.2220085 0.12748428
0.20660286 -1.1858507 0.11293664
0.25394645 -1.1990389 0.10352272
0.12748469 -1.2799302 0.098114491
0.17232613 -1.2604553 0.08474347
0.21286985 -1.2235898 0.07106775
0.26222342 -1.2401484 0.060264803
0.12833977 -1.2926325 0.051287152
0.16850594 -1.237017 0.037358195
0.20930639 -1.2067236 0.025184199
0.25640985 -1.2151686 0.013547851
0.13003451 -1.3115644 0.0037495559
0.16946992 -1.2475125 -0.0085916482
0.21634023 -1.2502564 -0.020419786
0.25919208 -1.2305866 -0.032250185
0.12878372 -1.3059129 -0.044448886
0.16537128 -1.2206954 -0.053331215
0.21021383 -1.2192839 -0.065405719
0.2576521 -1.224759 -0.078084007
0.12572846 -1.2836477 -0.091050565
0.16595951 -1.2298777 -0.099414468
0.20643282 -1.1984777 -0.10898568
0 -0 -0
0.12486389 -1.2785008 -0.13823487
0.1658853 -1.2333884 -0.14575404
0.20564321 -1.1957648 -0.15357903
0 -0 -0
0.12305231 -1.2707257 -0.18497181
0.16332744 -1.2195257 -0.1900164
0.19423582 -1.1320356 -0.18884861
0 -0 -0
0.1187993 -1.2367048 -0.22719343
0.15495475 -1.1611675 -0.22567266
0.17853536 -1.0443583 -0.21448131
0.19737542 -0.94296873 -0.20512934
0.10683756 -1.1235124 -0.250283
0.14794685 -1.1125034 -0.2599076
0.1738404 -1.0175363 -0.24948673
0.19956848 -0.95178926 -0.24551718
0.10736015 -1.1404121 -0.2996498
0.12497559 -0.94519633 -0.25909284
0.16165799 -0.94772381 -0.2714543
0.17606297 -0.83954 -0.25181448
0.11363154 -1.2224751 0.37929922
0.1601077 -1.215565 0.36415449
0.21123809 -1.238592 0.35988525
0.24950857 -1.1926143 0.33632225
0.11667255 -1.2466904 0.33431506
0.16438444 -1.2505633 0.32291377
0.20691219 -1.2187456 0.30393359
0.25269538 -1.2150395 0.29231715
0.11969142 -1.2787076 0.29166731
0.1663987 -1.2645205 0.27626863
0.20672217 -1.2204659 0.25578305
0.25445464 -1.2279055 0.24654651
0.1183388 -1.2611732 0.23866105
0.16523573 -1.2582291 0.22600342
0.20770422 -1.2300446 0.20993926
0.25844786 -1.2495899 0.20246968
0.11850786 -1.2641611 0.1910727
0.16286597 -1.2450652 0.17638384
0.20622344 -1.2251824 0.16250853
0.25325453 -1.2299993 0.15227997
0.11756571 -1.2564707 0.1426889
0.16099162 -1.2309034 0.12830676
0.20806061 -1.2391357 0.11788754
0.25139591 -1.2240005 0.10554268
0.11907238 -1.2747316 0.097658142
0.16239434 -1.244669 0.083613552
0.20535804 -1.2248729 0.07106775
0.25180018 -1.228035 0.059599947
0.12022067 -1.2914058 0.05120825
0.1614279 -1.2419926 0.037477836
0.20469999 -1.2247491 0.025533697
0.24734534 -1.2088819 0.013460586
0.12429827 -1.3372302 0.0038206778
0.16219771 -1.2515038 -0.0086121215
0.2065271 -1.2387389 -0.0202106
0.24863604 -1.2174621 -0.031865645
0.11948065 -1.2927458 -0.04397494
0.16133532 -1.2484394 -0.054499056
0.20305572 -1.2225211 -0.065511294
0.24654186 -1.2087141 -0.076963186
0.11712062 -1.2764482 -0.090487227
0.15993685 -1.2427368 -0.10037269
0.19891216 -1.1987392 -0.10889642
0.19898474 -0.97703743 -0.099031135
0.11656396 -1.2742922 -0.1376999
0.16286278 -1.2698481 -0.1499417
0.19992371 -1.2067915 -0.15483478
0 -0 -0
0.11525296 -1.2714568 -0.18497181
0.15909603 -1.2459934 -0.19398463
0.1876079 -1.1351532 -0.18917309
0 -0 -0
0.111561 -1.2413296 -0.22791298
0.15389873 -1.2098272 -0.23494171
0.18024449 -1.0947561 -0.22460023
0 -0 -0
0.10737693 -1.2077773 -0.26890269
0.14785527 -1.1665469 -0.2723164
0.15922976 -0.96775049 -0.23703589
0.18464683 -0.90833902 -0.2340124
0.099852122 -1.1352671 -0.29813132
0.12230977 -0.97083867 -0.26591107
0.15677579 -0.95439571 -0.27308464
0.17511413 -0.86129051 -0.25801125
0.10637621 -1.2260048 0.38018477
0.15049785 -1.1994038 0.35902956
0.19849277 -1.2085599 0.35079864
0.24027011 -1.1846757 0.33366147
0.11011437 -1.2598952 0.33766854
0.15863378 -1.2669284 0.32688197
0.20209347 -1.2362844 0.30799243
0.24600464 -1.2203838 0.29323423
0.11184316 -1.279418 0.29166731
0.15669166 -1.2500018 0.27288142
0.20584962 -1.2623063 0.2642822
0.2447903 -1.2188616 0.24442442
0.11059815 -1.2618756 0.23866105
0.15653469 -1.2514042 0.22460076
0.19983643 -1.2293491 0.20960732
0.25252253 -1.2598677 0.20388009
0.11100765 -1.2678198 0.19151913
0.15399918 -1.2362143 0.1749928
0.19997063 -1.2342551 0.1635461
0.24511993 -1.2286094 0.15191883
0.11123792 -1.2730066 0.14448655
0.15380475 -1.2348293 0.12861519
0.19616486 -1.2138515 0.11536537
0.22637744 -1.1375639 0.097967841
0.11055539 -1.2674916 0.097049676
0.15746051 -1.2674259 0.085075796
0.19752043 -1.2241387 0.070953496
0.24640127 -1.2403338 0.060122333
0.11290009 -1.2990874 0.05148441
0.15675011 -1.2667674 0.038195688
0.19892758 -1.23684 0.025759839
0.24108969 -1.2162619 0.013526034
0.11323827 -1.3050914 0.0037267967
0.15635213 -1.2673624 -0.0087144841
0.19670518 -1.2261615 -0.019985324
0.2454295 -1.2405394 -0.032429643
0.10854079 -1.258604 -0.042790089
0.15513553 -1.261305 -0.055018093
0.19570823 -1.2247301 -0.065564089
0.23679914 -1.1984546 -0.076215968
0.10962646 -1.2811183 -0.090768889
0.15545893 -1.2694196 -0.10244881
0.19343723 -1.2117399 -0.10996754
0 -0 -0
0.10882735 -1.2759742 -0.13780691
0.15566957 -1.275753 -0.15052332
0.19360815 -1.2148535 -0.15571381
0.19842577 -1.0071099 -0.14018929
0.10778245 -1.2760847 -0.18554536
0.15168607 -1.2489083 -0.19428986
0.17738585 -1.1158183 -0.18576604
0.21749279 -1.1047994 -0.1963774
0.10361408 -1.2380695 -0.22719343
0.1480056 -1.2234216 -0.23740083
0.17766261 -1.1219789 -0.22995728
0.19220188 -0.97795016 -0.21220994
0.10036656 -1.2132782 -0.2699852
0.1437254 -1.1925799 -0.27818236
0.15982136 -1.0099922 -0.2471375
0.19929954 -1.0121967 -0.26044893
0.091859333 -1.1233236 -0.29484126
0.12816916 -1.070261 -0.29292178
0.15286894 -0.96769732 -0.27661708
0.17427564 -0.88494307 -0.26477137
0.096932873 -1.2028255 0.37280536
0.14324914 -1.2012565 0.35931429
0.19542284 -1.2372928 0.35878384
0.236341 -1.2031534 0.33845085
0.10277279 -1.265362 0.33895832
0.14604978 -1.2274752 0.31646541
0.19420242 -1.2355826 0.30751491
0.23198499 -1.1884336 0.28520983
0.10351694 -1.2742485 0.29033855
0.15086856 -1.2664673 0.27626863
0.194915 -1.2432282 0.26003262
0.23936719 -1.2309356 0.24654651
0.10197563 -1.2517564 0.2366244
0.14920187 -1.2552741 0.22512676
0.19502999 -1.2480897 0.2125946
0.23632047 -1.2177633 0.19682811
0.10394822 -1.2773474 0.19285841
0.14908783 -1.2597545 0.17819218
0.19956453 -1.2815069 0.16964179
0.23757671 -1.2300903 0.15191883
0.10237929 -1.2607899 0.14302595
0.14575754 -1.2317985 0.12820396
0.19222762 -1.2376603 0.11751388
0.24257652 -1.2592826 0.10832012
0.10213176 -1.2601953 0.096441217
0.14968076 -1.2683682 0.085075796
0.19122939 -1.2332201 0.071410514
0.23803164 -1.2378987 0.059932377
0.10339923 -1.2808321 0.050734825
0.14850777 -1.2637345 0.038076043
0.19041854 -1.2321091 0.025636489
0.23701359 -1.2353948 0.01372238
0.10450531 -1.2967907 0.003701193
0.14717665 -1.2563796 -0.0086325938
0.19100569 -1.2392037 -0.020178417
0.23724909 -1.2390764 -0.032352731
0.1029696 -1.2861447 -0.043704119
0.1472775 -1.2612407 -0.054974835
0.18955344 -1.2347913 -0.066039182
0.23562701 -1.2322348 -0.078270815
0.10057939 -1.2668511 -0.08971262
0.14513488 -1.2485664 -0.10069209
0.18584752 -1.2119194 -0.10987828
0.20993261 -1.099632 -0.11118764
0.10138814 -1.2815738 -0.13834187
0.14646779 -1.2648448 -0.14912744
0.18795177 -1.2277867 -0.15722072
0.19966502 -1.0472393 -0.14560202
0.099332586 -1.2688287 -0.18439823
0.14571708 -1.2645423 -0.19657925
0.17083386 -1.1188365 -0.18609051
0.21808371 -1.1448224 -0.20324977
0.094875157 -1.2239709 -0.22449517
0.13948849 -1.2155268 -0.23569834
0.17106962 -1.1249858 -0.2303541
0.18455313 -0.97046334 -0.21033564
0.091429837 -1.1944025 -0.26565507
0.13430321 -1.1750489 -0.27389571
0.15741789 -1.0359395 -0.25324547
0.19181478 -1.0067334 -0.25873545
0.084746227 -1.1209719 -0.29408199
0.1255188 -1.1055455 -0.30236238
0.1464954 -0.96576273 -0.27580193
0.16920169 -0.8878808 -0.26533473
0.089337945 -1.2005394 0.37191987
0.13781367 -1.2192587 0.36443922
0.18480013 -1.2185085 0.35300145
0.22625421 -1.1903759 0.33445969
0.095223658 -1.2688591 0.33973223
0.14057793 -1.2466387 0.32117766
0.18618269 -1.2338703 0.30679864
0.22414666 -1.1869653 0.28452203
0.094528429 -1.2593007 0.28679511
0.14353342 -1.2712538 0.2771154
0.19048941 -1.2657057 0.26448455
0.23180981 -1.2323811 0.24654651
0.093997948 -1.2484387 0.23588377
0.14160706 -1.2571442 0.2253021
0.18736818 -1.2492629 0.2125946
0.23248798 -1.2386042 0.19996232
0.096108608 -1.2779611 0.19285841
0.1384863 -1.2350588 0.17457549
0.18700774 -1.251326 0.16549154
0.22674368 -1.2139596 0.14975199
0.093749166 -1.2495037 0.14167772
0.14218627 -1.2682561 0.13190511
0.18301545 -1.2279843 0.11648634
0.22170696 -1.1902159 0.10226025
0.094769657 -1.2657698 0.096821502
0.14377993 -1.2861202 0.086205706
0.18439355 -1.2393079 0.071696162
0.22860563 -1.2295156 0.059457477
0.094869636 -1.2724743 0.050379764
0.14141425 -1.2705824 0.038255509
0.18652077 -1.2579787 0.026150452
0.2265109 -1.2210952 0.013547851
0.096175328 -1.2924212 0.0036869682
0.14144936 -1.2751489 -0.0087554296
0.18120472 -1.2255156 -0.01993705
0.22072543 -1.1923432 -0.031096565
0.093676776 -1.2678149 -0.043060914
0.14019462 -1.2680788 -0.055234358
0.18342794 -1.2458106 -0.066567078
0.22479592 -1.2159917 -0.077149987
0.092585705 -1.2644597 -0.089501366
0.13910635 -1.2642958 -0.10188985
0.18188612 -1.2366867 -0.11202051
0.22304808 -1.2085429 -0.12205933
0.093377978 -1.2801883 -0.13812788
0.1400024 -1.2775673 -0.15052332
0.18300849 -1.2465849 -0.15948109
0.2194552 -1.1907057 -0.16535841
0.092186004 -1.2782984 -0.18568875
0.13699128 -1.2565705 -0.19520561
0.17297155 -1.1813732 -0.1963117
0.21319598 -1.157765 -0.20531146
0.085613161 -1.2000002 -0.21999808
0.1321335 -1.2173361 -0.23588753
0.17109214 -1.1735379 -0.2400762
0.18389983 -1.0004363 -0.21658325
0.08560729 -1.2163662 -0.27041823
0.12866104 -1.1903795 -0.27727991
0.16479111 -1.1311481 -0.27626777
0.18897082 -1.0260087 -0.26338634
0.080948971 -1.1658664 -0.30572379
0.12027761 -1.1206874 -0.30629599
0.13752006 -0.94569147 -0.26982394
0.16809639 -0.91249317 -0.27237651
0.080798894 -1.1839068 0.36660674
0.13083895 -1.2248472 0.36586282
0.1780116 -1.2243762 0.35437822
0.22138447 -1.2050149 0.33818477
0.087436289 -1.2694196 0.33973223
0.13292605 -1.2474778 0.32117766
0.17777434 -1.2292229 0.30536613
0.22472291 -1.231408 0.29483908
0.087201886 -1.2656941 0.28812391
0.13573046 -1.2721106 0.2771154
0.180343 -1.2503729 0.26104444
0.22389275 -1.2318494 0.24616066
0.086606979 -1.2529136 0.2366244
0.13409908 -1.2599474 0.22565275
0.17927849 -1.2474608 0.21209674
0.22400247 -1.2351484 0.19917876
0.088469699 -1.2814864 0.19330485
0.13393041 -1.2644435 0.17860951
0.17778032 -1.241653 0.16406488
0.21805675 -1.2084893 0.14890935
0 -0 0
0.13544928 -1.2789963 0.13293321
0 -0 0
0.21122345 -1.1739012 0.10074528
0 -0 0
0.13588573 -1.2869781 0.086205706
0 -0 0
0 -0 0
0 -0 0
0.13831654 -1.3161597 0.039601482
0 -0 0
0 -0 0
0 -0 0
0.13882996 -1.3257197 -0.0090966383
0 -0 -0
0 -0 -0
0 -0 -0
0.13635139 -1.3066745 -0.056877978
0 -0 -0
0 -0 -0
0 -0 -0
0.13474305 -1.2978443 -0.10452493
0 -0 -0
0 -0 -0
0.084858693 -1.2708167 -0.13705795
0.13359064 -1.2922336 -0.15215187
0.17466578 -1.2427722 -0.1588532
0 -0 -0
0.083363861 -1.2640271 -0.18353792
0.129885 -1.263286 -0.19612136
0 -0 -0
0.19487824 -1.0960066 -0.19414388
0.074089743 -1.1366986 -0.20830563
0.12546134 -1.2259387 -0.23740083
0.15684511 -1.1240884 -0.22975889
0.17792872 -1.0025088 -0.2167915
0.077078618 -1.2003059 -0.26673761
0.12135459 -1.1911466 -0.27727991
0.16214257 -1.1629444 -0.28378528
0.18114385 -1.0185574 -0.26118329
0.072388805 -1.1441343 -0.29990289
0.11388437 -1.1262048 -0.3076072
0.13582677 -0.97606635 -0.27824745
0.16350251 -0.91917551 -0.27406654
0.074125111 -1.1939163 0.36955848
0.12255321 -1.2179966 0.36358505
0.16850848 -1.2111628 0.35024792
0.21179777 -1.1940119 0.33472577
0.080068961 -1.276682 0.34153795
0.12904176 -1.2858626 0.33085021
0.17182575 -1.2418336 0.30823115
0.21665631 -1.229888 0.29415131
0.079128802 -1.2613391 0.28701657
0.12733604 -1.267085 0.27584523
0.17132895 -1.2417548 0.25902084
0.21904266 -1.2486634 0.24924731
0.078855865 -1.2524406 0.23643924
0.12587474 -1.2558485 0.2247761
0.17081511 -1.2426757 0.21110097
0.21812227 -1.2462282 0.20074587
0.081039347 -1.2889136 0.19434653
0.12518679 -1.2553875 0.17721847
0.17217602 -1.2574563 0.16601032
0.21182945 -1.2166506 0.14975199
0.078408778 -1.2505602 0.14167772
0.12680948 -1.2718849 0.13211073
0.16752841 -1.2271783 0.1162061
0.20964107 -1.2075735 0.10352272
0.077922575 -1.2459393 0.095224299
0.12699965 -1.2778587 0.085541055
0.17213699 -1.2632402 0.072952986
0.21435301 -1.2371494 0.059694927
0.079743735 -1.2815211 0.050695378
0.12846753 -1.2990791 0.039063092
0.17174183 -1.2651263 0.026253244
0.2116794 -1.2247682 0.013558758
0.079874329 -1.2865176 0.003667054
0.12755547 -1.2947016 -0.0088782646
0.16856596 -1.2454821 -0.020226691
0.20743605 -1.2028432 -0.031301651
0.077927455 -1.2658764 -0.042959355
0.126477 -1.2885951 -0.056056164
0.16879277 -1.2529161 -0.066831023
0.20985691 -1.2186588 -0.077149987
0.077425659 -1.2714748 -0.089923881
0.12532432 -1.2837653 -0.10332717
0.16736051 -1.2437612 -0.1124668
0.20651478 -1.2013819 -0.121071
0.077721223 -1.2822304 -0.13823487
0.12546699 -1.2910519 -0.15191922
0.16835743 -1.2536532 -0.16010897
0.20918491 -1.2186986 -0.16887668
0.075370088 -1.2605631 -0.18296435
0.12251134 -1.2679939 -0.19673185
0.15741357 -1.1755826 -0.19501378
0.19164619 -1.1175719 -0.19775186
0.071402483 -1.2097982 -0.22161704
0.11765483 -1.2237531 -0.23683333
0.15577175 -1.1687484 -0.23868734
0.17936449 -1.0479282 -0.22637114
0.069033206 -1.1890604 -0.26413947
0.11506429 -1.2025363 -0.27976164
0.14679171 -1.102253 -0.26875031
0.17292379 -1.0081823 -0.25824592
0.065036193 -1.1387616 -0.2983844
0.1004971 -1.0586737 -0.28898814
0 -0 -0
0.16126652 -0.94002098 -0.27998164
0.065357447 -1.1685919 0.36158875
0.11498729 -1.2177713 0.36330032
0.16196017 -1.2188448 0.35217538
0.20804323 -1.2161924 0.34057948
0.072834007 -1.28776 0.34437549
0.11933308 -1.2673403 0.32588992
0.16560186 -1.2534543 0.31085745
0.20959473 -1.2340729 0.29483908
0.071773469 -1.2686162 0.28856683
0.11873314 -1.2590852 0.27393991
0.16383435 -1.2437534 0.25922316
0.2123585 -1.2557888 0.2504048
0.071782596 -1.2636933 0.23847592
0.11844315 -1.2595378 0.2253021
0.16408502 -1.2505445 0.21226269
0.21178587 -1.2553343 0.20199955
0.073073193 -1.2883993 0.19419771
0.11720487 -1.2531742 0.17680115
0.162016 -1.2398083 0.1635461
0.20764577 -1.2375083 0.15215959
0.070565723 -1.2480414 0.14134066
0.12039208 -1.2874948 0.13365288
0.16295354 -1.2508907 0.1183546
0.20222759 -1.208837 0.10352272
0.071398787 -1.2663044 0.096745454
0.11961938 -1.2835814 0.08587338
0.16373904 -1.2593225 0.072667345
0.20577104 -1.2325299 0.059409983
0.071599282 -1.2769979 0.05049812
0.12058637 -1.3008381 0.039093003
0.16397592 -1.2661563 0.026253244
0.20678836 -1.2418257 0.013733288
0.071978897 -1.2869836 0.003667054
0.1205283 -1.3054173 -0.0089465063
0.16168875 -1.2524427 -0.020323237
0.20529459 -1.2356502 -0.032122005
0.070379861 -1.2703222 -0.043094765
0.11719563 -1.2744238 -0.055407368
0.16059284 -1.2499664 -0.066619866
0.20678551 -1.2465078 -0.078831218
0.069240935 -1.2649537 -0.089430951
0.11690038 -1.2785542 -0.10284807
0.16124699 -1.2566196 -0.11353791
0.20157778 -1.2173525 -0.1225535
0.069852144 -1.2826831 -0.13823487
0.11601283 -1.2749822 -0.1499417
0.16040996 -1.2526944 -0.15985779
0.20445074 -1.2365774 -0.17117709
0.068270065 -1.2728609 -0.18468502
0.11410573 -1.261832 -0.1956635
0.15582041 -1.2205728 -0.20231463
0.19200973 -1.1624651 -0.20548327
0.06501656 -1.2298599 -0.22521472
0.10970394 -1.2195619 -0.23588753
0.1518091 -1.194962 -0.243846
0.18072657 -1.0962965 -0.23657554
0.063709497 -1.2274855 -0.27258331
0.10794402 -1.2061307 -0.28043851
0.14455445 -1.1388112 -0.2774424
0.1646799 -0.99678844 -0.25506371
0.057949193 -1.1372069 -0.29787824
0.09979964 -1.1246339 -0.30682048
0.11331724 -0.89459676 -0.25460729
0.15205407 -0.92016602 -0.27378488
0.060038321 -1.2061871 0.37310055
0.1077658 -1.2213186 0.36415449
0.15423687 -1.2179081 0.3516247
0.20371091 -1.2364686 0.34590104
0.064493358 -1.2794983 0.34205386
0.11308272 -1.2854192 0.33035415
0.15766515 -1.25252 0.31037995
0.20500338 -1.2535872 0.2991952
0.064380907 -1.2768241 0.29033855
0.11177737 -1.2685521 0.27584523
0.15900426 -1.2670842 0.26387745
0.20559511 -1.2628789 0.2515623
0.065021582 -1.283739 0.24217896
0.11062638 -1.2592601 0.22512676
0.15763162 -1.2613131 0.21392228
0.2047126 -1.2605096 0.20262641
0.065116413 -1.2878357 0.19404891
0.10977182 -1.2568293 0.17721847
0.15293628 -1.2289715 0.16198976
0.20178959 -1.2495395 0.15348376
0.063756652 -1.265322 0.14325067
0.11006704 -1.2604632 0.1307742
0.1551526 -1.2508789 0.11826119
0.20082492 -1.247439 0.10672098
0.06392768 -1.2726938 0.097201802
0.10966553 -1.2604343 0.084278211
0.15625419 -1.2622851 0.0727816
0.20137325 -1.2534938 0.060359783
0.063712604 -1.2764152 0.050458666
0.11087924 -1.2816368 0.038494792
0.15779403 -1.2800382 0.026520506
0.20027211 -1.2499826 0.013809645
0.063931622 -1.2844046 0.0036585194
0.11174371 -1.2971655 -0.0088850884
0.15546407 -1.2653202 -0.020516334
0.20212699 -1.2645265 -0.032839816
0.062092356 -1.260748 -0.042756237
0.11184978 -1.303986 -0.056661714
0.15461658 -1.2648053 -0.067358911
0.19897592 -1.2467675 -0.078768961
0.060897123 -1.2533987 -0.088585928
0.10905311 -1.2792474 -0.10284807
0.15667173 -1.2832907 -0.11585866
0.19770478 -1.2411689 -0.12482666
0.06174057 -1.2781221 -0.1376999
0.10743213 -1.2667632 -0.14889479
0.15428016 -1.2664574 -0.16149029
0.19499195 -1.2260665 -0.16955326
0.060270887 -1.2693015 -0.18411146
0.10478479 -1.2437972 -0.19276364
0.15320505 -1.2616677 -0.20896652
0.17838116 -1.1227584 -0.1982673
0.057836268 -1.2380966 -0.22665378
0.10213681 -1.2192335 -0.23569834
0.14682516 -1.2153319 -0.24781419
0.17491542 -1.1031809 -0.23782508
0.05644431 -1.2337049 -0.27388236
0.10143106 -1.2174498 -0.28292027
0.14199041 -1.1763471 -0.28636941
0 -0 -0
0.050234143 -1.121111 -0.29357585
0.093214728 -1.129072 -0.30786943
0.11093301 -0.92107296 -0.26194388
0.14761016 -0.9286626 -0.27603823
0.052927662 -1.2132146 0.37516677
0.099093944 -1.2076259 0.35988373
0.14595655 -1.2121505 0.34969723
0.1989866 -1.2557845 0.3509565
0.05672672 -1.2818004 0.34256977
0.10440367 -1.2764336 0.32787403
0.14997685 -1.2534637 0.31037995
0.19866839 -1.2634754 0.30125859
0.056717772 -1.2810919 0.29122439
0.10311367 -1.2584993 0.27351651
0.15122658 -1.268036 0.26387745
0.19784236 -1.2641166 0.2515623
0.056531854 -1.2703694 0.23958682
0.10273734 -1.2579527 0.2247761
0.14930797 -1.2573602 0.21309249
0.19590802 -1.2549112 0.20152941
0.056555048 -1.2733927 0.19181675
0.10317951 -1.2712977 0.17916593
0.14504334 -1.2269326 0.16160066
0.19305299 -1.2438872 0.15264109
0.055596344 -1.256755 0.14223948
0.10289405 -1.268055 0.13149387
0.14840634 -1.2597177 0.1190085
0.19606146 -1.2673578 0.10832012
0.055809997 -1.266089 0.096669391
0.10192958 -1.2610835 0.084278211
0.15095392 -1.2840424 0.0739813
0.19154482 -1.2408853 0.059694927
0.056272682 -1.2857666 0.050813735
0.10205269 -1.270337 0.038135868
0.1495882 -1.2780033 0.02645883
0.19046876 -1.2373518 0.013656932
0.056223799 -1.288769 0.0036698992
0.10274611 -1.2848685 -0.0087963743
0.14619134 -1.2533395 -0.020307148
0.19148137 -1.2469693 -0.032352731
0.054871827 -1.2730873 -0.043162473
0.10249894 -1.2877171 -0.055926409
0.14639261 -1.2617625 -0.067147754
0.18950722 -1.2361264 -0.078021735
0.053670499 -1.2647115 -0.089360535
0.10096603 -1.2769114 -0.10260852
0.14822149 -1.2792809 -0.11541236
0.19113892 -1.2492443 -0.1255185
0.054022633 -1.2814569 -0.13802089
0.099813111 -1.2693788 -0.14912744
0.14536716 -1.2575251 -0.16023453
0.18791412 -1.2301781 -0.16995923
0.052522339 -1.2706363 -0.18425485
0.098304845 -1.259196 -0.19505301
0.14478309 -1.2567024 -0.20799306
0.17371774 -1.1384397 -0.20084442
0.049281441 -1.2148391 -0.22233656
0.093894146 -1.2100472 -0.23380671
0.1385842 -1.2093937 -0.24642533
0.16946825 -1.1129357 -0.23969935
0.044662151 -1.1276966 -0.250283
0.088039748 -1.1413141 -0.26509675
0.13189529 -1.1520878 -0.28026146
0.15302053 -1.0025681 -0.25604284
0.041896589 -1.083696 -0.28370562
0.083786234 -1.096908 -0.29895329
0 -0 -0
0.14132999 -0.92575675 -0.27491155
0.043979563 -1.1734161 0.36276945
0.091247022 -1.2024759 0.3581754
0.13917057 -1.2187539 0.35134932
0.18837717 -1.2379223 0.34563494
0.048860673 -1.2821243 0.34256977
0.095985271 -1.2693222 0.32588992
0.14009395 -1.2350626 0.30560488
0.18960449 -1.2560086 0.2991952
0.048558846 -1.2736201 0.28945267
0.094946735 -1.253261 0.2722463
0.14267319 -1.2621282 0.26246095
0.18833295 -1.2536628 0.24924731
0.048773617 -1.2716744 0.23977198
0.095164992 -1.2605227 0.22512676
0.1405977 -1.2494333 0.21159886
0.18966782 -1.265857 0.20309651
0.048891846 -1.2776684 0.192412
0.094784632 -1.2640069 0.1780531
0.14247863 -1.2721422 0.16743696
0.18717176 -1.2568312 0.15408565
0.047619235 -1.2501218 0.14145301
0.094665289 -1.2627108 0.130877
0.14078449 -1.2615941 0.11910191
0.18082038 -1.2182686 0.10402771
0.048342749 -1.2743787 0.097277857
0.093224145 -1.24875 0.083414167
0.14185704 -1.2740299 0.073352881
0.18612212 -1.2568587 0.060407273
0.047781285 -1.2701113 0.050182506
0.094403975 -1.2729329 0.038195688
0.14306532 -1.2908216 0.026705531
0.18740094 -1.2691629 0.013995083
0.048127737 -1.2840933 0.0036556746
0.094124459 -1.2755021 -0.0087281326
0.14091264 -1.2760772 -0.020661155
0.18251553 -1.2392197 -0.032122005
0.046948548 -1.2704037 -0.043060914
0.092108287 -1.2544448 -0.054455798
0.13930184 -1.2685928 -0.067464493
0.18249968 -1.2412158 -0.078270815
0.046162605 -1.2719951 -0.089853458
0.0929842 -1.2755185 -0.10244881
0.14123768 -1.2880869 -0.11612643
0.18361457 -1.2513781 -0.12561734
0.046230309 -1.2837515 -0.13823487
0.092668489 -1.2788829 -0.15017435
0.13948229 -1.2751589 -0.16236933
0.18711159 -1.277384 -0.17631917
0.044516042 -1.2650003 -0.18339452
0.090080589 -1.2528753 -0.19398463
0.13653481 -1.2526624 -0.20718186
0.16729964 -1.1433831 -0.20153168
0.041081917 -1.1934903 -0.21837912
0.086747497 -1.2145184 -0.23456335
0.13274495 -1.2248375 -0.24940148
0.16390793 -1.1226649 -0.24157363
0.039309032 -1.1747849 -0.26067537
0.084621362 -1.1923651 -0.27682871
0.12890431 -1.1905638 -0.28942341
0.14841048 -1.0140411 -0.25873545
0 -0 -0
0.072322764 -1.030017 -0.28059649
0.11357285 -1.0515343 -0.2986269
0.13425717 -0.91711259 -0.27209482
0.038095519 -1.2156826 0.3757571
0.084933728 -1.2183138 0.36273089
0.13158663 -1.2186292 0.35107398
0.17924705 -1.2285626 0.34270811
0.040838446 -1.2775717 0.34127998
0.088664897 -1.2766522 0.32762602
0.13520479 -1.2610031 0.31181249
0.17813088 -1.2311383 0.29300496
0.040867839 -1.2777929 0.29033855
0.087662183 -1.2596699 0.27351651
0.13523833 -1.2659012 0.26306802
0.17742139 -1.2324572 0.24481024
0.041128036 -1.2768607 0.24069774
0.08674787 -1.2512615 0.22337344
0.13490956 -1.2689039 0.21475208
0.17965147 -1.2513551 0.20058917
0.040987801 -1.2759675 0.19211437
0.088182874 -1.2813596 0.18041785
0.13498317 -1.2759507 0.16782606
0.17861526 -1.2520592 0.15336338
0.040138114 -1.2563494 0.14212714
0.086096346 -1.2513597 0.12964329
0.13575383 -1.288178 0.12153066
0 -0 0
0.040775862 -1.2826241 0.097886316
0 -0 0
0.13675122 -1.3006916 0.074838221
0 -0 0
0 -0 0
0 -0 0
0.13784721 -1.3175285 0.027240053
0 -0 0
0 -0 0
0 -0 -0
0.1357749 -1.3027743 -0.021079527
0 -0 -0
0 -0 -0
0 -0 -0
0.13398504 -1.2932626 -0.068731427
0 -0 -0
0.038386982 -1.2732514 -0.089923881
0.084094055 -1.2601515 -0.1011712
0.13374139 -1.2928921 -0.11648347
0.17704016 -1.2603647 -0.126408
0.038322799 -1.2830172 -0.13812788
0.085410975 -1.2883468 -0.15122128
0.13226636 -1.2819117 -0.16312277
0.17816952 -1.2706585 -0.17523663
0.036954455 -1.2721744 -0.18439823
0.083493412 -1.2701691 -0.19657925
0.12884603 -1.2534766 -0.20718186
0.16096404 -1.1492662 -0.20239072
0.032367662 -1.1445551 -0.20938492
0.079741351 -1.2218869 -0.23588753
0.12622324 -1.2353793 -0.25138557
0.16419032 -1.1749886 -0.25261104
0.032473203 -1.1886667 -0.26370648
0.079256609 -1.2229992 -0.28382272
0.11942535 -1.1700584 -0.28425512
0.15509939 -1.1071119 -0.28223461
0 -0 -0
0.070010766 -1.0930384 -0.29764208
0.10867812 -1.0675302 -0.30297449
0.12702949 -0.90651637 -0.26871479
0.030154202 -1.1967907 0.36985362
0.076848716 -1.2092453 0.35988373
0.12400944 -1.2184572 0.35079864
0.17517145 -1.2544611 0.34962609
0.033522431 -1.2980808 0.34669712
0.080707453 -1.2752385 0.32712999
0.12775767 -1.2647074 0.31252873
0.17043993 -1.231244 0.29277569
0.032976296 -1.2760698 0.28989559
0.080116943 -1.2631102 0.27415162
0.12805668 -1.2725536 0.2642822
0.17092665 -1.241299 0.24635358
0.034086492 -1.3075427 0.24643746
0.079751335 -1.2625782 0.2253021
0.12643351 -1.2628392 0.21359037
0.17102945 -1.2455845 0.19949217
0.033055104 -1.2722409 0.19151913
0.079204254 -1.2640864 0.17791398
0.12705329 -1.2757683 0.16769637
0.17025857 -1.2482135 0.15276147
0.03255672 -1.2615389 0.1426889
0.078167781 -1.2478935 0.12923205
0.12725756 -1.2830421 0.12097017
0.17202939 -1.265815 0.10789929
0.033007331 -1.2868372 0.098190546
0.077955104 -1.2507958 0.083480626
0.1277848 -1.291571 0.07426694
0.17095289 -1.2610277 0.060502253
0.031634692 -1.2486262 0.049314566
0.078220822 -1.2650167 0.037926491
0.12897696 -1.3103896 0.027075585
0.17288354 -1.2792944 0.014082346
0.03181218 -1.2625942 0.003593087
0.078894436 -1.2835476 -0.008775901
0.12582785 -1.2836809 -0.020757703
0.16956443 -1.2582083 -0.032557823
0.031823561 -1.2898675 -0.043704119
0.077377588 -1.2664499 -0.054931585
0.12517591 -1.2851152 -0.068256333
0.16765349 -1.2463294 -0.078457616
0.030693445 -1.2784492 -0.090275966
0.076360323 -1.2606437 -0.1011712
0.12426338 -1.277827 -0.11505532
0.16970049 -1.2643859 -0.1267045
0.030496806 -1.2852162 -0.13834187
0.0758349 -1.2610868 -0.14796419
0.12296173 -1.2678874 -0.16123913
0.17076424 -1.2746739 -0.17564258
0.028875861 -1.2605044 -0.18267757
0.074816644 -1.2558595 -0.19428986
0.12010883 -1.2434396 -0.2053972
0.15482381 -1.1570672 -0.20359337
0.024146659 -1.0906426 -0.19949131
0.071373492 -1.2076497 -0.23305006
0.11658064 -1.2146665 -0.24702054
0.15516585 -1.1624013 -0.24969548
0.022615684 -1.067812 -0.23685953
0.067701399 -1.1544118 -0.26780412
0.11196546 -1.1678665 -0.28355035
0.14984685 -1.1195749 -0.28517202
0.02053288 -1.0146418 -0.26548365
0.063358456 -1.0944107 -0.29790431
0.10487362 -1.0969172 -0.31112629
0.11968231 -0.89396441 -0.26477137
0.023429219 -1.2294325 0.37988958
0.06657128 -1.1599281 0.34507838
0.11616492 -1.2153673 0.34969723
0.16364738 -1.2268476 0.34164378
0.025081536 -1.2741127 0.34024814
0.072383925 -1.2670052 0.32489786
0.11944515 -1.2596672 0.31109622
0.16798396 -1.2708654 0.30194643
0.024761658 -1.2567486 0.28546634
0.072253376 -1.2616266 0.27372822
0.11886494 -1.2586907 0.26124677
0.16573673 -1.2608085 0.25001895
0.025965011 -1.3028147 0.2455117
0.07161057 -1.2561635 0.22407478
0.11748368 -1.2508277 0.21143289
0.165437 -1.2622788 0.20199955
0.025051981 -1.2625331 0.19003102
0.07206095 -1.2754244 0.17944413
0.11802424 -1.2636895 0.16601032
0.16195582 -1.2443126 0.15215959
0.02467867 -1.2547604 0.14190242
0.070902035 -1.2553014 0.12995172
0.11818412 -1.2709112 0.1197558
0.16182482 -1.2480713 0.10630016
0.025169175 -1.2900063 0.09841872
0.070894398 -1.2622091 0.084211744
0.1181979 -1.274437 0.073238626
0.16269971 -1.2580904 0.060312297
0.024548018 -1.2787679 0.05049812
0.070123963 -1.2594848 0.037747029
0.12065865 -1.3081696 0.027013909
0.16503069 -1.280331 0.014082346
0.02457889 -1.2897607 0.0036698992
0.070244126 -1.2700294 -0.0086803632
0.11666889 -1.2704892 -0.020532424
0.15941976 -1.2403862 -0.032070734
0.024056638 -1.2980325 -0.04397494
0.069166876 -1.2589204 -0.054585561
0.11756036 -1.2888426 -0.068414696
0.1607649 -1.2532742 -0.078831218
0.023097966 -1.2925764 -0.091261819
0.068461232 -1.2581025 -0.10093164
0.11533663 -1.2666626 -0.1139842
0.16332868 -1.2762611 -0.12779167
0.022610294 -1.2853792 -0.13834187
0.069487482 -1.2873143 -0.15098862
0.11571804 -1.2745461 -0.16199259
0.16494825 -1.2914227 -0.17780766
0.021157602 -1.2616473 -0.18282098
0.067267574 -1.2592555 -0.19474775
0.1133654 -1.2539805 -0.20701961
0.15694605 -1.230309 -0.21630722
0.017989259 -1.1242113 -0.20560735
0.061366282 -1.1590363 -0.22359185
0.11070312 -1.2329304 -0.25059193
0.15543827 -1.2215466 -0.2621907
0.015622794 -1.0386454 -0.23036428
0.053722717 -1.0234671 -0.23734619
0.10662078 -1.1888622 -0.28848371
0.14923342 -1.1695241 -0.29765594
0 -0 -0
0 -0 -0
0.09411259 -1.0524881 -0.29835516
0.10022416 -0.78522617 -0.23237914
0.014737246 -1.1407042 0.35243833
0.060090542 -1.1727604 0.34877971
0.10904776 -1.2198873 0.35079864
0.15550858 -1.2230474 0.3403134
0.017315609 -1.2781069 0.34127998
0.064411089 -1.2635555 0.32390583
0.11171374 -1.2603763 0.31109622
0.15604761 -1.2390373 0.29415131
0.016930882 -1.2481011 0.28347316
0.064760283 -1.2669264 0.27478674
0.1091595 -1.2369593 0.25659248
0.15897274 -1.2695905 0.2515623
0.017753761 -1.2872276 0.24254926
0.064251557 -1.2634618 0.2253021
0.11144415 -1.2701899 0.21458614
0.15744402 -1.2613101 0.20168613
0.017480917 -1.2755171 0.19196557
0.06517981 -1.2946339 0.18208709
0.1094067 -1.2545118 0.16471337
0.15688165 -1.265972 0.15468755
0.017127018 -1.2658176 0.1431383
0.063048318 -1.2527325 0.12964329
0.10986711 -1.265661 0.11919532
