# .PCD v0.7 - Point Cloud Data file format
VERSION 0.7
FIELDS x y z
SIZE 4 4 4
TYPE F F F
COUNT 1 1 1
WIDTH 1641
HEIGHT 1
VIEWPOINT 0 0 0 1 0 0 0
POINTS 1641
DATA ascii
1.9721634 1.3106651 -0.47935876
1.8023721 1.2964867 -0.47273463
1.5540446 0.87345606 -0.39534321
2.1352134 1.3075027 -0.57982862
1.9519434 1.2969325 -0.56639594
1.771314 1.2750845 -0.5510062
1.5264494 0.85605401 -0.45782647
2.1431606 1.3101587 -0.68260998
1.9770157 1.3128455 -0.67007637
1.7591082 1.2663913 -0.63629627
5.3594198 2.997335 1.8970865
5.4463477 3.3257372 1.8953687
5.1727867 3.4348071 1.7784995
4.6242995 3.3256814 1.5722532
6.2310452 3.4899459 1.9068341
5.8521776 3.5714486 1.7551925
5.256918 3.4849896 1.550706
0 0 0
7.0139923 3.9286275 1.8257444
6.942883 4.2384114 1.7619798
6.8899994 4.5638075 1.7077161
6.7404795 4.8281565 1.6301392
5.9786015 3.3504741 1.2912508
5.8855901 3.5908525 1.2278526
0 0 0
0 0 0
1.3147279 0.73663718 0.22678722
5.8846951 3.5862205 0.96802449
0 0 0
0 0 0
6.5472584 3.6669035 0.8484934
5.9169888 3.6057594 0.71617383
5.1162891 3.3784099 0.57523888
4.6402926 3.3114467 0.48150691
1.2189126 0.68242127 0.1065569
5.9049602 3.5958855 0.46053922
5.1520252 3.4001997 0.35322499
0 0 0
1.1650347 0.65177643 0.052707411
1.1409041 0.69400102 0.039960407
5.1385479 3.3875725 0.12655832
1.9496104 1.389091 0.026113972
1.1485732 0.64235657 0.0037438662
1.1100252 0.67466044 -0.008864616
1.1180799 0.73644716 -0.021546174
0 0 -0
1.1281872 0.63018012 -0.043771826
1.1041355 0.67052674 -0.055926409
1.1112745 0.73099166 -0.0703151
1.075044 0.76497579 -0.082318224
1.1412591 0.63648909 -0.092247672
1.1062523 0.67101967 -0.10364658
1.1043377 0.72618014 -0.11844717
0 0 -0
1.242795 0.69266158 -0.1531069
1.0940595 0.66297096 -0.14982538
1.055406 0.6936084 -0.15985779
0.93115461 0.66182888 -0.15602148
1.9139411 1.0646626 -0.31731984
2.1019063 1.2720948 -0.37942234
1.0392749 0.68243587 -0.20442377
0 0 -0
2.0201521 1.1217136 -0.42254743
2.1301954 1.2878447 -0.47953075
2.0309839 1.3318629 -0.49166021
1.788761 1.2701142 -0.46711174
1.5055737 0.8340981 -0.38170323
2.1381924 1.2913548 -0.57847494
1.9842511 1.3009197 -0.57344359
1.8028153 1.2810403 -0.55834967
1.5181262 0.83918321 -0.45377713
2.1329782 1.2860219 -0.67684072
2.0196474 1.3233702 -0.68176055
1.7934382 1.2744713 -0.64587319
5.3835673 2.9676225 1.8991528
5.4453011 3.279398 1.887966
5.2878461 3.4646456 1.8107157
4.722435 3.3524871 1.5985949
6.2658753 3.4591186 1.9109615
5.9188027 3.5624502 1.7685853
5.3220859 3.4813738 1.5635986
0 0 0
7.0430875 3.888344 1.8270731
5.8811202 3.5408883 1.4869814
6.9088554 4.5155516 1.7054902
6.8108377 4.8155966 1.6399778
0 0 0
5.9184785 3.5612702 1.2301319
0 0 0
0 0 0
1.2430475 0.6864875 0.21369191
5.8930087 3.541883 0.96579891
0 0 0
0 0 0
1.2465951 0.6881628 0.16100252
5.9492326 3.5755341 0.71740746
5.1227412 3.3377135 0.57365084
0 0 0
1.2239499 0.67541105 0.10663296
5.9243469 3.5580444 0.46033981
5.1443467 3.3500001 0.35128263
0 0 0
1.1847621 0.65330058 0.053417541
1.1374265 0.68235958 0.03969121
5.1617513 3.3576148 0.12661999
0 0 0
1.1551201 0.63674515 0.0037524004
1.1158594 0.66886503 -0.0088782646
1.0982648 0.71377182 -0.021079527
6.7289381 4.7286835 -0.21090803
1.1346591 0.62469184 -0.043873381
1.1065148 0.66271257 -0.0558399
1.1098754 0.72035366 -0.069945581
1.0486819 0.73656636 -0.079952046
1.1486396 0.63139653 -0.092529342
1.1120597 0.66524261 -0.10380628
1.1238126 0.72914851 -0.12005384
0.95701593 0.67175865 -0.11612932
1.2444074 0.68358678 -0.15278591
1.1594915 0.69292998 -0.15820071
1.0529829 0.68280143 -0.1588532
0.92140931 0.6464293 -0.15372108
1.2591755 0.6903553 -0.20805743
2.1156123 1.2627194 -0.38049069
1.1055523 0.71628696 -0.21659184
0.84929234 0.59563547 -0.18091463
1.4876723 0.81414568 -0.31011993
2.1304665 1.270224 -0.47782826
2.0613358 1.3337517 -0.49701726
1.8373688 1.2877437 -0.47773269
1.4875278 0.81221199 -0.3758575
2.1527715 1.2821989 -0.58027983
2.0313706 1.3140614 -0.58471984
1.8368368 1.2883271 -0.56642753
1.5130521 0.82429844 -0.45074016
2.1383405 1.2714305 -0.676054
2.0640976 1.3344656 -0.69398826
1.818506 1.2755649 -0.65206993
5.3882418 2.9272361 1.8944298
5.4793315 3.254246 1.8928062
5.3897381 3.4843266 1.8382509
4.8210707 3.3782115 1.6249366
6.2717061 3.4122953 1.9063182
6.2921009 3.7347324 1.873247
5.4102511 3.4918334 1.5831765
0 0 0
7.0145621 3.8166254 1.8135638
6.9447904 4.1234531 1.7494894
5.3916192 3.4768763 1.3256605
6.8402572 4.7737155 1.6399778
0 0 0
5.9444523 3.5274003 1.2310085
0 0 0
4.9466586 3.4493771 0.956873
1.3471195 0.73321187 0.23080511
5.9248528 3.5117166 0.96746814
0 0 0
0 0 0
1.2778525 0.69522214 0.16448547
6.103693 3.6175728 0.73334306
5.4488144 3.5027285 0.60774672
4.7664843 3.3139806 0.4903442
1.2228155 0.66503 0.10617661
5.930614 3.5124743 0.45914346
0 0 0
0 0 0
1.1922601 0.64792717 0.053575348
1.1424524 0.67587656 0.03972112
1.1485273 0.7371043 0.028062394
0 0 0
1.1642777 0.63250971 0.0037694699
1.1345766 0.67065597 -0.0089942757
1.1186161 0.71727407 -0.021385262
1.0826322 0.7509262 -0.033788353
1.1437415 0.62057781 -0.044076502
1.1028183 0.6513381 -0.055450622
1.102501 0.70599085 -0.069206536
1.1581718 0.80290228 -0.087922342
1.1586318 0.62766272 -0.093022272
1.1255647 0.6639778 -0.10468464
1.1198767 0.71686941 -0.11916125
0.9333086 0.64660603 -0.11276899
1.2442067 0.67357165 -0.15225095
1.2005156 0.70748591 -0.16320266
1.0705237 0.68488193 -0.16086242
0.92698753 0.64189154 -0.15399171
1.2128869 0.6553303 -0.19974086
2.1011758 1.236681 -0.37652248
1.0633678 0.67972857 -0.20750634
0.86832106 0.60106629 -0.18417898
1.3134191 0.70834583 -0.27288395
2.1289091 1.2516533 -0.47574747
2.0802207 1.3279344 -0.4995966
1.8573012 1.2847918 -0.48085645
1.5139766 0.81463432 -0.3812702
2.1353972 1.2541643 -0.57351142
2.1008477 1.3407922 -0.60233897
1.8710147 1.2952441 -0.57450533
1.4933625 0.80172837 -0.44340074
2.1311171 1.2495005 -0.67133367
2.0868514 1.3310909 -0.6988793
1.8562768 1.2851373 -0.66277349
5.4119983 2.8972757 1.8964961
5.540556 3.2447863 1.9070421
5.4215531 3.4579108 1.8418305
4.9027548 3.3907869 1.6454246
6.3001885 3.3778572 1.9086398
6.2839637 3.6779485 1.8640705
5.4905515 3.4961245 1.6003668
0 0 0
7.0490212 3.7795036 1.816443
6.9615273 4.0758257 1.7473726
5.5863671 3.554121 1.3681561
6.7902288 4.6771083 1.6210722
0 0 0
5.9787297 3.4983172 1.2336385
0 0 0
0 0 0
0 0 0
0 0 0
0 0 0
0 0 0
1.2540703 0.67234379 0.16089016
6.2288303 3.6402812 0.74568021
5.502995 3.4900253 0.61138976
4.9099712 3.369241 0.50296897
1.2426922 0.66599244 0.10754565
1.1304423 0.66018182 0.087202691
1.0650092 0.67506903 0.072153188
0 0 0
1.1838813 0.63399535 0.053023025
1.1448512 0.66784656 0.039661303
1.1445813 0.72469491 0.027856808
4.9560947 3.3954229 0.065535821
1.1690184 0.62582594 0.0037723149
1.126575 0.65663195 -0.0088987369
1.1255311 0.71200037 -0.021433534
1.1061921 0.75725716 -0.034377981
1.1466465 0.61307704 -0.044042651
1.1076574 0.64506191 -0.05549388
1.1034352 0.69707936 -0.068995371
1.0518758 0.71969688 -0.079516172
1.1607012 0.61960214 -0.092881434
1.1278943 0.65605652 -0.10452493
1.0922531 0.68977517 -0.11576939
0.96025872 0.65659398 -0.11553632
1.2211217 0.65141749 -0.14893417
1.2142804 0.70559537 -0.16448221
1.0671554 0.67353487 -0.15973224
1.0347974 0.70719016 -0.17117709
1.2334831 0.65671259 -0.20246525
2.1121438 1.2257494 -0.37713301
2.1108322 1.3311182 -0.41030768
0.99319333 0.67852867 -0.20977849
1.2951558 0.68827146 -0.26820698
2.1348498 1.2375821 -0.47536913
2.1273096 1.3396933 -0.50892186
1.9257327 1.3147327 -0.49647543
1.5085961 0.7998417 -0.37867212
2.1337788 1.2356678 -0.57102966
2.123841 1.3371984 -0.6065675
1.9093485 1.3045243 -0.58380711
1.5375915 0.81335914 -0.45504254
1.6575265 0.95821047 -0.52028358
2.1234882 1.3362002 -0.7083897
1.9108691 1.305661 -0.6793921
5.4491105 2.8742664 1.9032851
5.5337963 3.1953897 1.8979311
5.5525146 3.493696 1.879003
5.017415 3.4247663 1.6768218
6.3301935 3.3441007 1.9114774
6.6227403 3.8218689 1.9575717
5.5941305 3.5140231 1.6242422
4.97154 3.3848104 1.4166492
6.9936152 3.6947279 1.7962897
6.985558 4.0325451 1.7471608
5.8229032 3.6546125 1.4205674
5.0213885 3.4134929 1.1937634
0 0 0
6.0026412 3.4630427 1.2341646
0 0 0
5.0490737 3.4294791 0.96846956
1.3892385 0.73418295 0.23645991
0 0 0
0 0 0
5.030468 3.4103024 0.7369628
1.2476288 0.65906674 0.15954192
6.3131032 3.6377499 0.75308251
0 0 0
4.9503536 3.3524604 0.50498891
1.2467554 0.65835488 0.10754565
1.1950001 0.68808556 0.091855273
0 0 0
4.9560442 3.3539174 0.28451255
1.2124938 0.63977587 0.054127671
1.1515268 0.6623044 0.039751034
1.1396787 0.71183228 0.027630666
4.9710369 3.3610287 0.06545946
1.1728363 0.6186412 0.0037723149
1.1314499 0.65020531 -0.0089055607
1.1129135 0.69449407 -0.021111708
1.1182728 0.75549203 -0.034608707
1.1654185 0.6139487 -0.044618148
1.1089953 0.63676089 -0.055364117
1.103454 0.68765491 -0.068731427
1.0306304 0.69591504 -0.077585861
1.1724268 0.61664766 -0.093515202
1.142275 0.6550743 -0.10548315
1.1099911 0.69148666 -0.11719754
0.95767045 0.6462366 -0.11474565
1.2118943 0.63697386 -0.14732927
1.2513354 0.71689308 -0.16890252
1.0940071 0.68113166 -0.16312277
1.0152955 0.68476099 -0.16725287
1.230478 0.64545393 -0.20131814
2.1221983 1.2142389 -0.37759086
2.1231496 1.3207475 -0.41111889
0.98426884 0.66361034 -0.20702955
1.2967402 0.67894274 -0.26766732
2.1381407 1.2220234 -0.47442332
2.1321595 1.3245465 -0.50812823
1.9670204 1.325299 -0.50501382
1.4407871 0.75260097 -0.36048546
1.6624634 0.94915628 -0.44333202
2.1295288 1.3226032 -0.6058628
1.9406301 1.3085034 -0.59090579
1.5159575 0.79004884 -0.44719699
1.5644442 0.89163768 -0.48933929
2.1259234 1.3195928 -0.70648766
1.9355508 1.3051769 -0.6853072
5.4183192 2.8156648 1.8864602
5.5158105 3.1400332 1.8851187
5.6040688 3.4783185 1.8891912
5.1038918 3.4380763 1.6986401
6.3557353 3.3078728 1.9130251
6.4886084 3.6915777 1.9111931
5.7138162 3.5404987 1.6526538
5.0382671 3.385184 1.4297174
0 0 0
7.0110197 3.9900901 1.7473726
5.8635364 3.630156 1.4250193
6.8487425 4.5945225 1.6214581
0 0 0
6.0109401 3.4188447 1.2315345
0 0 0
0 0 0
1.2428553 0.64709812 0.2108645
0 0 0
0 0 0
0 0 0
1.2604637 0.65598637 0.16066545
6.5463376 3.718828 0.77816814
0 0 0
0 0 0
1.2551943 0.65299344 0.10792594
1.2061414 0.68468082 0.092386998
0 0 0
0 0 0
1.2190564 0.63370675 0.054246027
1.1442654 0.648817 0.039362196
1.1423225 0.70377707 0.027589548
4.9940615 3.3321285 0.065492183
1.1872582 0.61696643 0.0038064534
1.132808 0.64177191 -0.0088850884
1.1128964 0.68503165 -0.021031253
1.1212238 0.74750715 -0.034557436
1.16118 0.60264277 -0.044313472
1.1154898 0.63142067 -0.05549388
1.1025482 0.6777336 -0.068414696
1.0656118 0.71005517 -0.079889782
1.1735314 0.60806543 -0.093303941
1.1636276 0.65786463 -0.10708017
1.0963924 0.67371237 -0.1153231
1.0552119 0.70267332 -0.12591383
1.2095994 0.62632567 -0.14658032
1.2332256 0.69650239 -0.1658781
1.0947844 0.67232949 -0.16262047
1.001332 0.6664412 -0.16427588
1.2045221 0.62244421 -0.19644293
2.108089 1.1890562 -0.37377527
2.1228032 1.3025346 -0.40949649
1.2483206 0.83054274 -0.26149294
1.2895164 0.6651113 -0.26532882
2.1250668 1.1973128 -0.46988341
2.1277108 1.3037575 -0.50515205
2.0150249 1.3397396 -0.51521826
1.3090868 0.67361528 -0.32649371
1.5222305 0.85675085 -0.40452635
2.1309731 1.3054496 -0.6039834
1.9865618 1.3218154 -0.60241061
1.4674159 0.7533381 -0.43150586
1.5673617 0.88060355 -0.48855257
2.1364427 1.3080311 -0.70730281
1.9658897 1.3081596 -0.69319403
0 0 0
5.5458412 3.1122286 1.8888201
5.6236658 3.442863 1.8886403
5.2107878 3.4637928 1.7271104
6.3810711 3.2714572 1.914573
6.5136724 3.6531165 1.9119372
5.8149762 3.553988 1.6755742
0 0 0
0 0 0
7.0200276 3.9383883 1.7435619
5.8656406 3.5818603 1.4201626
6.8939867 4.5637875 1.6255093
0 0 0
5.9373431 3.3289356 1.2122481
5.8603349 3.5745494 1.1552467
0 0 0
1.1720119 0.60110134 0.1982156
1.2623314 0.70692146 0.2032309
5.9181437 3.6055601 0.90644228
0 0 0
1.2494329 0.64053363 0.15875545
6.6106915 3.7019188 0.78310305
5.938807 3.6148808 0.65230483
5.1341996 3.3858147 0.51946527
1.2618395 0.64664364 0.10815411
1.2085782 0.67629266 0.092254065
5.915092 3.5984654 0.39618558
5.1844912 3.4165139 0.29519781
1.2220323 0.62575942 0.054206576
1.1560775 0.64617276 0.039631389
1.1432017 0.69467789 0.027507314
5.1697559 3.4036987 0.067521088
1.1910214 0.60966998 0.0038064534
1.1489475 0.64163494 -0.0089806272
1.1204976 0.68026578 -0.021095619
1.118273 0.73566866 -0.03432671
1.1684155 0.59732634 -0.044448886
1.1245778 0.62748504 -0.055753395
1.1041243 0.66940266 -0.068256333
1.0932989 0.71885651 -0.081633285
1.171021 0.59767902 -0.092811018
1.1702545 0.6521681 -0.10731972
1.1064681 0.67058599 -0.11594791
1.0977588 0.72132242 -0.13046017
1.1921626 0.60804999 -0.1440125
1.2609065 0.70196646 -0.16901885
1.1430144 0.69232619 -0.16915041
1.0675153 0.70107645 -0.17442471
1.2180206 0.61997998 -0.19802019
1.3258697 0.73716283 -0.23427728
2.1231575 1.2848868 -0.40803632
1.3835089 0.90829009 -0.28863871
1.2523543 0.63624567 -0.25687429
1.9778534 1.0984358 -0.43583387
2.1146998 1.2780042 -0.50019181
2.0354741 1.3353981 -0.51834202
1.3236454 0.67086655 -0.32909185
1.5249031 0.84597659 -0.40384951
2.1297917 1.2868204 -0.6013993
2.0084133 1.3186475 -0.60657191
1.4840976 0.75043178 -0.43504903
1.5803334 0.87517744 -0.49091277
2.1230087 1.2819635 -0.70023793
1.9851083 1.3034456 -0.69713742
0 0 0
5.590837 3.0925252 1.8976464
5.6718426 3.42469 1.8977269
5.2778873 3.4618905 1.7422769
6.3975744 3.2305 1.9135411
6.5283341 3.6088622 1.909705
5.9298205 3.5743885 1.7023146
0 0 0
0 0 0
6.991034 3.8659174 1.7304367
5.8673744 3.5336764 1.415306
6.9218597 4.5214005 1.6255093
0 0 0
0 0 0
5.9024382 3.5507238 1.1592298
0 0 0
1.1730303 0.59256113 0.19776918
1.273581 0.70299101 0.20434374
5.9384561 3.5681579 0.90618289
0 0 0
1.2480175 0.6301679 0.15808132
0 0 0
5.9181948 3.5527511 0.64763415
5.1339974 3.3406615 0.5173611
1.2666736 0.63933831 0.10823017
1.2205685 0.67320126 0.092852257
5.9293551 3.5574803 0.3956714
5.1542749 3.3514235 0.29230091
1.2329863 0.62184906 0.054522187
1.1652735 0.64196098 0.039810855
1.1422971 0.68456662 0.027383963
1.8573594 1.2065895 0.024161424
1.2125986 0.61135423 0.003863351
1.1493586 0.63264424 -0.0089533301
1.1186454 0.66978222 -0.020982979
1.1227659 0.72879326 -0.03432671
1.1934823 0.6009329 -0.045261353
1.1354101 0.6244244 -0.056099422
1.1056396 0.66107786 -0.068097964
1.0901536 0.70724577 -0.081072867
1.1755574 0.59093052 -0.092881434
1.1698656 0.64257586 -0.10692047
1.1122718 0.66480625 -0.11612643
1.1330581 0.73460287 -0.13411702
1.2083095 0.6069718 -0.14551039
1.2294893 0.67462742 -0.16424957
1.1710886 0.69954503 -0.17266653
1.0759544 0.69720709 -0.1751013
1.2191476 0.61116409 -0.19759002
1.3035005 0.7142908 -0.22954594
2.1259174 1.268801 -0.40706286
2.0918524 1.3550318 -0.43467617
1.2263243 0.61358386 -0.25075823
1.4772195 0.80858022 -0.32441625
2.1283951 1.268517 -0.50158072
2.0748303 1.3430803 -0.52625567
1.3032784 0.65052396 -0.32302961
1.4736494 0.80575722 -0.38895896
2.1301322 1.26925 -0.59928495
2.0685463 1.3400375 -0.62223798
1.4782822 0.7361365 -0.43201205
1.5729679 0.85852945 -0.48697916
2.1275272 1.2669432 -0.69915104
2.0389695 1.3209782 -0.71319264
0 0 0
5.6046572 3.0554092 1.895938
5.6828375 3.3839216 1.8944227
5.3718629 3.4765775 1.7662239
6.4008389 3.1830106 1.9086398
6.5503545 3.5687373 1.909705
6.4466376 3.832186 1.8438957
0 0 0
0 0 0
7.0026093 3.8164008 1.7274728
5.9150481 3.5131109 1.4215791
6.8084369 4.3879485 1.5925205
0 0 0
0 0 0
6.8307538 4.0522985 1.336641
0 0 0
1.2191414 0.60649377 0.20491208
1.2613425 0.68617201 0.20170076
6.1120801 3.6216249 0.92926872
0 0 0
1.2491915 0.62117106 0.15774426
1.2364061 0.67257857 0.14547601
0 0 0
5.4529128 3.5007415 0.54732376
1.2732513 0.63288558 0.10845835
1.2308128 0.66903496 0.093317516
1.1762948 0.69597059 0.078208804
0 0 0
1.2376735 0.61471635 0.054561637
1.1876377 0.64481449 0.040438976
1.1447546 0.67652738 0.027342847
1.8596767 1.1919327 0.024095975
1.2270751 0.6092388 0.0038974897
1.1611296 0.62987137 -0.009014748
1.1201512 0.66138071 -0.020934707
1.1129054 0.71272516 -0.033890896
1.1855071 0.58782685 -0.044821266
1.1453686 0.62077832 -0.056402192
1.1079546 0.65326697 -0.067992382
1.1121254 0.71184254 -0.082380496
1.1791612 0.58370632 -0.092881434
1.1781695 0.6377582 -0.10731972
1.1412137 0.67263538 -0.11871495
1.094792 0.70029002 -0.12907651
1.1995347 0.59337455 -0.1440125
1.2580681 0.68029875 -0.16750664
1.2095511 0.7124871 -0.17768955
1.1060904 0.70713639 -0.17929615
1.2175502 0.60104364 -0.1967297
1.2939453 0.69876558 -0.22710395
2.1268597 1.2517288 -0.40576494
2.1134086 1.3506589 -0.43742508
1.247714 0.61474282 -0.25435591
1.3006649 0.70160288 -0.28469184
2.1352937 1.2549369 -0.50138229
2.1061127 1.3450644 -0.53208673
1.2923505 0.635194 -0.31934896
1.4639859 0.78884381 -0.38512352
2.1311758 1.2522166 -0.59740561
2.0554886 1.3137438 -0.61587363
1.626097 0.79732949 -0.47377065
1.5714071 0.84520483 -0.48488125
2.1369207 1.2548397 -0.69969445
2.0680568 1.3218783 -0.72051615
0 0 0
5.6275215 3.0232306 1.8973618
5.6935458 3.3431475 1.8911185
5.5076504 3.5166965 1.8037409
0 0 0
6.5678611 3.5261865 1.9084649
6.5052161 3.8131831 1.8539233
5.4942074 3.4989409 1.5342638
0 0 0
7.0362258 3.7789104 1.730013
5.9601545 3.4906085 1.4272453
6.8079085 4.3287163 1.5861543
0 0 0
0 0 0
6.8810253 4.0252471 1.3416197
0 0 0
1.2121831 0.59378171 0.20312634
1.2908397 0.69198805 0.20573477
6.1384678 3.5865548 0.92991722
0 0 0
1.2538719 0.61393142 0.15785661
1.242263 0.66591936 0.14568163
0 0 0
5.5146971 3.4928093 0.55136371
1.2806931 0.62681442 0.10876258
1.2366538 0.66241252 0.093450442
1.1883041 0.69326776 0.078722954
0 0 0
1.2530913 0.61281735 0.055074509
1.1924531 0.63798666 0.040468883
1.1454289 0.66747713 0.027260613
1.626085 1.0281943 0.02098717
1.2307901 0.60169816 0.0038974897
1.1605632 0.6203779 -0.0089806272
1.1172755 0.65047055 -0.020805977
1.113032 0.70321333 -0.033762716
1.2016649 0.58668029 -0.045295205
1.1650186 0.62221062 -0.057180751
1.1197119 0.65097356 -0.068467483
1.1021261 0.69594622 -0.081321947
1.1854106 0.57777125 -0.093092687
1.1785424 0.62864047 -0.10700031
1.1263742 0.65461016 -0.11675125
1.0999098 0.69409037 -0.12917534
1.1986835 0.5838263 -0.14347753
1.2420582 0.66182417 -0.16483118
1.2096106 0.70256072 -0.17706168
1.118789 0.70562178 -0.18064934
1.2265557 0.59615725 -0.19759002
1.2921014 0.68756318 -0.22603559
2.1310861 1.2366741 -0.40511599
2.1374896 1.3476484 -0.44068944
1.2319915 0.59763014 -0.25039846
1.3049455 0.69360894 -0.28469184
2.1344733 1.2368972 -0.4993982
2.1374969 1.3467149 -0.53791785
1.2927085 0.62555134 -0.31848294
1.4653567 0.77801871 -0.38422105
2.124521 1.2308328 -0.59341192
2.1283031 1.3419603 -0.63521147
1.6448985 0.79406631 -0.47781998
1.5612158 0.8274129 -0.48016092
2.1320875 1.234471 -0.69561863
2.1353772 1.3465248 -0.74107814
0 0 0
5.6823964 3.0079281 1.9096045
5.7439027 3.32549 1.9010311
5.6155806 3.5372953 1.8319451
0 0 0
6.5910864 3.4867268 1.9089611
6.6176109 3.8247039 1.8792312
5.6342587 3.5397274 1.5672785
0 0 0
0 0 0
5.9882445 3.4578896 1.4288641
6.7246189 4.218039 1.5606894
1.2630615 0.60925913 0.26421204
0 0 0
6.9312205 3.997731 1.3465985
0 0 0
0 0 0
1.2705436 0.67110425 0.20183986
0 0 0
0 0 0
1.2531399 0.60406888 0.15729485
1.2472053 0.65874904 0.14578445
0 0 0
5.5672922 3.478442 0.55447781
1.2818202 0.61764592 0.1085344
1.24246 0.65574354 0.093583383
1.1916702 0.68546563 0.07866583
1.0642004 0.66442138 0.059647433
1.265831 0.60945159 0.055469025
1.19104 0.62786126 0.040289424
1.1460353 0.65844405 0.027178377
1.1419756 0.71231484 0.014682292
1.2524803 0.6028083 0.0039543873
1.1705412 0.61650705 -0.0090283966
1.1351203 0.65156692 -0.021063436
1.1139324 0.69425565 -0.033660173
1.2187538 0.58579034 -0.045802999
1.1608574 0.61086333 -0.056791473
1.1254178 0.64508402 -0.068573058
1.1038342 0.6875875 -0.081135139
1.1835374 0.56789768 -0.092670187
1.1656125 0.61258644 -0.10548315
1.153703 0.66105616 -0.11916125
1.1058375 0.68838012 -0.129373
1.1852092 0.56829274 -0.14144465
1.2144376 0.63757038 -0.16064352
1.2268125 0.70252037 -0.1789453
1.1045896 0.68722886 -0.17767234
1.2284051 0.58776575 -0.19730325
1.2385272 0.64933503 -0.21596244
2.1215045 1.2137743 -0.40187117
2.1365166 1.3287847 -0.43879956
1.2356353 0.59005952 -0.25039846
1.2900392 0.67556697 -0.28053021
2.1369164 1.2208599 -0.49820772
2.1299365 1.3237646 -0.533961
1.2727251 0.60627156 -0.31263724
1.4597441 0.76359403 -0.38151368
1.5277039 0.87259328 -0.42520806
2.1340272 1.3273398 -0.63447708
1.6576041 0.78769553 -0.48009771
1.5072397 0.78699893 -0.46206638
1.6891313 0.96421081 -0.54915828
2.1509318 1.3379583 -0.74361324
0 0 0
5.6369982 2.93976 1.8882507
5.7842374 3.301621 1.9076397
5.6953115 3.5388937 1.8508366
0 0 0
6.6218061 3.4511437 1.911689
6.5338016 3.722971 1.8489095
5.6906209 3.5266247 1.5769078
1.0149148 0.48162532 0.25512585
0 0 0
6.0102 3.4215658 1.4290664
6.0219345 3.7259865 1.3922739
0 0 0
0 0 0
6.9101868 3.9292922 1.3378026
0 0 0
1.2810174 0.60812283 0.21339427
1.2632176 0.65735304 0.20003152
0 0 0
0 0 0
1.2541295 0.59509045 0.15695779
1.2485765 0.64970648 0.14547601
6.4971895 3.6865034 0.70087969
0 0 0
1.2792796 0.60677809 0.108002
1.2446896 0.64718699 0.093450442
1.2036697 0.68257302 0.07917998
1.1796757 0.72649544 0.065868624
1.2749643 0.60424078 0.055705737
1.2099501 0.62837297 0.0407979
1.1552734 0.65435612 0.027301729
1.1326983 0.6969105 0.014507762
1.2751333 0.60410279 0.0040141298
1.1840657 0.61437929 -0.009103463
1.1286544 0.63868058 -0.020870341
1.1105067 0.68269575 -0.033429448
1.2277458 0.58086568 -0.046006117
1.1707925 0.6069476 -0.057094246
1.1284856 0.63767523 -0.068520278
1.1088825 0.68132406 -0.081197403
1.1879016 0.56105089 -0.092740595
1.1684641 0.60496449 -0.1054033
1.1768162 0.66474169 -0.12112496
1.0973204 0.6737715 -0.1278905
1.1886739 0.56100971 -0.14144465
1.2077404 0.62463152 -0.15924764
1.2311 0.69497961 -0.1789453
1.1163857 0.68510234 -0.1788902
1.2194537 0.574314 -0.19529581
1.2231702 0.63174599 -0.2126047
2.1134417 1.1920085 -0.39895082
2.1370721 1.3110141 -0.43725327
1.2356715 0.5807929 -0.24967892
1.2906696 0.66583794 -0.27977356
2.1324115 1.2009914 -0.49542999
2.1313481 1.3065811 -0.53229499
1.2666976 0.59389204 -0.31025565
1.439288 0.74168134 -0.37497088
1.5211717 0.85652637 -0.42191917
2.1396523 1.3126997 -0.63374281
1.6229711 0.75906599 -0.46870902
1.5566635 0.80068839 -0.47570285
1.5809523 0.889642 -0.51220357
2.1501048 1.3192155 -0.74051487
0 0 0
0.63779974 0.32765791 0.21296915
5.7884684 3.2571101 1.902408
5.7728057 3.5381343 1.8689299
0 0 0
6.6368246 3.407351 1.909953
6.6547346 3.7379766 1.8766049
5.8284221 3.5627127 1.6090053
0.91712612 0.42834517 0.22987904
0 0 0
6.021687 3.3793514 1.4268404
5.8654447 3.5795803 1.3509898
0 0 0
1.1990826 0.61542487 0.24003002
0 0 0
5.9052606 3.6007681 1.097442
0 0 0
1.2425524 0.63694119 0.19613661
1.2752967 0.71396655 0.19117126
5.9108882 3.5969858 0.83904451
1.254156 0.58570218 0.15650837
1.2551951 0.64339429 0.14578445
6.5231633 3.6485121 0.70125335
5.8820333 3.5754886 0.58141059
1.2856891 0.60018247 0.10823017
1.2566299 0.64363134 0.094048634
1.2148068 0.67907172 0.079637013
1.1883799 0.72183627 0.066106074
1.2831757 0.59851825 0.055902995
1.2111133 0.61957127 0.040708169
1.1601398 0.64774263 0.027322289
1.1446469 0.69461608 0.014605936
1.2670339 0.59077376 0.0039771465
1.1931555 0.60983294 -0.0091444077
1.1430305 0.6375882 -0.021063436
1.1112555 0.67379576 -0.033326901
1.2448771 0.57964951 -0.046513911
1.1762741 0.60066104 -0.057180751
1.1402285 0.63511235 -0.068995371
1.1087744 0.67192096 -0.080886066
1.1967492 0.55627429 -0.09316311
1.1836979 0.60367084 -0.10644136
1.1747813 0.65411663 -0.12050014
1.1210111 0.67888176 -0.13016367
1.2002095 0.55747515 -0.1424076
1.2124354 0.61766005 -0.15936396
1.5352906 0.85432118 -0.22239448
1.1426069 0.69157851 -0.18240847
1.2220567 0.56640458 -0.19515242
1.2217385 0.62154019 -0.21168898
1.9137326 1.0639453 -0.36001295
2.1315904 1.289717 -0.43450433
1.2401048 0.57361305 -0.24985881
1.2597142 0.64011276 -0.27220699
1.5493195 0.86011022 -0.35872543
2.1250961 1.2848759 -0.52875465
1.2845014 0.59265268 -0.31371978
1.4273062 0.72445834 -0.37068421
1.5221492 0.844818 -0.42074457
2.1435189 1.2970364 -0.63251889
1.3999803 0.64433354 -0.4031606
1.6071712 0.81423616 -0.48960155
1.588906 0.88132513 -0.51301873
2.1474869 1.29954 -0.73685312
0 0 0
0 0 0
5.8150697 3.2252617 1.9046108
5.867002 3.5465293 1.8923447
0.73478907 0.33769238 0.21591182
6.641181 3.358258 1.9052408
6.7081294 3.7140064 1.8852
5.8926864 3.5525131 1.620698
0 0 0
0 0 0
6.9892316 3.8661351 1.6504483
5.8553524 3.5242951 1.343659
0 0 0
1.1914141 0.60228175 0.23775069
0 0 0
5.9340143 3.568538 1.0986958
0 0 0
1.2588131 0.63555348 0.19808406
1.2692356 0.70037931 0.18961491
5.94136 3.5657582 0.84024835
1.2658522 0.58173019 0.15751956
1.2546796 0.633439 0.14527039
1.1945165 0.65852308 0.12797618
5.9149714 3.5459905 0.58250469
1.2866293 0.59103364 0.108002
1.2641189 0.63770628 0.094314493
1.2250717 0.67497748 0.080036908
1.1465147 0.68681198 0.063541614
1.2949972 0.59438497 0.056258064
1.2282819 0.61887485 0.041156825
1.1632165 0.64012986 0.027301729
1.1394491 0.68193108 0.014485946
1.2797239 0.58715844 0.0040055956
1.2004478 0.60429895 -0.0091717048
1.1495497 0.63200784 -0.021111708
1.1188008 0.66901672 -0.033429448
1.2647651 0.57949364 -0.047123265
1.1844002 0.59567672 -0.057397015
1.1502316 0.631468 -0.069364898
1.111163 0.66408098 -0.08076153
1.2028613 0.55016547 -0.093374364
1.1766907 0.59102756 -0.10548315
1.1936167 0.65504211 -0.12201755
1.1268643 0.67301106 -0.13036133
1.1972774 0.54720724 -0.14165865
1.207325 0.60575491 -0.15820071
2.0902486 1.1463908 -0.30175829
1.1706501 0.69877386 -0.18619737
1.2417171 0.56628722 -0.19773342
1.2264127 0.61447471 -0.21184158
1.3144757 0.72026396 -0.2464442
2.1284661 1.2700512 -0.4322708
1.2436011 0.56599313 -0.24985881
1.2565933 0.62885565 -0.27069369
1.4909406 0.81577367 -0.34404308
2.1262195 1.2678051 -0.52708864
1.2712233 0.57709229 -0.30960613
1.3559119 0.67778987 -0.35105577
1.5085433 0.82519978 -0.41557628
2.1347849 1.2739227 -0.6276232
1.3765873 0.62335986 -0.39531502
1.6380416 0.81728429 -0.49746874
1.5841506 0.86601955 -0.509758
2.1537724 1.2853553 -0.73628974
0 0 0
0 0 0
5.8153491 3.1789148 1.8982778
5.9060402 3.5208287 1.8979324
0.72628319 0.3284007 0.21281631
6.6529903 3.313127 1.9027606
6.8416076 3.7332447 1.916238
6.734304 4.0037651 1.845381
0 0 0
0 0 0
7.0360379 3.835834 1.655912
5.9502754 3.5318737 1.3604428
0 0 0
0 0 0
1.2003646 0.65361434 0.23002039
0 0 0
1.2820833 0.57995731 0.21175736
1.304365 0.64853907 0.20462194
1.2796067 0.69589436 0.19052279
6.0844398 3.6010337 0.85734218
1.2630599 0.57108647 0.15673308
1.2621053 0.62749982 0.14568163
1.22478 0.66544068 0.13077857
0 0 0
1.2856885 0.58107466 0.10762171
1.2689016 0.6303817 0.09438096
1.2318223 0.66887712 0.080208294
1.1911283 0.70364237 0.065773644
1.2840492 0.57984799 0.055626836
1.2454869 0.61799073 0.04160548
1.175032 0.63727021 0.027486755
1.1427507 0.67441845 0.014475037
1.3024427 0.58793515 0.0040653376
1.2148843 0.60225141 -0.0092535941
1.1498896 0.62303716 -0.021047344
1.1314958 0.66721702 -0.033685807
1.2764971 0.57541871 -0.047427937
1.1754991 0.58219051 -0.056791473
1.1567194 0.62582403 -0.069523267
1.1169364 0.65826398 -0.080886066
1.2298658 0.55341715 -0.095205233
1.1695731 0.57849312 -0.10452493
1.1923569 0.64486301 -0.12148199
1.1575534 0.68173885 -0.13342518
1.2042397 0.54148155 -0.14208663
1.2003336 0.59305614 -0.15680483
1.2733576 0.68823981 -0.18321489
1.1774774 0.69308549 -0.18660332
1.2289153 0.55136538 -0.19515242
1.217752 0.60081619 -0.20970486
1.3101879 0.7074964 -0.24482179
2.1387661 1.258466 -0.43278623
1.2524374 0.56076378 -0.25093812
1.2533818 0.61766106 -0.26918039
1.4010212 0.75544107 -0.32221797
2.1255274 1.2497774 -0.52500612
1.2649347 0.56490225 -0.30722454
1.3259567 0.65267795 -0.34225681
1.4938991 0.80531955 -0.41017309
2.1408901 1.2598164 -0.62713361
1.3839213 0.61647624 -0.39632738
1.6291677 0.80040967 -0.4932729
1.5894345 0.85628313 -0.509758
2.1591377 1.2706559 -0.73544472
0 0 0
0.6514681 0.31966308 0.21553163
5.8161249 3.1331422 1.8922199
5.9366736 3.4898975 1.9008592
0.70180142 0.31215855 0.20507753
0 0 0
6.8772149 3.6980939 1.9198194
6.775537 3.972214 1.8499663
0.75378358 0.33529577 0.18735804
0 0 0
0 0 0
5.9794555 3.4997578 1.362179
1.170727 0.52107751 0.24143833
1.2075554 0.59194934 0.23950401
0 0 0
0 0 0
1.2838109 0.57127565 0.21145976
1.2709646 0.62223518 0.19877957
1.2558857 0.673042 0.18637252
6.2195978 3.6296811 0.87323225
1.2592769 0.56009513 0.15583426
1.2605715 0.61711967 0.14506477
1.2428838 0.66543204 0.13227317
0 0 0
1.2864964 0.57195967 0.10739353
1.2763308 0.62433779 0.094646819
1.2420652 0.66460329 0.080608189
1.1772977 0.68576252 0.064776354
1.2848433 0.57074136 0.055508479
1.2591344 0.61516351 0.041934498
1.1850926 0.63334709 0.027630666
1.152053 0.67041159 0.014540487
1.315165 0.58399075 0.0040937862
1.2320364 0.60136515 -0.0093559576
1.1669211 0.6230337 -0.021288713
1.1312474 0.65774935 -0.033557627
1.2800038 0.56757545 -0.047427937
1.1925189 0.58153534 -0.05744027
1.1667061 0.62200332 -0.069892794
1.1261321 0.65440696 -0.081259675
1.2305018 0.54464918 -0.094993979
1.1704122 0.5699966 -0.10428539
1.1875014 0.63285041 -0.1205894
1.1341778 0.65863234 -0.13026251
1.2193604 0.53931051 -0.14347753
1.1985911 0.58307296 -0.15610687
1.239904 0.66036034 -0.17781512
1.191991 0.69181579 -0.18822713
1.2413296 0.5478102 -0.19658631
1.2231935 0.59419656 -0.21001011
1.3084066 0.69619936 -0.24368611
2.1328139 1.2374092 -0.43003729
1.261256 0.55544716 -0.25201741
1.2262274 0.59495628 -0.26255962
1.3502359 0.71739858 -0.30951974
2.1390789 1.2401459 -0.52646393
1.2594385 0.55320388 -0.30505946
1.3088958 0.63433284 -0.33684206
1.4644754 0.77789891 -0.40077624
2.0563302 1.193131 -0.60020751
1.3814749 0.60525537 -0.39455578
1.6514226 0.79880232 -0.49851772
1.5946587 0.8465144 -0.509758
2.146976 1.245826 -0.7286846
0 0 0
0 0 0
5.8590159 3.1100163 1.8999298
5.9396276 3.44277 1.8950055
0.71786624 0.31404218 0.20920488
0.73980558 0.35715425 0.21031557
6.8869047 3.6490066 1.916238
6.790513 3.9252071 1.8474444
0.75493336 0.33027348 0.18713658
0 0 0
0 0 0
6.0025167 3.4639833 1.3625648
0 0 0
1.0373813 0.50065792 0.20513888
0 0 0
6.8466058 3.9475939 1.2539958
1.2900096 0.56457698 0.21190616
1.2810032 0.6174348 0.19975331
1.2608687 0.66578639 0.18650222
6.3665185 3.6632395 0.89068729
1.2681521 0.55474722 0.15650837
1.257166 0.60591841 0.1442423
1.2469434 0.65779334 0.13227317
1.1317445 0.65046 0.11025591
1.278105 0.55886197 0.10640478
1.2801377 0.6164946 0.094646819
1.2470028 0.65743524 0.08066532
1.1840819 0.68001825 0.064918824
1.2892368 0.56324703 0.05554793
1.271893 0.61175859 0.042233601
1.1986873 0.63118756 0.027856808
1.1587468 0.664823 0.014573211
1.3223894 0.57751095 0.0041051661
1.2510253 0.60115707 -0.0094719678
1.1733768 0.61725843 -0.021336988
1.1378639 0.6522873 -0.033634536
1.2889589 0.56210786 -0.047631059
1.1933627 0.57291007 -0.05731051
1.174921 0.61715472 -0.070156738
1.1353223 0.65046179 -0.081633285
1.2640029 0.55022722 -0.097317778
1.176584 0.56409711 -0.10452493
1.1834257 0.6213848 -0.11978606
1.1865582 0.67934895 -0.13579719
1.2217348 0.5314219 -0.14337052
1.19498 0.57227564 -0.1551763
1.2175782 0.63891077 -0.17404786
2.1051981 1.2046217 -0.33125812
1.2383125 0.53742522 -0.19558258
1.2187922 0.58284271 -0.20863651
1.2960489 0.6794529 -0.24060352
2.1224091 1.2140274 -0.42642933
1.2628351 0.54691595 -0.25165763
1.2688416 0.6060425 -0.27088284
1.3311672 0.69682735 -0.30416268
2.1279666 1.2163194 -0.5218823
1.2816304 0.55359542 -0.30960613
1.2969364 0.61873889 -0.33278099
1.4416622 0.75447589 -0.39325872
1.529194 0.87477666 -0.4447704
1.328299 0.57226896 -0.37835851
1.653679 0.78740972 -0.497731
1.6074979 0.84072793 -0.51220357
2.1512485 1.2307231 -0.72755796
0 0 0
0 0 0
5.8618031 3.0655432 1.8946981
5.9556184 3.4033906 1.893409
0.71267945 0.30657721 0.20714121
0 0 0
6.9040003 3.6039846 1.9148055
6.9683833 3.9711807 1.8891714
0.76052886 0.32717657 0.18802243
0 0 0
0 0 0
6.0083075 3.4183538 1.3590924
1.2889599 0.55485213 0.2643972
0 0 0
0 0 0
6.9153476 3.9308891 1.2621447
1.3134326 0.56525093 0.21518001
1.2686633 0.60192233 0.19724944
1.2596521 0.65529162 0.18572403
6.4950838 3.6843531 0.90549397
1.2587529 0.54145855 0.15493542
1.2626575 0.59904593 0.14444792
1.2456554 0.64737511 0.1317127
1.1643239 0.65971392 0.11303335
1.2851743 0.55258459 0.10670902
1.2838963 0.60862821 0.094646819
1.2572153 0.65299267 0.081065223
1.1925783 0.6752007 0.065156274
1.2917504 0.5549314 0.055508479
1.2837536 0.60779238 0.042502798
1.2193998 0.632568 0.028247422
1.15236 0.65179306 0.014442314
1.3305023 0.57135898 0.0041193906
1.2601142 0.59603506 -0.0095129134
1.1762543 0.60958701 -0.021320896
1.1374933 0.64283401 -0.033506356
1.297895 0.55655169 -0.047834177
1.2095016 0.57155287 -0.05791606
1.175138 0.60809815 -0.069945581
1.1410301 0.64446503 -0.081757821
1.2737746 0.54520875 -0.097810701
1.1800232 0.55686712 -0.10452493
1.1934088 0.61731505 -0.12041088
1.2019701 0.67841417 -0.13708203
1.2286292 0.52547944 -0.14379852
1.1822977 0.55730987 -0.15308246
1.2091374 0.62504977 -0.1722898
2.1177278 1.1946026 -0.33207002
1.2452277 0.53137064 -0.19615613
1.229499 0.57872051 -0.20985749
1.2835357 0.66288471 -0.23752095
2.1229534 1.1971108 -0.42505488
1.281553 0.5457086 -0.25471568
1.2538748 0.58947247 -0.2669104
1.3206087 0.68100965 -0.30078968
1.706778 0.96172738 -0.41713101
1.2823071 0.54457623 -0.30895659
1.2927721 0.60704273 -0.3307505
1.4479924 0.74650669 -0.39372858
1.5311546 0.86347216 -0.4437913
1.3558377 0.57429576 -0.38519174
1.6628484 0.77929568 -0.49904218
1.6057822 0.82732254 -0.51002973
1.6899 0.95307207 -0.56954014
0.60998851 0.25752655 0.20455591
0 0 0
5.8574276 3.0176306 1.8872635
5.9982252 3.3790851 1.900327
0.72077608 0.30483288 0.20894693
0.72482735 0.33901924 0.20485927
6.9138937 3.5553374 1.911463
7.0095911 3.9378831 1.8937566
0.75443876 0.31908512 0.18602926
0.75421375 0.35289228 0.18036848
0 0 0
5.9820991 3.3550243 1.348482
1.291435 0.54654974 0.26421204
0 0 0
0 0 0
1.1829785 0.66286939 0.21516322
1.3059477 0.55255729 0.21339427
1.2301608 0.5744341 0.19071154
1.25306 0.64212382 0.1841677
1.2780395 0.71464175 0.17755963
1.2647971 0.53488588 0.15527248
1.2654082 0.59086627 0.1443451
1.2566942 0.64334935 0.13246001
1.2222872 0.68268281 0.11825157
1.2931327 0.54662967 0.10708931
1.2867025 0.60031706 0.09458036
1.2585318 0.643902 0.080893829
1.2001877 0.66981757 0.065346234
1.2942106 0.54660612 0.055469025
1.2919888 0.60201484 0.04265235
1.2339417 0.63053316 0.028494123
1.1624511 0.64811862 0.014518671
1.3376679 0.56474012 0.00413077
1.2737199 0.59293413 -0.0095879799
1.1942213 0.60963196 -0.021578357
1.1475294 0.63924778 -0.033685807
1.308653 0.55168337 -0.048105001
1.2419744 0.57760233 -0.059300158
1.1815163 0.60223663 -0.070103951
1.1458349 0.63793713 -0.081820078
1.2844515 0.54047781 -0.098374046
1.1798016 0.54793668 -0.10420553
1.1856372 0.60410255 -0.11925051
1.2017622 0.66860723 -0.13658786
1.2409958 0.52178442 -0.14486843
1.1947049 0.55422455 -0.1542457
1.1996888 0.61086649 -0.17040616
2.1293476 1.1839933 -0.3327466
1.2393385 0.51989174 -0.19472225
1.228543 0.56908858 -0.20909438
1.2339299 0.6277051 -0.22762424
2.1302588 1.184062 -0.42505488
1.2848773 0.53783488 -0.25471568
1.237862 0.57269698 -0.26274881
1.2845652 0.65247607 -0.29166281
1.4971766 0.83156037 -0.3646512
1.2865255 0.53707397 -0.30917311
1.2805539 0.59174305 -0.32668942
1.4464788 0.73452717 -0.39208412
1.5313392 0.85123444 -0.44232258
1.3334353 0.55518186 -0.37785232
1.6763617 0.77311933 -0.50166458
1.618552 0.82137364 -0.51247525
1.5783075 0.87741512 -0.53010607
0 0 0
0 0 0
0 0 0
6.0137897 3.3394091 1.8987305
0.73423076 0.30522582 0.21230039
0.7268939 0.3345654 0.20485927
6.9251833 3.5075824 1.9085979
7.0140367 3.883954 1.8884835
0.74017423 0.30771175 0.18204293
0.75902808 0.34948412 0.18100357
0 0 0
0 0 0
1.1858844 0.49332187 0.2419938
1.438158 0.66172397 0.28193444
1.1943257 0.60358679 0.22520757
1.2440836 0.68711281 0.22550608
1.3147919 0.54681218 0.21428713
1.2894516 0.5925107 0.19933599
1.2968102 0.65452802 0.19000399
1.2850087 0.70822394 0.17792077
1.2616324 0.5244453 0.15448602
1.2644905 0.58101422 0.14383104
1.261507 0.63607448 0.13255341
1.2177238 0.67036468 0.11740992
1.2881753 0.53524154 0.10640478
1.2876413 0.59116179 0.09438096
1.266917 0.63841408 0.081179485
1.2156526 0.66869926 0.065963604
1.2864659 0.53405738 0.054995608
1.296567 0.59449255 0.04268226
1.2458251 0.62699509 0.028679151
1.1672823 0.64145529 0.014529578
1.3429554 0.55728835 0.0041364599
1.2782432 0.58552396 -0.0095948037
1.2104459 0.60858077 -0.021803632
1.1496775 0.63123244 -0.033634536
1.3286328 0.5505296 -0.048714351
1.2609388 0.57703829 -0.060035463
1.1834043 0.59407961 -0.069998369
1.1619775 0.63761628 -0.082691833
1.298805 0.53716123 -0.099219061
1.1931143 0.54524475 -0.1050839
1.1813097 0.59279579 -0.11844717
1.2206751 0.66935444 -0.13826802
1.2662272 0.52327359 -0.14743626
1.2007936 0.54812086 -0.15459467
1.1972066 0.60038072 -0.16952713
1.5031599 0.82377672 -0.23409989
1.2324408 0.50812799 -0.19314498
1.2284147 0.5599001 -0.20848387
1.2448158 0.62365794 -0.22892216
1.638968 0.89786887 -0.32592121
1.2936115 0.53218639 -0.25579497
1.2422465 0.5654977 -0.26293796
1.2683836 0.63449657 -0.28709939
1.5082566 0.8256458 -0.36610901
1.2988288 0.5328756 -0.31133819
1.288595 0.58589071 -0.3278175
1.4231391 0.71172518 -0.38456663
1.5178264 0.83157325 -0.43693736
1.387854 0.56787264 -0.39227805
1.7004067 0.77159142 -0.50743383
1.6330308 0.81615955 -0.51546425
1.5870274 0.86955851 -0.53123277
0 0 0
0 0 0
0 0 0
6.0333214 3.3019836 1.8984644
0 0 0
0.73069805 0.33089823 0.2053553
0.67953736 0.33896035 0.18670548
6.9343529 3.7844222 1.860742
0.74746484 0.30537722 0.18337171
0.76026791 0.34441695 0.18079187
0 0 0
0 0 0
1.0042337 0.41054621 0.20440793
0.96953285 0.43891233 0.18953429
1.2324373 0.61338317 0.23167999
1.1181571 0.60863942 0.20199955
1.3117148 0.53611559 0.21324547
1.2353127 0.55847901 0.19043334
1.2839315 0.63817328 0.18753979
1.2649043 0.68705857 0.17455015
1.269426 0.51857311 0.15504779
1.2698445 0.57406396 0.14403667
1.2680614 0.62965047 0.13283366
1.234952 0.670008 0.11867239
1.2942046 0.52845818 0.10663296
1.2785138 0.57749945 0.093450442
1.2734932 0.63195974 0.081350863
1.2188545 0.66075152 0.065916114
1.2998956 0.53030556 0.055429578
1.3001903 0.5865258 0.04268226
1.243378 0.61623126 0.028535239
1.1711962 0.63428092 0.014529578
1.3389418 0.54601675 0.0041137007
1.292752 0.58260018 -0.0096766939
1.2150533 0.60158581 -0.021819724
1.1552875 0.62511772 -0.033685807
1.3403165 0.54575908 -0.049019028
1.2571678 0.56600928 -0.05968944
1.1789705 0.58282435 -0.069523267
1.1667459 0.63094926 -0.082754105
1.305773 0.53068411 -0.099500738
1.2018923 0.54036611 -0.10556299
1.1751026 0.58068252 -0.11746532
1.2160047 0.65712106 -0.13727969
1.2749413 0.51773888 -0.14807822
1.199604 0.53870821 -0.15401305
1.1981994 0.59170574 -0.16915041
1.2675738 0.68458855 -0.19675218
1.2447079 0.5042724 -0.19457887
1.2390412 0.55558699 -0.20970486
1.2326906 0.60814983 -0.22600181
1.3193713 0.71229559 -0.26149294
1.2941166 0.52313292 -0.25525531
1.2537585 0.56147677 -0.26464045
1.2898377 0.63536412 -0.2910676
1.4900523 0.80383754 -0.36048615
1.3129398 0.52927625 -0.31393629
1.290387 0.57717746 -0.32736626
1.4222473 0.70040298 -0.3831571
1.5143687 0.81763798 -0.43448955
1.385029 0.55682021 -0.39050648
1.69101 0.75484973 -0.50323802
1.6544139 0.81419808 -0.52062708
1.5872673 0.85706902 -0.52954274
0 0 0
0 0 0
0 0 0
6.042439 3.2589531 1.8950055
0.74509406 0.29907185 0.21436407
0 0 0
0.70077991 0.34420288 0.19195805
7.0097351 3.7699261 1.8747272
0 0 0
0.76415235 0.34054121 0.18121529
1.0215962 0.50129175 0.23514235
0 0 0
1.2210296 0.49045318 0.24791868
1.168268 0.52026707 0.22775674
1.1768483 0.57673419 0.22056068
0 0 0
1.303968 0.52363503 0.21145976
1.2459549 0.55410802 0.19154617
1.3002915 0.6363855 0.18935552
1.2690963 0.67928433 0.17455015
1.2707397 0.51003397 0.15482306
1.2751608 0.56706995 0.1442423
1.2674288 0.61967134 0.1323666
1.2522211 0.66946489 0.11993486
1.2863179 0.51605201 0.10572027
1.2929752 0.57450563 0.094248034
1.2746559 0.62281901 0.081179485
1.2413878 0.66314393 0.066913404
1.2929227 0.51823026 0.054995608
1.2982829 0.57610446 0.042502798
1.2749896 0.62218285 0.029172555
1.1803592 0.62990737 0.014595027
1.3441234 0.5385347 0.0041193906
1.3155 0.58316743 -0.0098200012
1.2259119 0.59762418 -0.021948455
1.1546907 0.61566556 -0.033557627
1.3454958 0.5382672 -0.049086735
1.271579 0.56313944 -0.060208477
1.1852181 0.57689047 -0.069681637
1.1670721 0.62190092 -0.082505032
1.3136367 0.52451152 -0.09985283
1.2316228 0.54467303 -0.10787868
1.1875997 0.57781893 -0.11835792
1.2094737 0.64403492 -0.13609369
1.2965637 0.5172748 -0.15021808
1.2083379 0.53374529 -0.15471099
1.1991309 0.58304113 -0.16877368
1.2385135 0.65910995 -0.19161008
1.2441005 0.49516159 -0.19400531
1.2379057 0.54597986 -0.20894174
1.2417244 0.60316157 -0.22697526
1.3063226 0.69493324 -0.25805676
1.2909025 0.51264113 -0.25399613
1.2544842 0.55258578 -0.26407295
1.2831295 0.62230539 -0.28868666
1.4293202 0.75978905 -0.34465891
1.3325012 0.52768046 -0.31783342
1.2787447 0.56257957 -0.32353082
1.4046525 0.68106121 -0.37728408
1.485118 0.7901147 -0.42469823
1.3506271 0.53338647 -0.379877
1.7123981 0.75183052 -0.50822055
1.6628428 0.80571002 -0.52171397
1.5984259 0.85046846 -0.53151447
0 0 0
0 0 0
0 0 0
6.0827508 3.2326732 1.9013914
0.80893332 0.31894702 0.23216325
0 0 0
0.69151378 0.33440062 0.18885425
6.9596295 3.6881034 1.8552394
0 0 0
0.75906646 0.33270729 0.17952168
0.89061904 0.43026164 0.20438361
0 0 0
1.1554564 0.45590076 0.23403226
1.2201356 0.53441823 0.2372247
0 0 0
1.232071 0.6511749 0.2211182
1.2740406 0.50256121 0.20610256
1.2901592 0.56431043 0.19780585
1.2773738 0.61548287 0.18546465
1.2662156 0.6677798 0.17358711
1.2756941 0.50295621 0.15504779
1.2795275 0.55963361 0.1443451
1.2747957 0.61361021 0.13274024
1.2607133 0.66409075 0.12035569
1.2903877 0.50851518 0.10579632
1.2909901 0.56416392 0.093849242
1.2838515 0.6175828 0.081522249
1.2410139 0.65318829 0.066675954
1.3007269 0.51211756 0.055192865
1.2962967 0.5657286 0.042323332
1.2787833 0.61434793 0.029172555
1.1859721 0.62358367 0.014616843
1.3427498 0.52844614 0.0041051661
1.3218035 0.57628363 -0.0098404745
1.2403729 0.59528226 -0.022141548
1.1858813 0.62298119 -0.034352344
1.3338902 0.52415293 -0.048545085
1.2832539 0.55891705 -0.060597755
1.2049456 0.57737458 -0.070631839
1.1770518 0.61797577 -0.082940906
1.3214736 0.51826233 -0.10020491
1.2495672 0.54346669 -0.1091563
1.1776485 0.56406718 -0.11701903
1.1948977 0.6268931 -0.13401818
1.317302 0.51620191 -0.15225095
1.2143232 0.5275082 -0.15505996
1.1991062 0.57395911 -0.16827138
1.220597 0.63999575 -0.18822713
1.2655501 0.49472511 -0.19687308
1.2466725 0.54073352 -0.20985749
1.2391706 0.59255135 -0.22583959
1.2922386 0.67730081 -0.25444877
1.2894415 0.50292343 -0.25309673
1.2623563 0.54682958 -0.26501876
1.2833858 0.61273146 -0.28789303
1.3525101 0.70834935 -0.32508314
1.3220656 0.51418626 -0.3145858
1.2902198 0.55820429 -0.32556134
1.3859974 0.66154343 -0.37117609
1.479633 0.77558565 -0.42176083
1.4332489 0.55587387 -0.40214828
1.7196368 0.74245685 -0.50900728
1.6651493 0.79424888 -0.52089876
1.6104127 0.84420866 -0.53376782
0 0 0
0 0 0
0 0 0
6.0708747 3.1787448 1.8915465
0.74420315 0.28816158 0.21307427
0 0 0
0.69793665 0.33223823 0.19004804
6.9571066 3.6322668 1.8485909
0.74750292 0.28945428 0.18204293
0.74314332 0.32030663 0.17528768
0 0 0
0 0 0
0.99604285 0.38595587 0.20126033
1.1239289 0.48408243 0.21793813
1.0564566 0.50175124 0.19682842
1.1134026 0.57974428 0.19917876
1.304763 0.50545067 0.21056688
1.3036042 0.56068754 0.19933599
1.2139343 0.57576454 0.17573749
1.2491471 0.64901316 0.17069802
1.2713431 0.49224898 0.15414895
1.2811098 0.55098605 0.14413948
1.2776369 0.60535032 0.13264683
1.252382 0.64991689 0.11917737
1.3018528 0.5038268 0.10648084
1.2907606 0.55465627 0.093583383
1.2894214 0.61054814 0.081636503
1.250319 0.64832008 0.066960894
1.3038447 0.50412679 0.055192865
1.2979065 0.55697566 0.042263515
1.2879517 0.60905439 0.029295906
1.2128613 0.62825286 0.014900453
1.3413032 0.51839477 0.004090942
1.3289909 0.56973839 -0.0098677715
1.2647958 0.5974831 -0.022511648
1.1701494 0.60558468 -0.033788353
1.3417434 0.51775753 -0.048714351
1.2875776 0.55142593 -0.060641009
1.2193038 0.57508218 -0.071265303
1.1808214 0.61074191 -0.082940906
1.3264904 0.51086116 -0.10034575
1.2730416 0.54441202 -0.11091302
1.1882945 0.56022853 -0.1177331
1.2057939 0.62320471 -0.13480885
1.327868 0.51096594 -0.1531069
1.2157103 0.51926708 -0.15482731
1.2070928 0.56870484 -0.16889925
1.2104162 0.62521905 -0.18606205
1.2574747 0.4826946 -0.19515242
1.2445126 0.53074771 -0.20894174
1.2409974 0.58409637 -0.22551511
1.2858661 0.66393548 -0.25238708
1.295259 0.49605754 -0.25363639
1.274722 0.54292136 -0.2669104
1.2711542 0.59734195 -0.28432167
1.3159782 0.67895979 -0.31529522
1.3434365 0.51303035 -0.31891596
1.298103 0.55218387 -0.32668942
1.3486814 0.63360119 -0.36013481
1.4585191 0.75314647 -0.41441736
1.3850983 0.52744484 -0.38772255
1.714389 0.72774363 -0.50612265
1.6717339 0.78483474 -0.52144223
1.6189724 0.8360725 -0.53489453
0 0 0
0 0 0
0 0 0
6.0936918 3.1432023 1.8926108
0.80465847 0.30590618 0.22984162
0 0 0
0.70611751 0.33083349 0.19171931
7.0511069 3.6264608 1.8676201
0.79392916 0.30184308 0.19289464
0.74149519 0.31421542 0.17444088
0.74327445 0.34789446 0.1695777
1.0771523 0.55301678 0.23805819
1.0378871 0.39486274 0.20922187
1.1649544 0.49330047 0.2253021
1.1318768 0.52908409 0.21027118
1.1283631 0.5787614 0.201216
1.2680963 0.48231885 0.20416804
1.2714486 0.5376367 0.19391094
1.2623686 0.58927584 0.18222226
1.2778498 0.65400022 0.17406864
1.2771261 0.48549816 0.15448602
1.2853827 0.54350233 0.1442423
1.2768155 0.59539562 0.13217977
1.259008 0.64358085 0.11942987
1.3039875 0.49547514 0.10640478
1.2996544 0.54905564 0.093982168
1.2804744 0.59672093 0.080836706
1.2596108 0.64336216 0.067245834
1.3153211 0.49930871 0.05554793
1.3003786 0.54861283 0.042233601
1.2961967 0.60324943 0.0293987
1.2256002 0.62534374 0.015009535
1.3463287 0.51086444 0.0040966314
1.3343048 0.56234986 -0.0098814191
1.2666247 0.58886814 -0.022479465
1.1765151 0.59975541 -0.033865262
1.3439604 0.50916094 -0.048680499
1.2927785 0.54429048 -0.060727514
1.2282443 0.57011247 -0.071582042
1.1836574 0.60303199 -0.082878642
1.3351984 0.50482905 -0.10076826
1.2827904 0.53929472 -0.11147197
1.1889993 0.55166918 -0.11746532
1.1909722 0.60631365 -0.13273335
1.3337685 0.50386274 -0.15342787
1.2307783 0.51679665 -0.15633953
1.2051593 0.55878371 -0.16814581
1.2098143 0.61553383 -0.18538547
1.2891217 0.48578835 -0.19959748
1.2441 0.52157313 -0.20833124
1.244558 0.57647079 -0.22551511
1.2372303 0.62923795 -0.24207853
1.2936745 0.48636979 -0.25273696
1.2825581 0.53698575 -0.26785621
1.2828019 0.59323359 -0.28610733
1.2887295 0.65492028 -0.30779812
1.3438166 0.50374943 -0.31826642
1.3113534 0.54834265 -0.32917118
1.3154877 0.60818201 -0.3502681
1.4268159 0.72572124 -0.40413645
1.4200258 0.5307917 -0.39658046
2.6699629 1.114092 -0.78619468
1.6800125 0.77617693 -0.52252913
1.6360452 0.8322134 -0.53883791
0 0 0
0 0 0
0 0 0
0 0 0
0.83820188 0.31278548 0.23887019
0.73692715 0.30683899 0.20436324
0.70901603 0.3269012 0.19195805
0.69204032 0.35057116 0.18272689
0.82682949 0.30855817 0.20042439
0.75964874 0.31642419 0.17825149
0.75340056 0.34701455 0.17139894
0 0 0
0.99794239 0.37267247 0.20070489
1.1515988 0.47933337 0.22214611
1.2237958 0.56292683 0.2267012
1.1239594 0.56781888 0.19980562
1.3229107 0.49389741 0.21250142
1.2802101 0.53210557 0.19474557
1.3011011 0.59766084 0.1872804
1.2729739 0.64167869 0.17286485
1.2744951 0.47556841 0.15381189
1.293286 0.53751391 0.14475635
1.2768251 0.5858891 0.13180611
1.2718334 0.64032453 0.12027152
1.2967265 0.48363185 0.10556815
1.2928624 0.5368616 0.09325105
1.2868342 0.59010136 0.081008092
1.2519344 0.62978578 0.066628464
1.3192962 0.49157751 0.055587381
1.2926406 0.53602904 0.041874677
1.2998738 0.59528476 0.0293987
