# .PCD v0.7 - Point Cloud Data file format
VERSION 0.7
FIELDS x y z
SIZE 4 4 4
TYPE F F F
COUNT 1 1 1
WIDTH 1461
HEIGHT 1
VIEWPOINT 0 0 0 1 0 0 0
POINTS 1461
DATA ascii
7.4121003 0.23040955 0.22190587
7.8364902 0.52922314 0.16150782
7.7974629 0.81108528 0.08551944
7.4688578 -0.040997423 0.02124843
7.41433 0.22775877 -0.0506218
7.858294 0.5275268 -0.12675071
7.7976499 0.80821592 -0.20103814
7.4695816 -0.044912592 -0.25301674
7.4256215 0.22538146 -0.32163092
7.8646164 0.52312553 -0.41666451
7.8130713 0.80788475 -0.49004877
7.4842076 -0.049964447 -0.52834678
7.420917 0.22134957 -0.59473014
7.8233724 0.51914781 -0.70264971
7.6991067 0.79379189 -0.76872671
7.3991027 -0.051462602 -0.7962414
7.2125659 0.21198508 -0.84509426
7.7877336 0.5147351 -0.98790371
7.7448649 0.79659718 -1.0633277
7.4252429 -0.057735708 -1.0758476
5.1517625 0.14853612 -0.79593223
7.7982521 0.51242304 -1.2849494
2.5890973 0.2658903 -0.45391873
4.4490581 -0.038010947 -0.81361514
4.2206688 0.11970017 -0.81340522
3.949362 0.25708967 -0.80117989
2.6241517 0.26865718 -0.56165868
3.6823654 -0.034995742 -0.81666732
3.4512806 0.096312568 -0.79957688
3.3163207 0.21553212 -0.80319691
2.5848646 0.26554683 -0.65601802
3.1333823 -0.032731861 -0.81973457
2.9952297 0.081336267 -0.81425434
2.8340371 0.1834428 -0.80186349
2.6057413 0.2677834 -0.76896363
6.1870337 -0.071927406 1.91155
6.4146657 0.17099188 1.9059032
6.6376567 0.42946339 1.9051614
6.8689494 0.70256013 1.9059147
7.2051544 -0.079235867 1.9238595
7.4887867 0.19766213 1.9178895
7.7954464 0.49849901 1.9205357
7.747427 0.78312141 1.8341467
7.9130177 -0.086882189 1.7971756
7.8393745 0.20801105 1.6986815
7.7913465 0.49523297 1.6132141
7.7519097 0.77797109 1.5317521
7.9211674 -0.085174203 1.4925112
7.8477697 0.20617783 1.3981004
7.7828803 0.49073979 1.3124107
7.7745037 0.77722347 1.239735
7.9055176 -0.085695885 1.1897401
7.3780923 0.19010147 1.036742
7.8061323 0.48810253 1.0230386
7.7835979 0.77113569 0.9484694
7.4351692 -0.081895143 0.84074098
7.3782368 0.18997633 0.76284951
7.8155422 0.48554137 0.73469532
7.7546659 0.76444268 0.65816885
7.4399219 -0.0831163 0.56754291
7.4011993 0.18824092 0.49317378
7.8491225 0.48570228 0.45000052
7.7926393 0.7655769 0.37227407
7.4696875 -0.085795805 0.29494056
7.4123755 0.18490049 0.22187597
7.8435817 0.48137435 0.16159005
7.8112502 0.76410186 0.085617617
7.4864645 -0.087033942 0.02129964
7.4235854 0.18245757 -0.050676394
7.8573904 0.47905585 -0.12668635
7.8084321 0.76093698 -0.20119195
7.4921503 -0.091023482 -0.25379533
7.4268646 0.17981446 -0.32163092
7.865684 0.47473896 -0.41655892
7.8317885 0.76128125 -0.49092051
7.4817657 -0.095860183 -0.52820593
7.4450555 0.17635442 -0.59656668
7.8383412 0.47185293 -0.70372081
7.7523651 0.75123912 -0.77356952
7.4125662 -0.097043894 -0.79773933
7.2792649 0.16924934 -0.85277164
7.7481618 0.46438852 -0.98250395
7.7367864 0.74782133 -1.0615686
5.4327431 -0.075581744 -0.78720558
5.160481 0.11710206 -0.79715317
7.8051891 0.46479881 -1.2855983
7.7161474 0.7446031 -1.351963
4.4438229 -0.065236941 -0.81271571
7.4403291 0.16532862 -1.433674
3.9489086 0.23273668 -0.8007831
3.7706833 0.36267284 -0.80656433
3.673296 -0.057452247 -0.81471878
3.417717 0.07439208 -0.79168034
3.309818 0.19472282 -0.80131757
3.1848023 0.3074435 -0.80778337
3.1253841 -0.051828992 -0.81770992
2.9483976 0.061962835 -0.8014046
2.8427949 0.16650017 -0.80403727
2.6350322 0.25446454 -0.77713215
6.1912522 -0.10997382 1.9130259
6.3753409 0.13080314 1.8939451
6.6593609 0.38985106 1.9106685
6.8846455 0.66150618 1.9091076
7.2132273 -0.12359335 1.9261811
7.5043864 0.15200235 1.9216096
7.7896338 0.45015344 1.9183869
7.754025 0.73575336 1.8346055
7.9133101 -0.1354506 1.797397
7.849297 0.16008498 1.7005868
7.8128142 0.44848317 1.6170589
7.747745 0.72956371 1.5300158
7.9293385 -0.13392532 1.4941776
7.8547931 0.15813984 1.3991523
7.8034668 0.443984 1.3153981
7.7712598 0.72876769 1.2384814
7.899899 -0.13411769 1.188996
7.3583274 0.1444187 1.0338207
7.5129752 0.42350987 0.98425961
7.7871947 0.72327012 0.94834906
7.4285655 -0.12741271 0.84006685
7.4090986 0.1452858 0.76593375
7.6454062 0.42789632 0.71844143
7.7780628 0.71858823 0.65976799
7.454226 -0.12902407 0.56868374
7.4042101 0.14286296 0.4933067
7.6904702 0.42853346 0.44074571
7.8031583 0.71829712 0.37255901
7.4720178 -0.13168015 0.29505894
7.4203663 0.13954709 0.22208533
7.6657009 0.42326137 0.15786897
7.8157916 0.71615851 0.085617617
7.4767904 -0.13280855 0.021274034
7.4355631 0.13710666 -0.050751463
7.6654997 0.42016381 -0.12354856
7.8109627 0.71282923 -0.20114067
7.5064397 -0.13726684 -0.25430313
7.439815 0.13445732 -0.32214996
7.6271405 0.41338825 -0.40378395
7.8363118 0.71321195 -0.49092051
7.4940019 -0.14201133 -0.5291214
7.4489875 0.13072158 -0.59680623
7.6093574 0.41122562 -0.68292338
7.769712 0.70482612 -0.77485436
7.4496059 -0.14325111 -0.80180508
7.2612982 0.12425854 -0.8505615
6.2569613 0.3364965 -0.79313588
7.7461634 0.70078164 -1.0622451
5.4668083 -0.10960937 -0.79222417
5.1719723 0.08561568 -0.79883206
4.8666315 0.25985119 -0.80130869
7.693099 0.69476271 -1.3471525
7.4291687 -0.15466221 -1.3588434
7.431385 0.11951461 -1.4317824
3.9238358 0.20710741 -0.79542607
3.8303118 0.3447018 -0.81885129
3.6416407 -0.079309858 -0.80779052
3.4823997 0.054424733 -0.80657095
3.3274519 0.17527974 -0.8053112
3.1653845 0.28597683 -0.80239815
3.048599 -0.069268897 -0.79771644
2.997932 0.044602774 -0.8147788
2.8793221 0.15091777 -0.81409115
2.6508784 0.23958702 -0.78135723
6.1665816 -0.14738981 1.9056466
6.4191566 0.092302538 1.9067574
6.6481872 0.34827855 1.9068136
6.8972158 0.62002712 1.9115024
7.1804585 -0.16710874 1.9176685
7.5158334 0.10610387 1.9243379
7.8009768 0.40279934 1.9205357
7.7603326 0.68833369 1.8350639
7.9142795 -0.18404855 1.7978399
7.8608818 0.11207286 1.7029155
7.8115072 0.40033573 1.6162494
7.7579403 0.68252671 1.5311733
7.9283676 -0.1825763 1.4941776
7.8536463 0.10991321 1.3988016
7.8218017 0.39689404 1.3180534
7.7706656 0.68063951 1.2376977
7.9216657 -0.18311363 1.1924187
7.3630362 0.099319555 1.0343771
7.3658962 0.36989388 0.96467555
7.8003874 0.67624688 0.94943249
7.4475117 -0.17345385 0.84231389
7.4058723 0.099768095 0.76552254
7.3634906 0.36680979 0.69172519
7.7892752 0.67144847 0.66035712
7.4702401 -0.17515726 0.56997675
7.4089379 0.097481392 0.49357253
7.3768606 0.36566886 0.422636
7.8223472 0.67168617 0.37327138
7.4720678 -0.17754884 0.29509839
7.4350753 0.094191216 0.22250408
7.4025297 0.36318541 0.15240039
7.8170495 0.66793281 0.085584886
7.4608393 -0.17832436 0.021231361
7.4322653 0.091431126 -0.050724167
7.4112706 0.36063206 -0.11941311
7.8341146 0.66649878 -0.20162776
7.5224414 -0.18373777 -0.25487864
7.4434972 0.088840716 -0.32227972
7.4061036 0.35584593 -0.39195919
7.8286066 0.66410351 -0.49017328
7.5029612 -0.18824117 -0.52982557
7.4526396 0.085047111 -0.59704578
7.4296761 0.35580879 -0.6665889
7.7639751 0.6563006 -0.77386606
7.4535565 -0.18908441 -0.80234003
7.2251778 0.079298414 -0.84625751
7.2032943 0.34307718 -0.91280943
7.7819114 0.65590173 -1.0665754
5.4798832 -0.14351374 -0.79423159
5.1536236 0.053683855 -0.79593223
4.8109665 0.22728442 -0.79189867
7.7433553 0.65142709 -1.3552275
4.4643211 -0.12034776 -0.81667316
4.2349219 0.042118128 -0.81586432
3.9544041 0.18439692 -0.80137831
3.817735 0.31996769 -0.81572753
3.6381578 -0.10157131 -0.80714101
3.5089707 0.03330576 -0.81266254
3.3236098 0.1546337 -0.80413657
3.1245687 0.26297116 -0.79162771
3.1815684 -0.091825075 -0.83264184
2.975955 0.02601297 -0.80874729
2.8503923 0.13186902 -0.80566764
2.753648 0.2318504 -0.81121439
6.1474156 -0.18467934 1.9000381
6.4052234 0.052795079 1.9024866
6.6444368 0.30721307 1.9051614
6.9124179 0.57865989 1.9146953
7.20151 -0.21181737 1.9236015
7.5376549 0.060155667 1.9297941
7.817852 0.35558769 1.9241168
7.7673197 0.6409443 1.8357517
7.9393201 -0.23337983 1.8038195
7.8663082 0.063876964 1.7039741
7.8265343 0.35297126 1.61888
7.7766514 0.63611192 1.534067
7.9369202 -0.23150691 1.4960289
7.8650022 0.061807174 1.4007303
7.8329558 0.34928825 1.3195469
7.7835555 0.63366807 1.2391082
7.9520226 -0.23264197 1.1971805
7.4298534 0.054626752 1.0436971
7.3779335 0.32512718 0.96597254
7.811317 0.62892956 0.95027512
7.4612064 -0.21958613 0.84399927
7.4262385 0.054470554 0.76757878
7.3765445 0.32209912 0.69275272
7.8071547 0.62475455 0.66153544
7.4750047 -0.22116743 0.57043308
7.4233656 0.05211724 0.49450308
7.3849502 0.32065827 0.42297879
7.8263211 0.62367654 0.37327138
7.4798269 -0.22366203 0.29545343
7.444509 0.048627444 0.22277328
7.3896356 0.3171145 0.15209201
7.8309689 0.6207459 0.08569397
7.4895911 -0.22500069 0.021316709
7.4366856 0.045850541 -0.050751463
7.3953624 0.31438616 -0.11912347
7.8549991 0.61975372 -0.20206358
7.5191746 -0.22983007 -0.25481093
7.4528937 0.043218747 -0.322669
7.4121385 0.31056345 -0.39217034
7.8424845 0.61683816 -0.49079597
7.5166206 -0.234742 -0.53088182
7.4729571 0.03942214 -0.59864283
7.4257488 0.30996522 -0.66605335
7.7490067 0.60717249 -0.77198821
7.4045548 -0.23331198 -0.79720438
7.0576773 0.034151841 -0.82659876
7.2042718 0.29883102 -0.91268384
7.786777 0.60821766 -1.0667107
7.4245572 -0.24003884 -1.0762779
5.1667037 0.022115797 -0.79791629
4.8812852 0.20059676 -0.80325556
7.7334566 0.60283071 -1.3528222
4.3297906 -0.14331242 -0.79220897
4.1840396 0.015937842 -0.80602783
3.9995306 0.16191375 -0.81030679
3.7806206 0.29350826 -0.80739737
3.6199033 -0.12329453 -0.80324388
3.5695102 0.011977163 -0.82665062
3.3303235 0.1344728 -0.8055461
3.1386898 0.24477424 -0.79480988
3.0852265 -0.10799458 -0.80758667
2.9683387 0.0077322545 -0.80664939
2.8674948 0.11503264 -0.810287
2.7464092 0.21427825 -0.80867934
6.1805406 -0.2236395 1.9106646
6.4226818 0.01352872 1.9076115
6.624104 0.26555213 1.8988284
6.9110327 0.53586262 1.9133649
7.1846261 -0.25545174 1.9194742
7.5359445 0.01390078 1.929298
7.831531 0.30806959 1.9269819
7.7846937 0.59431016 1.8389614
7.9465094 -0.28240189 1.8058126
7.8626423 0.015601242 1.7031271
7.8295317 0.30498001 1.6190826
7.7862787 0.58882725 1.5352246
7.9481177 -0.28065342 1.498436
7.8800015 0.013572699 1.4033604
7.8369226 0.30129537 1.3198789
7.8089638 0.58752728 1.2425559
7.9494576 -0.28139532 1.1970319
7.43401 0.0090418151 1.0442536
7.3728533 0.27958789 0.9650647
7.8150287 0.58098841 0.95027512
7.4726281 -0.26582235 0.84545982
7.4413533 0.0089208698 0.76912087
7.3763924 0.27675679 0.69256592
7.8118348 0.5769124 0.6616196
7.4735069 -0.26702905 0.57043308
7.4335232 0.0065761707 0.49516773
7.4027414 0.27593404 0.42389286
7.8449435 0.57674193 0.37398371
7.475318 -0.26944521 0.29533508
7.4486656 0.0029494599 0.22289291
7.4214158 0.27286866 0.15270877
7.8406138 0.57312173 0.085759424
7.5300417 -0.27247047 0.021436194
7.4438267 0.00021923881 -0.050799232
7.4291272 0.27016595 -0.11963838
7.8616447 0.5717622 -0.20214048
7.514626 -0.27585253 -0.25470936
7.459013 -0.0025141852 -0.32292852
7.4348621 0.26582688 -0.39327893
7.8550806 0.56935531 -0.49135637
7.5260038 -0.28126848 -0.53165644
7.4770455 -0.0064352364 -0.59896225
7.4215384 0.26418328 -0.66551781
7.7744217 0.56119019 -0.77416253
7.4079518 -0.27892813 -0.79773933
7.2057424 -0.0093458369 -0.84393096
7.189115 0.25402525 -0.9105491
7.769609 0.55893451 -1.063869
7.4456902 -0.28646564 -1.0795757
5.1657538 -0.0095850835 -0.79776371
4.9208841 0.17198616 -0.80958301
7.73701 0.55536777 -1.3528222
7.4211311 -0.29122841 -1.3581238
4.2311916 -0.0098449094 -0.81510764
3.9700828 0.13632731 -0.80415601
3.8038135 0.27183914 -0.81197894
3.7224808 -0.14966075 -0.82619369
3.525677 -0.0098032672 -0.81649798
3.311657 0.11337066 -0.80084771
3.2523146 0.23356743 -0.8232047
3.1038384 -0.12771864 -0.8126483
3.0088599 -0.010624386 -0.81766343
2.9123905 0.09893889 -0.82278639
2.7658563 0.1987291 -0.81403112
6.1876431 -0.26192203 1.913321
6.4264784 -0.025895821 1.9087504
6.6400204 0.22539158 1.9029586
6.903614 0.49269241 1.9104379
7.1732697 -0.29912841 1.9168946
7.5097318 -0.032226924 1.9226017
7.8420086 0.26030037 1.9291307
7.7979035 0.54721439 1.8412541
7.9563189 -0.33164278 1.8084702
7.8743176 -0.032692008 1.7056676
7.8263617 0.25677261 1.6180707
7.7956181 0.54144835 1.536382
7.9570465 -0.32986459 1.5004725
7.8956881 -0.034847856 1.4061656
7.8484797 0.25352159 1.3215386
7.8173485 0.53994161 1.2433394
7.9544973 -0.33045429 1.1980735
7.4339256 -0.036572583 1.0442536
7.3665018 0.2340917 0.96402717
7.8323126 0.53397065 0.95196044
7.4807839 -0.31208268 0.84658337
7.4372892 -0.036718938 0.7687096
7.4107909 0.23252127 0.69564855
7.8112507 0.52869987 0.66128296
7.4757128 -0.31304744 0.5707373
7.450386 -0.039124269 0.49629766
7.4032969 0.2304754 0.42383569
7.8493309 0.5286625 0.37403122
7.5004792 -0.31644505 0.29640028
7.4655356 -0.042852283 0.2234014
7.4139562 0.22705112 0.15252374
7.8489718 0.52533573 0.085813962
7.5172381 -0.3182036 0.0214049
7.4616876 -0.045565143 -0.050922066
7.4456358 0.22502966 -0.11987975
7.8709898 0.52391165 -0.20229429
7.5237761 -0.32242692 -0.25508174
7.4828339 -0.048436984 -0.32396659
7.4393477 0.22029111 -0.3934373
7.8594217 0.52121276 -0.49141863
7.52314 -0.32739851 -0.53158599
7.4708843 -0.05227156 -0.59848309
7.4270024 0.2187579 -0.66587484
7.7965846 0.51472217 -0.77604038
7.4517932 -0.32637849 -0.802661
7.2264066 -0.053714298 -0.84637386
7.1736803 0.20941676 -0.90841424
7.7758584 0.51144558 -1.0642749
7.4655433 -0.33311671 -1.0827303
7.4118967 -0.059232887 -1.1446773
4.8883109 0.14082286 -0.80406678
7.7491188 0.5084644 -1.3543684
7.4319792 -0.33733797 -1.3604623
4.2133775 -0.035657257 -0.81170279
4.0502028 0.11420243 -0.82022732
3.8473775 0.25123477 -0.82093382
3.6415231 -0.16879192 -0.80844009
3.4622288 -0.030871611 -0.80183303
3.3579569 0.094331443 -0.81188899
3.184027 0.20903398 -0.80558032
3.0285861 -0.14324169 -0.79316092
2.9479458 -0.02849851 -0.80114233
2.8956268 0.08058504 -0.81789535
2.7344704 0.17961609 -0.80445433
6.1630158 -0.29877344 1.9062368
6.3993583 -0.06505461 1.9007782
6.6403174 0.18461822 1.9026834
6.9026594 0.45007247 1.9093736
7.1770897 -0.34341422 1.9184422
7.5122991 -0.078335471 1.9233458
7.8424878 0.21215156 1.928892
7.804029 0.49954361 1.841942
7.9648485 -0.38096809 1.8109062
7.887651 -0.081148058 1.7086314
7.8444324 0.20918994 1.6215109
7.7997727 0.49366716 1.536575
7.9617438 -0.37900901 1.5017687
7.9061542 -0.083408475 1.4080942
7.8558025 0.20551419 1.3225343
7.8155856 0.49165505 1.2425559
7.9651604 -0.3798683 1.2000079
7.436532 -0.082218446 1.0446708
7.3727555 0.18901433 0.96467555
7.855258 0.48713133 0.95436805
7.4846835 -0.35826311 0.84725749
7.4409027 -0.082396656 0.76912087
7.4080968 0.18694465 0.69527489
7.7994289 0.47984314 0.66002047
7.4816189 -0.35929433 0.57134581
7.4689627 -0.085054114 0.4975605
7.402576 0.1849954 0.42372146
7.8584094 0.480856 0.37431616
7.5373206 -0.36434272 0.29793891
7.4671311 -0.088682882 0.22346121
7.4182086 0.18162908 0.15258542
7.8550415 0.47734737 0.085846685
7.5171418 -0.36441937 0.02141059
7.4802656 -0.091580935 -0.051051725
7.4328823 0.17900285 -0.11965448
7.8790455 0.47590768 -0.20242248
7.5236521 -0.3686837 -0.25514945
7.4913869 -0.094463252 -0.32435587
7.4345694 0.17449939 -0.39312056
7.8694458 0.47339797 -0.49185452
7.5239782 -0.37370193 -0.53179729
7.4813871 -0.098255053 -0.59936148
7.447124 0.17362362 -0.66757077
7.7876759 0.46616003 -0.77485436
7.4575944 -0.37249246 -0.80351692
7.2378583 -0.098215401 -0.84776974
6.810832 0.15700497 -0.86232799
7.76896 0.46313462 -1.0629218
7.4475446 -0.37811524 -1.080436
7.4064527 -0.10464051 -1.1439141
4.8604746 0.11017758 -0.79936177
7.7865114 0.46295351 -1.3603817
7.412087 -0.38202202 -1.3572245
4.1885333 -0.06115102 -0.80697364
4.0077124 0.088397719 -0.81149727
3.8068628 0.22514002 -0.81197894
3.6131206 -0.18969947 -0.80237782
3.5476956 -0.053405274 -0.8216871
3.329319 0.073085651 -0.80484134
3.1629887 0.18816891 -0.7999503
3.1522729 -0.16848288 -0.82580858
2.9728024 -0.046982706 -0.80796057
2.8748994 0.062357165 -0.81191736
2.7795806 0.16545701 -0.81741118
6.1381702 -0.33533251 1.8991528
6.4007559 -0.10435037 1.9013478
6.6288309 0.14359985 1.8991038
6.9197254 0.40856233 1.9133649
7.1902838 -0.38827911 1.9225698
7.5271749 -0.12468532 1.927314
7.8397589 0.16394576 1.927937
7.805975 0.45159334 1.8417126
7.9613876 -0.42977977 1.8106849
7.9192524 -0.13007392 1.7156175
7.8494844 0.16113386 1.6223203
7.8183293 0.44669488 1.5396616
7.9592686 -0.42785421 1.5017687
7.9133692 -0.13204958 1.4094969
7.8657889 0.15748569 1.3240279
7.8223996 0.44391412 1.2431827
7.980454 -0.42969149 1.2026867
7.4289565 -0.12772743 1.0436971
7.3777418 0.14384972 0.9651944
7.6400385 0.42674318 0.92788452
7.4992123 -0.40509269 0.84916753
7.44523 -0.12813722 0.76963496
7.4110951 0.14152393 0.69546169
7.5107126 0.41583776 0.63536018
7.4872389 -0.4056254 0.57195425
7.4782763 -0.13105604 0.49822512
7.4125552 0.13973993 0.42423561
7.577961 0.41704044 0.360829
7.5319495 -0.41042086 0.29782054
7.4704442 -0.13457067 0.22358087
7.4461732 0.13660353 0.1531405
7.6171951 0.41599935 0.083217829
7.5207553 -0.41086411 0.021427659
7.4935603 -0.13773453 -0.051147263
7.4438381 0.13357157 -0.11981539
7.6312685 0.41396263 -0.19598782
7.5232444 -0.41495112 -0.25521716
7.5026526 -0.14065246 -0.32487491
7.4484801 0.12910342 -0.39380682
7.5512948 0.40777388 -0.47180423
7.538475 -0.42080626 -0.53299439
7.4926028 -0.1443886 -0.60031968
7.4619908 0.12816513 -0.66882044
7.6840668 0.41265714 -0.76427919
7.4611244 -0.41857857 -0.80415887
7.2549934 -0.14297646 -0.84986353
7.0060878 0.11849994 -0.88694084
5.7127352 0.30539089 -0.78132528
7.4282866 -0.42284924 -1.0779984
7.4412417 -0.15080455 -1.1494085
4.8551393 0.080254346 -0.7983883
4.566493 0.24339584 -0.79753625
4.3868384 -0.25309715 -0.8035416
4.2499285 -0.088132821 -0.81889093
3.9337001 0.062619574 -0.79641813
3.8111026 0.20193256 -0.81260371
3.7005777 -0.2170679 -0.82208008
3.563859 -0.075523406 -0.82552254
3.3627493 0.053178523 -0.81282872
3.2047482 0.1709265 -0.81023121
3.1106191 -0.18540414 -0.81517911
2.9705288 -0.065180257 -0.80743611
2.8963976 0.045045175 -0.81789535
2.7958739 0.14921689 -0.82191795
6.1321821 -0.37275741 1.897972
6.4067039 -0.14377326 1.9033407
6.6622686 0.10343079 1.9084657
6.9105506 0.36548507 1.910172
7.2070541 -0.43355086 1.9277289
7.526268 -0.17086884 1.927314
7.8658624 0.11621179 1.9341447
7.8076277 0.40363804 1.8414835
7.9722285 -0.47944137 1.8137853
7.9251447 -0.17881741 1.7170994
7.8640342 0.11316457 1.6251533
7.8346419 0.3994135 1.5423625
7.9672842 -0.47732982 1.5038054
7.8996143 -0.18031053 1.4072175
7.8774538 0.10936974 1.3258535
7.8437171 0.39685661 1.2461601
7.9865508 -0.47918355 1.2040259
7.4310031 -0.17337756 1.0441145
7.3923664 0.098763488 0.96701008
7.3787732 0.36674806 0.89586365
7.5144391 -0.45217365 0.85118985
7.4582253 -0.17414294 0.7710743
7.4227753 0.096189551 0.69648927
7.374783 0.36293694 0.62366128
7.5134721 -0.45329997 0.57415992
7.4803243 -0.17701024 0.49842456
7.4202614 0.094343565 0.42463553
7.4257364 0.3629761 0.35346803
7.5243025 -0.45632586 0.29762328
7.4714761 -0.18045419 0.22364068
7.4528694 0.090985328 0.15326385
7.4168544 0.35942781 0.081003487
7.5400519 -0.45833769 0.021490246
7.5055699 -0.18403021 -0.051235978
7.4485164 0.087941729 -0.11987975
7.405004 0.35613316 -0.19011717
7.5285373 -0.46159437 -0.25548798
7.5126348 -0.18695864 -0.3253507
7.4651084 0.083576851 -0.39465144
7.4270463 0.35537428 -0.46389621
7.5506854 -0.46797916 -0.53405064
7.4985514 -0.19053687 -0.60087866
7.4636326 0.082387798 -0.66890967
7.4250374 0.35307011 -0.73828596
7.4812398 -0.46577227 -0.80661976
7.3205023 -0.18920895 -0.85765719
6.8568869 0.073894851 -0.86797893
6.2152877 0.29402283 -0.84979612
7.4956794 -0.47284415 -1.088179
7.4688272 -0.19721684 -1.1538347
4.9246092 0.05118008 -0.80974519
4.6426878 0.21889791 -0.81059372
4.4823899 -0.28621525 -0.8213501
4.2463632 -0.11412909 -0.81832349
4.052599 0.039641678 -0.82042569
3.7985921 0.17790368 -0.80968815
3.7225578 -0.24128567 -0.82727623
3.4961326 -0.095552877 -0.80995512
3.3153858 0.032083195 -0.80131757
3.2502875 0.1533614 -0.82149124
3.0766006 -0.20232852 -0.80657429
2.9623559 -0.083189145 -0.80533814
2.871599 0.02703679 -0.81083047
2.7708585 0.13083698 -0.81431276
6.1526589 -0.41190851 1.9050562
6.4047427 -0.18305396 1.903056
6.6656623 0.062577009 1.9092919
6.9030337 0.32262582 1.9075111
7.1897974 -0.47680536 1.9238595
7.5115209 -0.21665491 1.9238418
7.8567166 0.067861706 1.9317571
7.8264875 0.35647666 1.845381
7.9895701 -0.5297038 1.818436
7.9414835 -0.22794658 1.7209101
7.8714356 0.064966209 1.6265697
7.8379254 0.35137749 1.5425553
7.9916615 -0.52802122 1.5089897
7.9347711 -0.22983295 1.413705
7.8750186 0.061009619 1.3253556
7.8657384 0.34959808 1.2492944
7.9953008 -0.52896243 1.2058116
7.4347482 -0.21911593 1.0448099
7.4324942 0.053689416 0.97219795
7.3808846 0.32146585 0.89586365
7.5204468 -0.49886483 0.85220104
7.4679532 -0.22022498 0.77220517
7.4491115 0.050819039 0.69891804
7.3768716 0.31767929 0.62366128
7.5413914 -0.50144404 0.5765177
7.491065 -0.223262 0.4992221
7.4536462 0.049028628 0.42652076
7.4168463 0.31693673 0.35294563
7.5293369 -0.50301838 0.29793891
7.4842153 -0.22671863 0.22405942
7.4532876 0.045253668 0.15326385
7.4169221 0.31382754 0.080981672
7.5520644 -0.50559592 0.021532919
7.5042992 -0.23008005 -0.051235978
7.4579148 0.042287864 -0.12002458
7.4050527 0.31060642 -0.19006589
7.5594664 -0.51006752 -0.25663897
7.5263247 -0.23351651 -0.32599947
7.4704738 0.037795492 -0.3949154
7.4161234 0.30925551 -0.46308672
7.5556335 -0.51484299 -0.53461403
7.497241 -0.23654354 -0.60087866
7.4759498 0.036648847 -0.66998082
7.4230871 0.30733964 -0.73789066
7.4792328 -0.51173538 -0.80672675
7.3479924 -0.23504403 -0.86103064
6.9216962 0.032119628 -0.87614131
6.0605602 0.24944325 -0.82841593
5.4815021 -0.37956679 -0.79609567
7.4595742 -0.24278381 -1.1526136
4.9179235 0.020932883 -0.80860955
4.621304 0.18947856 -0.80664212
4.4511113 -0.31165209 -0.81595361
4.2200661 -0.13933961 -0.81340522
4.029243 0.014688898 -0.81566381
3.7947257 0.15439379 -0.80864686
3.6810803 -0.26128823 -0.81839943
3.5704532 -0.11951248 -0.82732743
3.3378766 0.011818925 -0.80672073
3.2666676 0.13405119 -0.82540774
3.0106494 -0.21655206 -0.78961778
3.0360515 -0.10390579 -0.82553065
2.8736353 0.0094227912 -0.81137389
2.7601049 0.11336036 -0.81093276
6.1652622 -0.45076746 1.909779
6.4140372 -0.22271518 1.9061879
6.6495776 0.02162295 1.9046108
6.9299259 0.28127995 1.9144292
7.1597552 -0.51895648 1.9166366
7.5100503 -0.26274067 1.9238418
7.8560138 0.019650092 1.9315182
7.8353357 0.30871576 1.8469859
8.0017309 -0.57984453 1.8219794
7.9457955 -0.27687451 1.7221802
7.871686 0.016666766 1.6265697
7.8418951 0.30335411 1.5429411
8.0059137 -0.57832164 1.5123223
7.9489541 -0.27906814 1.4165102
7.8811612 0.0126978 1.3263514
7.8647742 0.30121484 1.2488242
7.994863 -0.57822472 1.2062579
7.4461293 -0.26518875 1.0466182
7.4346666 0.0080856364 0.97245729
7.385694 0.27628288 0.89622474
7.5291371 -0.54586226 0.8535493
7.4863424 -0.26675174 0.77426136
7.4572477 0.0051166615 0.69966531
7.3906312 0.27285081 0.62467128
7.5391674 -0.54777992 0.57659376
7.4775887 -0.268792 0.49842456
7.4607954 0.0032960786 0.42692065
7.4216461 0.2715314 0.35308811
7.5500264 -0.55095345 0.29888573
7.4836826 -0.27267304 0.22408934
7.4624228 -0.00048027418 0.15344888
7.4147115 0.2681677 0.080938041
7.5627823 -0.55294585 0.021572746
7.5067434 -0.27626836 -0.051263276
7.4630332 -0.0034761671 -0.12010503
7.4138122 0.26541436 -0.19024535
7.576129 -0.55790991 -0.25731605
7.5237522 -0.27965567 -0.32595623
7.4745593 -0.0080474876 -0.39512652
7.4348378 0.26434809 -0.4641453
7.5602903 -0.56178516 -0.53517735
7.5364885 -0.28408071 -0.60415256
7.495954 -0.0092479857 -0.67176598
7.4337835 0.26210222 -0.73878014
7.4590964 -0.55636024 -0.80490786
7.2163954 -0.27516839 -0.84579217
6.7332673 -0.010069803 -0.85228193
7.1997118 0.25208783 -0.98389614
7.5455637 -0.56903416 -1.0963522
5.1441245 -0.19902788 -0.79501647
4.8992109 -0.009208085 -0.80552697
4.6154881 0.16087899 -0.80543941
4.4736362 -0.34082592 -0.82045072
4.1955829 -0.16430861 -0.80886525
4.0312176 -0.010039231 -0.81606072
3.8366563 0.132525 -0.81739354
3.6463127 -0.28131667 -0.8110382
3.522927 -0.139567 -0.81649798
3.3009496 -0.0085662687 -0.79779369
3.2713046 0.11414001 -0.82638687
3.0227671 -0.23607557 -0.79316092
3.0006449 -0.12113143 -0.81609005
2.8688273 -0.0081959348 -0.81001526
2.8144484 0.098298073 -0.82670635
6.1509504 -0.48768213 1.9062368
6.4364953 -0.26304537 1.9133059
6.6620827 -0.019214543 1.9081904
6.8862424 0.23719382 1.9019235
7.1756997 -0.56439328 1.9217957
7.5112004 -0.30893594 1.9245858
7.8540444 -0.028546814 1.9310408
7.859457 0.26137733 1.852259
8.0038567 -0.62939006 1.8233083
7.954689 -0.32606411 1.724509
7.9010196 -0.031751372 1.6326407
7.842628 0.25519952 1.5427482
8.0061331 -0.62774134 1.513063
7.9529934 -0.32808021 1.4175621
7.8948965 -0.035722803 1.3286748
7.8714104 0.25311053 1.2496078
8.0089102 -0.62866229 1.2089367
7.4730554 -0.31207058 1.0506523
7.4306102 -0.037512749 0.97193855
7.3951883 0.23120809 0.89718783
7.5523925 -0.59415406 0.85658282
7.4905281 -0.31293118 0.7748782
7.4491739 -0.040596839 0.69891804
7.4001341 0.22774284 0.62534457
7.5475926 -0.59496939 0.57750648
7.4767957 -0.3147105 0.49849102
7.4626713 -0.042493932 0.42703491
7.425169 0.22604872 0.35318309
7.5614457 -0.59845173 0.29947752
7.5068345 -0.31964999 0.22483709
7.4642792 -0.04628123 0.15348999
7.4222136 0.2228469 0.081003487
7.5702128 -0.60020924 0.021604041
7.5119004 -0.32262403 -0.051311046
7.485868 -0.04942023 -0.12047513
7.4392824 0.2206303 -0.1908606
7.5835223 -0.60526031 -0.25768843
7.5328741 -0.32629088 -0.32643202
7.4873509 -0.054004002 -0.39581278
7.4542766 0.21925199 -0.46526611
7.5865302 -0.61056429 -0.53728992
7.5395832 -0.33053669 -0.60455179
7.4967523 -0.05524946 -0.67185521
7.4382358 0.21657132 -0.73907667
7.4813089 -0.60419887 -0.80768967
7.3038731 -0.32339621 -0.85626137
6.472168 -0.049392998 -0.81925553
7.2991714 0.2107373 -0.99729258
5.4734726 -0.44656324 -0.7956655
5.1398449 -0.2304551 -0.79455864
4.9089298 -0.039347999 -0.80714941
4.5888162 0.13176414 -0.80062878
4.4175406 -0.3638283 -0.81055707
4.1807628 -0.1894269 -0.80621696
4.0389209 -0.034841765 -0.81764799
3.8090444 0.10817601 -0.81135416
3.6065745 -0.30052304 -0.80259436
3.4937816 -0.15988906 -0.80995512
3.303751 -0.028845815 -0.79849845
3.2099161 0.09228228 -0.8107208
3.1138084 -0.26241791 -0.8174569
2.9236922 -0.13599843 -0.79537308
2.8677607 -0.02578992 -0.80974358
2.7411468 0.078901336 -0.80501759
6.1373711 -0.52451956 1.90299
6.4117785 -0.30145353 1.9064726
6.6810656 -0.060265377 1.9136974
6.8981676 0.19523616 1.9048504
7.1711388 -0.60833025 1.9215379
7.4743271 -0.35337102 1.9156574
7.8702292 -0.076899081 1.9350996
7.8541021 0.21296301 1.8506542
8.0192766 -0.68013716 1.8277375
7.958396 -0.37514311 1.7257792
7.9094892 -0.080320016 1.6344619
7.8734727 0.20785008 1.5485357
8.0158405 -0.67801386 1.5156552
7.9606652 -0.37733883 1.4193155
7.9132643 -0.084364049 1.3318281
7.8777518 0.20493612 1.2503914
8.0403748 -0.68079573 1.2142938
7.5016637 -0.35938752 1.0549645
7.4371805 -0.083183043 0.97284639
7.404407 0.18602717 0.89815086
7.569397 -0.64224768 0.85894227
7.4944282 -0.35917199 0.77549505
7.4806428 -0.086672463 0.70190728
7.4083652 0.18250395 0.62593371
7.5567155 -0.64236724 0.5784952
7.4916663 -0.36139864 0.49962091
7.4722528 -0.088401325 0.42760617
7.4204249 0.18033887 0.35289815
7.5685825 -0.64577103 0.29991147
7.5326867 -0.36706728 0.2256746
7.4728518 -0.092191309 0.15367502
7.4404354 0.17770675 0.081188932
7.5713696 -0.64707369 0.021618266
7.5167708 -0.36905336 -0.051358815
7.4824243 -0.095313512 -0.12042686
7.449491 0.1751911 -0.19109134
7.5955973 -0.65315056 -0.25823006
7.5247431 -0.37220943 -0.3261725
7.5128398 -0.10029107 -0.3971853
7.4644623 0.17371827 -0.46582651
7.6005287 -0.65865302 -0.53855741
7.5334306 -0.37659341 -0.60423237
7.4992595 -0.10128798 -0.67212301
7.4603167 0.17140709 -0.74115217
7.5160913 -0.65345049 -0.81186241
7.4078898 -0.3735581 -0.86870801
6.6889892 -0.092095643 -0.84675664
7.2141495 0.16398753 -0.98551995
7.5646315 -0.6639232 -1.1002238
5.1965675 -0.2649574 -0.80356342
4.8997154 -0.069342211 -0.80568916
4.5639315 0.10302716 -0.79616177
7.4998074 -0.664038 -1.3768318
4.2001152 -0.21613574 -0.81018937
4.0356908 -0.059580054 -0.81705272
3.7891021 0.08434502 -0.80698085
3.6464756 -0.32638952 -0.81190419
3.5131657 -0.18238415 -0.81469303
3.3569667 -0.049911477 -0.81141919
3.2424099 0.073308088 -0.8187986
3.0562558 -0.27646378 -0.80277807
2.9584584 -0.15581319 -0.80507594
2.8675485 -0.043385684 -0.80974358
2.7550092 0.062384598 -0.80896109
6.1387939 -0.56260383 1.9044658
6.4212956 -0.34140053 1.9098892
6.6853762 -0.10133134 1.9150742
6.90309 0.15299156 1.9059147
7.1586118 -0.65153193 1.9192163
7.4942679 -0.40041474 1.9213617
7.854074 -0.12494133 1.9312797
7.8669386 0.16501209 1.8534055
8.007184 -0.72862279 1.8259659
7.9774156 -0.42511204 1.7304367
7.9166803 -0.12897784 1.6360807
7.8765616 0.15957519 1.5489216
8.0262089 -0.72851783 1.5184324
7.9680309 -0.42670393 1.4210689
7.9273868 -0.13316576 1.3343173
7.8719487 0.15645792 1.2492944
8.0242281 -0.72904402 1.2125081
7.5131607 -0.40615848 1.0569121
7.4514012 -0.12907276 0.97479182
7.4242678 0.14094912 0.90043807
7.5672927 -0.68886065 0.85916692
7.5049958 -0.40584844 0.77683163
7.4710112 -0.1324124 0.70106655
7.4123344 0.13709894 0.62618625
7.5595827 -0.68935615 0.57902759
7.4893074 -0.40735984 0.49962091
7.4735665 -0.13428442 0.42772046
7.4343748 0.13504043 0.35351554
7.5714431 -0.69283617 0.30018765
7.5342841 -0.41349915 0.22579424
7.4851408 -0.13828221 0.15394229
7.4563828 0.13231586 0.081352547
7.5971313 -0.69625646 0.021703612
7.5163617 -0.41527876 -0.051372461
7.5006928 -0.14158154 -0.12073259
7.4524245 0.12951332 -0.1911426
7.598413 -0.70038611 -0.25846705
7.5342879 -0.41903913 -0.32669154
7.5140805 -0.14642602 -0.39729092
7.472373 0.12803361 -0.4662624
7.61025 -0.70656765 -0.53954327
7.5498877 -0.4238722 -0.60574955
7.5114427 -0.14755496 -0.67328334
7.4662023 0.12571198 -0.74164629
7.5258002 -0.70084673 -0.81336027
7.4143825 -0.41950998 -0.86975491
7.0255399 -0.13984989 -0.88945234
7.3339 0.12169183 -1.0017581
7.5604153 -0.71032643 -1.1002238
5.2135906 -0.29790917 -0.8064633
4.8508573 -0.098424159 -0.79773939
4.6629772 0.076640397 -0.81334263
4.4117637 -0.41791818 -0.81037718
4.234982 -0.24399285 -0.8171885
4.0342693 -0.084320985 -0.8168543
3.8042173 0.061330426 -0.81010467
3.669672 -0.35117579 -0.81753337
3.4273663 -0.19902363 -0.79506463
3.3245277 -0.069834851 -0.80366677
3.1254954 0.051479574 -0.78917992
3.1507976 -0.30451819 -0.82808632
2.9670801 -0.17452967 -0.80769831
2.8566444 -0.060754716 -0.80675453
2.803309 0.046270769 -0.82304466
6.1609006 -0.60277212 1.9124354
6.4123812 -0.38039708 1.9078962
6.6855893 -0.1423706 1.9153495
6.9289584 0.11103369 1.9128326
7.1544795 -0.69544411 1.9192163
7.5023074 -0.447025 1.9240898
7.8337421 -0.1727026 1.9265044
7.8658566 0.11670948 1.8529469
8.0287685 -0.78028703 1.8319453
7.973681 -0.47399452 1.7302248
7.9274888 -0.17781477 1.638509
7.8813167 0.11129793 1.5496931
8.0372372 -0.77926934 1.5213947
7.9760728 -0.47623226 1.4229975
7.9224772 -0.18171436 1.3336536
7.8796735 0.10824856 1.2503914
8.0284615 -0.77912569 1.2138474
7.516458 -0.45260787 1.0577466
7.4593906 -0.17500056 0.97595912
7.4309487 0.095468529 0.90116036
7.5649014 -0.73547202 0.85939163
7.5093145 -0.45230922 0.77755129
7.4720483 -0.17829868 0.70125335
7.4190145 0.091689013 0.62669122
7.5770435 -0.737854 0.58070087
7.5055904 -0.45445147 0.50088376
7.4815845 -0.18035537 0.42823461
7.453042 0.089637659 0.35437036
7.5849504 -0.7410295 0.30089778
7.5276146 -0.45947731 0.2256746
7.4871492 -0.18428136 0.15400395
7.4550543 0.086538658 0.081330732
7.5887351 -0.74246901 0.021692233
7.5286436 -0.46230981 -0.051474825
7.5026817 -0.18767728 -0.12078086
7.4650745 0.083918519 -0.19145024
7.6029243 -0.74787647 -0.25877172
7.5375581 -0.46563038 -0.32695106
7.5290127 -0.1929381 -0.39813551
7.4790058 0.082247436 -0.466636
7.6166906 -0.75433135 -0.54031783
7.5441599 -0.47000352 -0.60551
7.5303092 -0.19415496 -0.67506856
7.4648433 0.079876564 -0.74144864
7.5282836 -0.74769884 -0.81410921
7.4334769 -0.46636409 -0.8723141
7.3875294 -0.19240899 -0.93541306
5.7651634 0.060280513 -0.78741461
7.5608382 -0.75719601 -1.1009407
5.1830611 -0.32808298 -0.80203712
4.9014554 -0.12954225 -0.80617595
4.6574492 0.047966592 -0.81231177
4.4071593 -0.44478285 -0.81001747
4.2324252 -0.26991114 -0.81699932
3.9964449 -0.10806645 -0.80931473
3.7927859 0.037869852 -0.80760562
3.6489942 -0.37180555 -0.81341976
3.5388572 -0.22729322 -0.82123584
3.3337533 -0.090496212 -0.80601597
3.216888 0.033242702 -0.81218946
3.0603321 -0.3147397 -0.80480272
2.970768 -0.19304492 -0.80900949
2.924521 -0.080153629 -0.82604712
2.7776349 0.028800512 -0.81543952
6.1513848 -0.63997018 1.9106646
6.3955784 -0.41879597 1.9036255
6.6922779 -0.18360083 1.9175524
6.9391484 0.068611614 1.9154935
7.1616096 -0.7405225 1.9223117
7.4916902 -0.49254146 1.9221058
7.8228278 -0.22049268 1.9241168
7.8596115 0.068384014 1.8513421
8.051959 -0.83244413 1.8383678
7.9774489 -0.52335906 1.7317067
7.927228 -0.22648156 1.6387115
7.8995132 0.063078016 1.5531658
8.0665188 -0.83209962 1.5278752
8.0083666 -0.52749306 1.4293095
7.9231844 -0.23037966 1.3339854
7.8950033 0.060010359 1.2527421
8.0392675 -0.82999754 1.2162284
7.5224323 -0.49930972 1.0589986
7.4601588 -0.22082591 0.97621852
7.4383435 0.049917918 0.90200299
7.5651879 -0.78238666 0.8599534
7.5252557 -0.49962905 0.77950466
7.4877315 -0.22465052 0.70284134
7.4313941 0.046239465 0.62770116
7.5832834 -0.78546196 0.58153754
7.5504489 -0.50368428 0.5040741
7.496304 -0.22674106 0.42914867
7.4634399 0.043963801 0.35484523
7.6001382 -0.78962111 0.30168679
7.5316348 -0.50612634 0.22588398
7.4958711 -0.23052551 0.15420954
7.4664445 0.040853858 0.081450723
7.6029344 -0.79098469 0.021746285
7.5436239 -0.50970942 -0.051597662
7.5103831 -0.23398955 -0.12092568
7.4714465 0.038142726 -0.19160406
7.6041565 -0.79513669 -0.25897485
7.555491 -0.51329327 -0.32785937
7.5266891 -0.23909992 -0.39808273
7.4803677 0.036360424 -0.46669826
7.6129107 -0.8011567 -0.54038829
7.5640073 -0.5178507 -0.60734659
7.5289764 -0.24035642 -0.67506856
7.4801188 0.034139771 -0.74293113
7.533442 -0.7949208 -0.81517917
7.4344387 -0.51223934 -0.87277937
7.296968 -0.23486206 -0.92411125
6.05969 0.026176145 -0.827604
7.5777001 -0.80587667 -1.1040952
7.5224843 -0.52252722 -1.1645184
7.4578576 -0.24290711 -1.2268671
4.633028 0.019285601 -0.80801654
4.4336896 -0.47495961 -0.81541389
4.1915073 -0.29313549 -0.8094328
3.9888496 -0.13235861 -0.80792582
3.7587144 0.014465299 -0.80031675
3.5777297 -0.38673893 -0.79804766
3.5675223 -0.25112361 -0.8282299
3.4001672 -0.11318132 -0.82222557
3.2470882 0.013629787 -0.81977773
3.0727694 -0.33508483 -0.80859894
2.9560516 -0.21031082 -0.80533814
2.9258976 -0.098161176 -0.82659054
2.8065443 0.011878555 -0.82388967
6.1454425 -0.67749286 1.9100741
6.3995814 -0.45851016 1.9056184
6.7313795 -0.22601536 1.9291172
6.8922057 0.025855316 1.9024557
7.1674957 -0.7856093 1.9251492
7.4721003 -0.53731912 1.9178895
7.822299 -0.26852182 1.9243557
7.8842168 0.020219458 1.8570737
8.0612402 -0.8834278 1.8416896
7.9848104 -0.57306749 1.7340354
7.9335184 -0.27538961 1.6403302
7.9125066 0.014629911 1.5556736
8.0641909 -0.8818996 1.5284306
8.0098896 -0.57697517 1.4301862
7.9423175 -0.27971995 1.3374707
7.9041119 0.011579419 1.2541524
8.0556498 -0.88167691 1.2195022
7.5300918 -0.54624522 1.0605288
7.4725361 -0.26709229 0.97803426
7.4494295 0.0042824377 0.90332711
7.5790124 -0.8308484 0.86208814
7.5309772 -0.54644161 0.78043002
7.4842224 -0.27051824 0.70265454
7.4345279 0.00064067513 0.62795371
7.5921969 -0.83350074 0.58260232
7.5482111 -0.55007595 0.50414056
7.496767 -0.27280587 0.42926291
7.4615717 -0.0018313453 0.35475028
7.6080618 -0.83766145 0.30219966
7.5383563 -0.55306143 0.22618307
7.5222907 -0.27754715 0.15478519
7.4745541 -0.004965466 0.081537992
7.6168237 -0.83970255 0.021800339
7.5662832 -0.55789852 -0.05177509
7.5118036 -0.2801798 -0.12097395
7.47154 -0.0077019283 -0.19160406
7.6100612 -0.84299034 -0.2593472
7.5611663 -0.56030768 -0.32824865
7.534061 -0.28561878 -0.39855781
7.4944229 -0.0095567517 -0.46757001
7.6247053 -0.8497318 -0.54158539
7.5696335 -0.56492049 -0.60806519
7.5452752 -0.28723082 -0.6766752
7.4951143 -0.011781484 -0.74441367
7.5383039 -0.84223413 -0.81624907
7.4034238 -0.55576479 -0.86952233
7.293407 -0.27955499 -0.92386007
7.2486978 -0.01316534 -0.98998547
7.6060505 -0.856121 -1.1089704
7.5368748 -0.57001603 -1.1672655
4.9330211 -0.19097877 -0.81169212
4.6005497 -0.0090783359 -0.80234683
4.4492631 -0.50426006 -0.81883174
4.1720057 -0.31750733 -0.80602783
3.9938385 -0.15706234 -0.8091163
3.7841623 -0.0086561814 -0.80573136
3.6965349 -0.42254353 -0.82511115
3.560086 -0.27256256 -0.82687622
3.325593 -0.1311316 -0.80437154
3.2063882 -0.0062152911 -0.80949688
3.1033323 -0.35769907 -0.81720376
2.9739482 -0.22993259 -0.81058294
2.8588886 -0.11347859 -0.80784142
2.826714 -0.0053806556 -0.82980472
6.14117 -0.71518785 1.9100741
6.4081163 -0.4986611 1.9090351
6.7846189 -0.2694889 1.9448122
6.8816314 -0.016409667 1.8995289
7.1519828 -0.82835072 1.9223117
7.4686627 -0.58315694 1.9178895
7.8146825 -0.31627789 1.9229233
7.899766 -0.028213186 1.860742
8.0789165 -0.93556631 1.8470048
7.9938111 -0.62303787 1.7367876
7.9561419 -0.32506308 1.6453893
7.9095049 -0.033907976 1.555095
8.070343 -0.93271786 1.5306524
8.0081606 -0.62626559 1.4305367
7.9512906 -0.32889616 1.3392963
7.9218111 -0.037002552 1.2569731
8.0540171 -0.93154329 1.2200974
7.5374575 -0.59329349 1.0620588
7.482645 -0.31343585 0.97959059
7.4592428 -0.041481689 0.90453094
7.5846295 -0.87859452 0.86332405
7.5344243 -0.59318703 0.78114969
7.4893847 -0.31672993 0.70330846
7.4523277 -0.045085251 0.62946868
7.5998158 -0.88156348 0.58359104
7.5407147 -0.59606606 0.50387472
7.4949517 -0.31880003 0.42926291
7.4784007 -0.047723014 0.35555759
7.6107187 -0.8852514 0.3025153
7.5507636 -0.60057354 0.22666165
7.5314336 -0.32417077 0.15501133
7.4763827 -0.050841972 0.0815598
7.6234469 -0.88781077 0.021834476
7.5826535 -0.6059069 -0.051911574
7.5159364 -0.32652646 -0.1210705
7.499342 -0.053746894 -0.19232187
7.6226134 -0.89175928 -0.25995657
7.5854702 -0.60892999 -0.32945976
7.5391502 -0.33214921 -0.39892736
7.4852409 -0.055474918 -0.46700963
7.640152 -0.89894795 -0.54306418
7.5729795 -0.61191821 -0.60862416
7.548346 -0.33374232 -0.67712152
7.5068417 -0.057862457 -0.74559963
7.5912514 -0.8953436 -0.82256168
7.4652114 -0.60648894 -0.87719971
7.0467515 -0.31341332 -0.89284289
7.4179025 -0.058989562 -1.0131248
5.4159818 -0.64328831 -0.79021674
7.4465561 -0.60915995 -1.1538347
7.4898028 -0.3360002 -1.2327077
4.5974522 -0.037282642 -0.80183148
4.4714804 -0.53458685 -0.82350874
4.1875944 -0.34454966 -0.8094328
3.9918206 -0.1815206 -0.80891788
3.7791476 -0.031834006 -0.80469006
3.6667333 -0.44194603 -0.81904894
3.4738781 -0.28741318 -0.80724776
3.3237545 -0.15149032 -0.80413657
3.218894 -0.025990976 -0.81267905
3.0386541 -0.36915034 -0.80075336
2.9599798 -0.2471323 -0.80717385
2.8591001 -0.13106233 -0.80811322
2.7767348 -0.022323826 -0.81515777
6.1101127 -0.74959832 1.9018092
6.3934727 -0.53700835 1.9056184
6.6186204 -0.30358121 1.8977269
6.9006791 -0.058798518 1.9048504
7.1352572 -0.87081438 1.9192163
7.4823198 -0.63043684 1.9223537
7.8271446 -0.36490023 1.9265044
7.9082036 -0.076769747 1.8628052
8.0701208 -0.98476571 1.8463405
8.004447 -0.67330408 1.7399632
7.9608455 -0.3741968 1.6468059
7.9160156 -0.082510732 1.5564454
8.0791006 -0.98400116 1.5334297
8.0169201 -0.67646706 1.432816
7.9648829 -0.37842697 1.3419516
7.9155097 -0.085545138 1.2560329
8.0648375 -0.98297822 1.2226272
7.5622907 -0.64196044 1.0660928
7.4855332 -0.35958049 0.98023909
7.4499145 -0.087145463 0.90344757
7.6007953 -0.92776501 0.86579579
7.5544295 -0.64142591 0.78361708
7.4982395 -0.36320785 0.70433599
7.4558959 -0.090859592 0.62980533
7.5992126 -0.9287833 0.58397138
7.5587873 -0.64418781 0.50533694
7.5147924 -0.36585021 0.43051973
7.4859571 -0.093708746 0.35593751
7.619029 -0.93363476 0.30306759
7.5748215 -0.64928305 0.22749914
7.5492744 -0.37135911 0.15542249
7.4899278 -0.096896328 0.081712514
7.6396923 -0.9372496 0.021897065
7.5907488 -0.65345097 -0.051993463
7.5247765 -0.37318203 -0.12124751
7.4948726 -0.099707782 -0.19221932
7.6517153 -0.94279158 -0.26114142
7.5935349 -0.65649474 -0.32997876
7.5439515 -0.3787528 -0.39929688
7.4638023 -0.10111852 -0.465702
7.6434016 -0.9469139 -0.54369789
7.5889435 -0.66010123 -0.61022121
7.5561032 -0.3805528 -0.6780141
7.5222659 -0.1041429 -0.747181
7.5866013 -0.94202828 -0.82266867
7.4801488 -0.65392667 -0.87940985
7.2260151 -0.36582494 -0.91582322
7.2479901 -0.10211702 -0.98998547
5.4355016 -0.67945421 -0.79365808
5.1311164 -0.45145828 -0.79547435
4.9135528 -0.25064555 -0.80893397
4.6197925 -0.06581413 -0.80578303
4.3685641 -0.54949135 -0.80516058
4.2323513 -0.37439093 -0.81851262
3.9436488 -0.2035851 -0.79939425
3.7651896 -0.054822467 -0.8017745
3.7114105 -0.47045207 -0.82965785
3.5535619 -0.31597093 -0.82619935
3.3033483 -0.17087737 -0.79943818
3.2729647 -0.046512786 -0.82638687
3.1361353 -0.40053475 -0.82707399
3.0170376 -0.27054727 -0.82317048
2.9043736 -0.15100141 -0.82115602
2.7755861 -0.039347529 -0.81487614
6.079813 -0.78377682 1.8938396
6.3766909 -0.57502252 1.9016324
6.6310344 -0.34493569 1.9018574
6.8664541 -0.10064472 1.8955377
7.1192384 -0.91322684 1.9163786
7.4898887 -0.67738277 1.9253299
7.8199096 -0.41266397 1.9253106
7.9085574 -0.12530755 1.8630346
8.0881071 -1.0373659 1.8518771
8.0264454 -0.72477883 1.7456789
7.9789357 -0.4241282 1.6510555
7.9281139 -0.13129215 1.5589532
8.090456 -1.0358014 1.5367625
8.0332098 -0.72751004 1.4364982
7.9761972 -0.42803127 1.344275
7.9276738 -0.13432972 1.2580702
8.0831747 -1.0355861 1.2263474
7.5700436 -0.6894275 1.0677621
7.5089283 -0.40689906 0.98361117
7.4462614 -0.13280252 0.90308636
7.6255131 -0.97830498 0.86927879
7.559267 -0.68857908 0.78454238
7.5068054 -0.40980637 0.70536357
7.4661574 -0.1368072 0.63073111
7.6200728 -0.97882372 0.58602494
7.5616479 -0.69119132 0.50580221
7.5243688 -0.41260919 0.43120527
7.4922323 -0.13977037 0.35626996
7.6329775 -0.98291904 0.30385664
7.5856252 -0.69712114 0.22794779
7.5518451 -0.41794983 0.1555253
7.5021892 -0.14309974 0.081854321
7.6447072 -0.98551458 0.021928357
7.6025281 -0.70148468 -0.052102648
7.5263386 -0.41956881 -0.12131187
7.4971185 -0.14575188 -0.19229624
7.6507425 -0.99036539 -0.2613107
7.5943379 -0.70353621 -0.33019504
7.5434799 -0.42514691 -0.39940247
7.4989643 -0.14762081 -0.46794364
7.6414046 -0.99430996 -0.54397959
7.620481 -0.70998257 -0.61309582
7.5595927 -0.42724624 -0.67854965
7.5334239 -0.15053526 -0.74836701
7.5974393 -0.99074674 -0.82448757
7.4413843 -0.69657183 -0.87533855
6.7491903 -0.38321725 -0.85567248
7.410676 -0.14989397 -1.0123129
5.4312301 -0.71279299 -0.79365808
5.1134901 -0.48154381 -0.79318494
4.8981304 -0.2800014 -0.80666262
4.6665783 -0.09512309 -0.81402987
4.4099708 -0.58220851 -0.81343526
4.2984052 -0.40682983 -0.83175415
4.0577869 -0.23445016 -0.82280666
3.8244324 -0.07915885 -0.81447798
3.6339364 -0.48330534 -0.81298673
3.5680435 -0.33933723 -0.83003479
3.3633721 -0.19468176 -0.81423819
3.1970062 -0.065055832 -0.80729377
3.1259477 -0.4187426 -0.82504934
2.9653697 -0.28426597 -0.80953401
2.9005101 -0.16865186 -0.82034081
2.687995 -0.054604098 -0.789244
6.117497 -0.82682586 1.9071224
6.3644552 -0.61331081 1.89907
6.6355109 -0.38600725 1.9037848
6.8965468 -0.14341591 1.9040521
7.0895624 -0.95367235 1.9099296
7.4682345 -0.72164989 1.9208657
7.8104444 -0.4602384 1.9236394
7.9300213 -0.1743232 1.8683078
8.0951204 -1.0887939 1.8549775
8.0276842 -0.7745778 1.7469492
7.9879146 -0.47377384 1.6534837
7.941874 -0.18026967 1.561847
8.1102457 -1.0889549 1.5417616
8.0354548 -0.77745086 1.4377255
7.9872017 -0.4777886 1.3465985
7.9336119 -0.18313003 1.2591672
8.0982304 -1.0880611 1.2296213
7.5893254 -0.73816419 1.0711006
7.5132189 -0.45338339 0.98451906
7.4671397 -0.17901285 0.90573472
7.6380777 -1.0275931 0.87141347
7.5539098 -0.73485261 0.78443956
7.5190568 -0.45676509 0.70676476
7.4701581 -0.18273796 0.63115197
7.622817 -1.0267591 0.58670944
7.57514 -0.73932028 0.5069986
7.5296674 -0.45925632 0.43166229
7.4982238 -0.18591252 0.35660237
7.6268029 -1.0297356 0.30385664
7.5752358 -0.74306709 0.22776833
7.54814 -0.46421781 0.15550472
7.5131655 -0.18943207 0.08198522
7.6484261 -1.0337425 0.021956807
7.5901194 -0.74733579 -0.052048057
7.5326042 -0.46629763 -0.1214567
7.537056 -0.19279869 -0.19334731
7.6534348 -1.0385002 -0.26161537
7.6177163 -0.75287223 -0.33140615
7.5427227 -0.47154942 -0.39950803
7.5328379 -0.19453262 -0.47012299
7.6638222 -1.0450866 -0.5460217
7.6308599 -0.75820595 -0.61429358
7.5667696 -0.47424603 -0.67944229
7.5691648 -0.19771807 -0.75202382
7.5862913 -1.036672 -0.82395256
7.2659941 -0.72515452 -0.85521442
6.7219591 -0.42306441 -0.85253316
7.3977313 -0.19504882 -1.010689
7.6102018 -1.0462993 -1.1129854
5.1104393 -0.51291054 -0.79318494
4.9800262 -0.31535104 -0.82045311
4.6639371 -0.12370264 -0.81368625
7.5712233 -1.0468651 -1.3976983
4.2821503 -0.43181741 -0.82910585
3.984869 -0.25477859 -0.80832273
3.8004091 -0.10199388 -0.80947989
3.6425061 -0.50720942 -0.81558484
3.5310009 -0.35768926 -0.82191271
3.3310735 -0.21332747 -0.80672073
3.2023623 -0.084825106 -0.80876249
3.1156549 -0.4368405 -0.82302463
2.9683697 -0.30294567 -0.81084526
2.8101044 -0.18070245 -0.79507029
2.7988737 -0.074039616 -0.82191795
6.1217685 -0.86568433 1.9100741
6.3605723 -0.65235084 1.89907
6.6637168 -0.42868966 1.912596
6.8415751 -0.18427618 1.8891518
7.0998421 -0.99944472 1.914315
7.4781208 -0.76894689 1.9245858
7.8510799 -0.51099187 1.9343833
7.9326954 -0.22308709 1.869225
8.1191874 -1.1427934 1.8620642
8.0538912 -0.82701474 1.7537235
7.9887657 -0.52303374 1.6542931
7.951407 -0.22930783 1.563969
8.1209278 -1.1411594 1.5450943
8.0452223 -0.82825309 1.4403554
8.0008478 -0.52789187 1.3494198
7.9530706 -0.23241214 1.2624581
8.1080484 -1.1400712 1.2321512
7.6605 -0.79256469 1.0818117
7.5122738 -0.4996067 0.9847784
7.4778085 -0.22518557 0.9071793
7.6463885 -1.0765181 0.87309879
7.5828991 -0.78466976 0.78793508
7.5429344 -0.50468719 0.70928693
7.4838362 -0.22902775 0.6324144
7.6331582 -1.0758783 0.58800244
7.5962648 -0.7884649 0.50872666
7.547626 -0.50685364 0.43286198
7.5169096 -0.23253496 0.35755217
7.6371608 -1.0788895 0.30452731
7.5844522 -0.79098541 0.22818707
7.5441523 -0.51045609 0.15548417
7.5138602 -0.23559108 0.082007036
7.6508503 -1.081913 0.021982411
7.5953369 -0.79493475 -0.052116301
7.5555377 -0.51427346 -0.12187507
7.5407271 -0.23920004 -0.19347548
7.6676984 -1.0883909 -0.26232627
7.6099725 -0.79928643 -0.33127639
7.5815301 -0.52069557 -0.40172517
7.5394831 -0.24100469 -0.47062117
7.6740537 -1.0944856 -0.54721886
7.6349854 -0.80595553 -0.61501223
7.5766349 -0.52155513 -0.68060267
7.5717874 -0.24428622 -0.75241917
7.5748668 -1.0824978 -0.82341766
7.5172167 -0.79684049 -0.88534242
6.9844823 -0.48263016 -0.88618737
7.3161831 -0.2378293 -0.99972832
7.6320467 -1.0970585 -1.1171436
5.1160407 -0.54520047 -0.79455864
4.8519974 -0.3371467 -0.79968631
4.6453676 -0.15173879 -0.81059372
4.3547888 -0.62938708 -0.80462092
4.2022867 -0.44982746 -0.8141619
3.9450996 -0.27655151 -0.80058473
3.8290381 -0.126278 -0.81572753
3.592952 -0.52280217 -0.80519241
3.3940995 -0.36487418 -0.79055232
3.3258231 -0.23349023 -0.80578101
3.3132238 -0.10810915 -0.83691251
3.1081297 -0.45524859 -0.82175928
2.9654956 -0.32104966 -0.81058294
2.9020622 -0.20450351 -0.82142776
2.7523346 -0.089711383 -0.80839771
6.1021638 -0.90113676 1.9056466
6.3469195 -0.69032973 1.8962228
6.6647968 -0.46983981 1.9136974
6.8807797 -0.22759022 1.900327
7.1031346 -1.0443951 1.9168946
7.4578533 -0.81313729 1.9206177
7.8439226 -0.55887949 1.9334284
7.9409041 -0.27209029 1.8715175
8.1081638 -1.192023 1.8611785
8.0583811 -0.8774749 1.7558407
7.9912672 -0.57246196 1.6555073
7.9753466 -0.27898431 1.5689849
8.1166897 -1.1913952 1.5456498
8.0507545 -0.87877727 1.4422841
8.0053263 -0.57754183 1.3507473
7.9672871 -0.28176537 1.2649654
8.1214466 -1.1928173 1.2352761
7.7490082 -0.84980929 1.0950265
