# .PCD v0.7 - Point Cloud Data file format
VERSION 0.7
FIELDS x y z
SIZE 4 4 4
TYPE F F F
COUNT 1 1 1
WIDTH 1535
HEIGHT 1
VIEWPOINT 0 0 0 1 0 0 0
POINTS 1535
DATA ascii
0 -0 -0
0.17765501 -1.2553363 -0.089501366
0.21931764 -1.2255424 -0.099733874
0 -0 -0
0 -0 -0
0.17352737 -1.2286427 -0.13352717
0.20856886 -1.1684182 -0.13900724
0 -0 -0
0 -0 -0
0.17213523 -1.2260479 -0.17937963
0.19580483 -1.1004658 -0.17261732
0.19721687 -0.91239542 -0.15348005
0 -0 -0
0.15424527 -1.1047865 -0.2039884
0.18408322 -1.0374221 -0.20297298
0.18955605 -0.87955523 -0.18214045
0.20245267 -0.79523921 -0.17472437
0.15149496 -1.092746 -0.24465378
0.17741357 -1.0024787 -0.23576689
0.19547044 -0.90745986 -0.22435011
0 -0 -0
0.12693563 -0.92198485 -0.24346548
0.16745487 -0.95036268 -0.26223969
0.17386581 -0.80818951 -0.23341264
0.20270287 -0.79494518 -0.24082927
0.16072063 -1.177655 0.36719707
0.19772315 -1.125428 0.33938402
0.25250083 -1.1738684 0.34391484
0.69273716 -2.7221944 0.77535045
0.16655199 -1.2146865 0.32735017
0.20621319 -1.1755586 0.30555281
0.25783122 -1.20304 0.30250108
0 -0 0
0.16653724 -1.2144214 0.2783795
0.20871173 -1.1888266 0.26144961
0.25156143 -1.1759888 0.2484981
0.45729381 -1.8114029 0.36731181
0.16636425 -1.2111183 0.23032922
0.21027035 -1.1995482 0.21688615
0.25744751 -1.2064898 0.20761581
0.4914524 -1.949864 0.31906211
0.16810693 -1.2245976 0.18601313
0.21856351 -1.2505807 0.1783313
0.25802121 -1.212288 0.16211945
0.63487953 -2.5284135 0.31611636
0.16573933 -1.2089164 0.13797005
0.21232614 -1.2150166 0.12748428
0.25797194 -1.2144507 0.11648634
0.68131244 -2.7189577 0.23675564
0.16977425 -1.2397946 0.095452473
0.21191652 -1.2149234 0.082151316
0.2509248 -1.1826968 0.069182515
0.67721379 -2.7064068 0.13263956
0.16893303 -1.2365415 0.049275119
0.20929848 -1.2033879 0.036550608
0.26206788 -1.238305 0.0260271
0.68164986 -2.7289891 0.030684464
0.17010815 -1.2464408 0.0035788626
0.20962998 -1.2079161 -0.0083664507
0.2543602 -1.2042714 -0.019808318
0.68095016 -2.730444 -0.072165564
0.17245544 -1.2685975 -0.04336559
0.21155339 -1.2216567 -0.053677242
0.24363244 -1.1569756 -0.06250231
0 -0 -0
0.16526912 -1.2218047 -0.087036736
0.20619789 -1.1944499 -0.097098798
0 -0 -0
0 -0 -0
0.16771431 -1.2424935 -0.13491809
0.20544042 -1.1931674 -0.14179903
0 -0 -0
0 -0 -0
0.16645126 -1.2408134 -0.18138708
0.19055319 -1.110413 -0.17399095
0 -0 -0
0.20637096 -0.83083153 -0.1493018
0.15227494 -1.1417891 -0.2106441
0.17589238 -1.0278853 -0.20089217
0.18636228 -0.89125484 -0.18432297
0.20251447 -0.81640184 -0.17909768
0.14747788 -1.1139796 -0.24920045
0.16355658 -0.95841271 -0.22516301
0 -0 -0
0 -0 -0
0.1274533 -0.96974689 -0.25586653
0.16162039 -0.95137227 -0.26223969
0.17106651 -0.81960392 -0.23640165
0.19157438 -0.77103168 -0.23322415
0.15904398 -1.2212539 0.3804799
0.20201945 -1.1927806 0.35931429
0.25000677 -1.1979812 0.35052326
0 -0 0
0.15759124 -1.2041898 0.32425469
0.19996534 -1.1825328 0.30704087
0.24827029 -1.1941411 0.29987478
0.33338222 -1.351395 0.32785374
0.16148713 -1.2337918 0.28258729
0.19961935 -1.179485 0.25912091
0.25468767 -1.2273723 0.25902084
0.41664466 -1.6941191 0.34300444
0.16250703 -1.2393987 0.23551348
0.20503847 -1.2134355 0.21916544
0.24424347 -1.1800424 0.20280297
0.4740625 -1.9307823 0.31545779
0.1618745 -1.2354109 0.18750125
0.20726705 -1.2304149 0.17527102
0.24917464 -1.2070509 0.16121158
0.66699612 -2.7270508 0.34043297
0.1592209 -1.2168075 0.13875653
0.20784082 -1.2339525 0.12933485
0.24549298 -1.1916319 0.114151
0.66627026 -2.7298632 0.23734479
0.16332674 -1.2497113 0.096136987
0.20313455 -1.2083288 0.081619591
0.24527286 -1.1920372 0.069639541
0.6631965 -2.7211864 0.13316195
0.1628927 -1.2494447 0.049748536
0.20306732 -1.2115501 0.036759984
0.24984188 -1.217364 0.025554253
0.65969223 -2.711745 0.030444484
0.16323178 -1.2534108 0.0035959322
0.20716254 -1.2387681 -0.0085711759
0.24536116 -1.1979731 -0.019679589
0.66300392 -2.7297137 -0.072037384
0.16351132 -1.2607117 -0.043060914
0.20224476 -1.2120919 -0.053201456
0.24372055 -1.1936719 -0.064402722
0 -0 -0
0.15840739 -1.2277424 -0.087388828
0.20573369 -1.236991 -0.10045253
0 -0 -0
0 -0 -0
0.16288033 -1.2651939 -0.13727194
0.19535251 -1.1777484 -0.13982151
0.2020203 -0.99155515 -0.12808718
0 -0 -0
0.16122028 -1.260463 -0.18411146
0.18019044 -1.0901099 -0.17063321
0 -0 -0
0 -0 -0
0.15097263 -1.1875904 -0.21891876
0.17309511 -1.0502605 -0.20505379
0 -0 -0
0.19382688 -0.8024174 -0.17576563
0.1493153 -1.1836344 -0.2645725
0.16225447 -0.98727655 -0.23170583
0.19358402 -0.95551795 -0.23562634
0 -0 -0
0.13351852 -1.0665058 -0.28117478
0.15687032 -0.95901257 -0.2640754
0.17748493 -0.87723392 -0.25270522
0.18548588 -0.76659703 -0.23153411
0.15237051 -1.228844 0.38254613
0.19114852 -1.172237 0.35276577
0.24512935 -1.211742 0.35410285
0.29977536 -1.241558 0.35255298
0.15258931 -1.2243088 0.32941386
0.19628584 -1.2057294 0.31274518
0.24017119 -1.1918343 0.29891977
0.33667785 -1.4016838 0.33954644
0.156688 -1.2570162 0.28768095
0.1985081 -1.2183074 0.2673772
0.23962143 -1.1914685 0.25112879
0.38179427 -1.5945398 0.32236242
0.15429029 -1.2354968 0.23458771
0.1933212 -1.1884339 0.21443148
0.23971349 -1.1950551 0.20512642
0.34831959 -1.4572053 0.2377295
0.15453602 -1.2383434 0.18779887
0.19479987 -1.2013606 0.17095879
0.24468113 -1.2231414 0.16315702
0 -0 0
0.15371773 -1.2335382 0.14055417
0.19771843 -1.2194946 0.1276899
0.24363405 -1.220454 0.11676657
0.47768748 -2.0106766 0.17455783
0.15528615 -1.2477214 0.095908813
0.19874476 -1.2282672 0.082882442
0.23990607 -1.2033107 0.070210822
0.65340388 -2.7543614 0.13458665
0.15596177 -1.2563704 0.049985249
0.19849476 -1.2305356 0.037298374
0.24158764 -1.2149518 0.025472021
1.7316715 -7.313334 0.08198522
0.15344605 -1.2375181 0.0035475693
0.19955771 -1.2400159 -0.0085711759
0.23839512 -1.2014176 -0.01971177
1.209002 -5.1143136 -0.13476887
0.15944654 -1.2914481 -0.044076502
0.20034692 -1.2478352 -0.05471532
0.23503537 -1.1882875 -0.064033195
0 -0 -0
0.15463986 -1.2593838 -0.089571789
0.19483222 -1.2175603 -0.09877567
0.19909255 -1.0073998 -0.092026398
0 -0 -0
0.15378428 -1.2553138 -0.13609502
0.19078295 -1.1955986 -0.14179903
0.21091549 -1.0686942 -0.13788207
0.20877998 -0.88628846 -0.1243571
0.15336367 -1.2604462 -0.18396808
0.17846423 -1.1224279 -0.17551719
0.20555983 -1.043667 -0.17489588
0.19954582 -0.84768528 -0.15187894
0.14427319 -1.1933773 -0.21981817
0.17295064 -1.0910661 -0.2128095
0.19618109 -0.99926823 -0.20614807
0.19650939 -0.83596373 -0.18284623
0.1429798 -1.192283 -0.26630455
0.1644063 -1.0402163 -0.243889
0.19988258 -1.0186865 -0.25089628
0 -0 -0
0.11988629 -1.0077434 -0.26548365
0.14768444 -0.93898475 -0.25830612
0.17117372 -0.87358433 -0.25134659
0.17989895 -0.7639848 -0.23040742
0.14639209 -1.2430403 0.38667858
0.18499149 -1.1800171 0.3547588
0.23473239 -1.1981288 0.34969723
0 -0 0
0.14734633 -1.2444111 0.33457303
0.1866371 -1.1925545 0.30902499
0.23136583 -1.1856607 0.29700974
0.33715326 -1.4425839 0.34894645
0.14656383 -1.2376176 0.28303024
0.19133148 -1.2214338 0.26780063
0.22968552 -1.1794589 0.24829575
0.37912712 -1.6274323 0.32853574
0.14855917 -1.2520341 0.23755015
0.18754652 -1.1993246 0.21618481
0.23200025 -1.1945674 0.2047945
0.29910353 -1.2861598 0.20952164
0.14681834 -1.2382863 0.18765005
0.19016983 -1.2201456 0.17346266
0.23585176 -1.2178055 0.16224915
0 -0 0
0.14941704 -1.2620879 0.14370008
0.1890067 -1.2128221 0.12686743
0.22952895 -1.1877121 0.11349711
0 -0 0
0.14832978 -1.2545921 0.096365161
0.18982452 -1.22059 0.082284249
0.2317614 -1.2008389 0.069982305
0.26861095 -1.1640612 0.056798037
0.14813286 -1.2563113 0.049945794
0.18772508 -1.2109876 0.036670253
0.23167174 -1.2036482 0.025204759
1.6759928 -7.2770491 0.081461631
0.15076223 -1.2801478 0.003667054
0.19270948 -1.2461581 -0.0086052967
0.23252758 -1.2107131 -0.019840501
1.1677421 -5.0787687 -0.13364089
0.15070474 -1.2854538 -0.043839533
0.19085869 -1.2371923 -0.054196279
0.23280898 -1.2161888 -0.065458499
0.25379026 -1.1050262 -0.070736386
0.14852645 -1.2741802 -0.090557635
0.19144718 -1.245334 -0.10093164
0.22378023 -1.1700181 -0.1067542
0 -0 -0
0.14653829 -1.2601842 -0.13652298
0.18434621 -1.2026372 -0.14249696
0.22352397 -1.1703387 -0.15081637
0 -0 -0
0.14698888 -1.2731611 -0.18568875
0.17142458 -1.1225249 -0.17536455
0.19970638 -1.0478165 -0.17538261
0 -0 -0
0.14187908 -1.2372406 -0.22773308
0.17260729 -1.1338496 -0.22094357
0.18455863 -0.9715662 -0.20019577
0.19203022 -0.84001422 -0.18347101
0.13213199 -1.1620969 -0.25937632
0.16606045 -1.0941807 -0.25629777
0.19344696 -1.0189388 -0.25066134
0 -0 -0
0.12638222 -1.1209384 -0.29509431
0.14408137 -0.95418596 -0.26223969
0.16742356 -0.88312793 -0.25379208
0.17542204 -0.76600963 -0.23068911
0.13939774 -1.2496125 0.38844964
0.18088596 -1.2019846 0.36102259
0.22522794 -1.1882123 0.34639299
0.27893397 -1.2207102 0.34563494
0.13830768 -1.23281 0.33121955
0.17730144 -1.1802652 0.30555281
0.22318572 -1.1822869 0.29581597
0.28537107 -1.2557421 0.30332205
0.14027204 -1.2501225 0.2856878
0.18165344 -1.2080876 0.2646251
0.22752032 -1.2077926 0.25396183
0.3184135 -1.4057959 0.28339344
0.14296024 -1.2714766 0.24106804
0.17974567 -1.1975319 0.21565881
0.22666883 -1.2066294 0.20662004
0.30645257 -1.3554038 0.22049136
0.14076324 -1.2529215 0.18973342
0.18370503 -1.2281451 0.17443639
0.23348652 -1.2465186 0.16588062
0.27716026 -1.2309401 0.15300223
0.14089485 -1.2560687 0.14291361
0.18685818 -1.2493743 0.13056858
0.2275414 -1.2174798 0.1162061
0 -0 0
0.14196087 -1.2673694 0.097277857
0.18365707 -1.2306136 0.082882442
0.22585423 -1.2100898 0.070439339
0.26364949 -1.175434 0.057272937
0.14141977 -1.2661341 0.050300863
0.18073224 -1.2150826 0.036759984
0.2255625 -1.2119274 0.025348669
0.24334221 -1.0870295 0.012151615
0.14279369 -1.280055 0.0036642095
0.1822712 -1.2285234 -0.008475638
0.2272851 -1.2239139 -0.020033596
0.26577085 -1.1892647 -0.03125038
0.14292479 -1.2873476 -0.043873381
0.18092369 -1.2225274 -0.053504232
0.22588739 -1.2205402 -0.065616868
0.23048016 -1.0325321 -0.066004023
0.13961129 -1.2651526 -0.089853458
0.17856748 -1.2109841 -0.098057002
0.21098278 -1.1410075 -0.10398716
0 -0 -0
0.13999976 -1.2719308 -0.1376999
0.17681904 -1.2027631 -0.14238064
0.2192208 -1.1872976 -0.15282556
0 -0 -0
0.14067873 -1.2878124 -0.18769619
0.17541666 -1.1978725 -0.18696395
0.19363092 -1.050963 -0.17570709
0 -0 -0
0.13608804 -1.2547131 -0.23079112
0.1618177 -1.1086527 -0.21583612
0.19027577 -1.0363046 -0.21329084
0.18687238 -0.84117669 -0.18347101
0.13073769 -1.2162737 -0.27128425
0.16144757 -1.10964 -0.259682
0.185086 -1.008634 -0.24784228
0 -0 -0
0.1249338 -1.1726789 -0.30850771
0 -0 -0
0.16963342 -0.92578971 -0.26574805
0.17488754 -0.78580344 -0.23632254
0.13062657 -1.2399923 0.38520271
0.17254946 -1.1964303 0.35902956
0.2153344 -1.1753877 0.34226272
0.26934898 -1.2129884 0.34297416
0.13298081 -1.2547727 0.33689469
0.1746112 -1.2129737 0.31373727
0.21662423 -1.1874553 0.29677096
0.26842624 -1.2156489 0.29323423
0.13414064 -1.2655058 0.28900975
0.17730393 -1.2304611 0.26928252
0.2227359 -1.2236181 0.25699723
0 -0 0
0.13432546 -1.2645122 0.23958682
0.17533769 -1.2190765 0.21934079
0.22066973 -1.2157598 0.20794773
0 -0 0
0.13422088 -1.2645782 0.19137031
0.17616582 -1.2292492 0.17443639
0.22159594 -1.224511 0.16276793
0.2668446 -1.2200102 0.1514373
0.13527919 -1.2766722 0.14516068
0 -0 0
0 -0 0
0.2549257 -1.1682519 0.10099778
0.13575545 -1.2830901 0.09841872
0 -0 0
0 -0 0
0 -0 0
0.13731702 -1.3017577 0.051681668
0 -0 0
0 -0 0
0 -0 0
0.14048925 -1.3336152 0.0038149881
0 -0 -0
0 -0 -0
0 -0 -0
0.13866955 -1.3229897 -0.045058236
0 -0 -0
0 -0 -0
0 -0 -0
0.13566895 -1.302695 -0.092458926
0 -0 -0
0 -0 -0
0 -0 -0
0.13486327 -1.2984784 -0.14048173
0 -0 -0
0.21053843 -1.180807 -0.15182097
0 -0 -0
0.13419427 -1.3024337 -0.18970364
0.16929811 -1.2077348 -0.18833756
0.19167235 -1.0773903 -0.17992537
0.19389489 -0.89743447 -0.16012576
0.1292873 -1.2643317 -0.23241007
0.1605822 -1.1494974 -0.22359185
0.19571823 -1.1040426 -0.22698113
0.1914013 -0.88724327 -0.1932589
0.12474804 -1.2316226 -0.27453184
0.14845584 -1.066224 -0.24930373
0.18092845 -1.0212359 -0.25066134
0.18635929 -0.86241037 -0.22275238
0.11696335 -1.1657225 -0.30648306
0 -0 -0
0 -0 -0
0.17634624 -0.81593531 -0.24505436
0.12461817 -1.2569337 0.39022067
0.16834933 -1.2202574 0.36586282
0.21263899 -1.2022465 0.34969723
0.26047888 -1.2080222 0.34111163
0.12527916 -1.2555649 0.33689469
0.17139392 -1.2447326 0.32167369
0.20714474 -1.1763294 0.29366717
0.25361681 -1.1830105 0.28498057
0.12685731 -1.2711568 0.29011706
0.16961716 -1.2305576 0.2690708
0.21234277 -1.2085646 0.25355709
0.2537843 -1.1879386 0.23882985
0.12754211 -1.2750908 0.24143833
0.16691504 -1.2133021 0.21811347
0.21065348 -1.2025207 0.20545833
0.25086871 -1.1765018 0.19087312
0.12675406 -1.26833 0.19181675
0.16660298 -1.2155905 0.17234983
0.22175443 -1.2698022 0.16860422
0.25914758 -1.2206535 0.15131693
0.12675266 -1.270557 0.14437421
0.16908148 -1.2338344 0.128718
0.21138771 -1.2133145 0.11555221
0.25807565 -1.2185354 0.10520601
0.12718822 -1.2769536 0.097886316
0.16813624 -1.2298089 0.082683042
0.21406767 -1.2304749 0.071467645
0.2603637 -1.2313532 0.059837397
0.12774743 -1.2866664 0.051050439
0.16985507 -1.2469212 0.037657298
0.21135676 -1.2185446 0.025430905
0.25537759 -1.2102766 0.013493311
0.13161308 -1.3274863 0.0037950741
0.16852768 -1.2405764 -0.0085438797
0.21531734 -1.2443449 -0.020323237
0.25362915 -1.204175 -0.031558014
0.12858756 -1.3039236 -0.044381179
0.16791959 -1.2395059 -0.054153029
0.21309811 -1.2360134 -0.066303127
0.25744665 -1.2237822 -0.078021735
0.12640911 -1.2905971 -0.091543496
0.17102495 -1.2674162 -0.10244881
0.20879976 -1.2122194 -0.11023531
0 -0 -0
0.12457396 -1.2755321 -0.1379139
0.16495857 -1.226498 -0.14493977
0.20530692 -1.1938094 -0.15332788
0 -0 -0
0.12505549 -1.291412 -0.18798298
0.15886711 -1.1862215 -0.18482722
0.18722731 -1.091189 -0.18203449
0.18717191 -0.89282227 -0.15909491
0.12021023 -1.2513927 -0.2298917
0.15053859 -1.1280748 -0.21924108
0.18629774 -1.0897651 -0.22380657
0.18435062 -0.88074231 -0.19159287
0.11663409 -1.2265335 -0.27323282
0.15757881 -1.1849321 -0.27682871
0.17269456 -1.0108293 -0.24784228
0.18942092 -0.90339321 -0.23303325
0.10772286 -1.1442649 -0.30066216
0.12118079 -0.91649604 -0.25122565
0.15939252 -0.9344424 -0.26765013
0.17153338 -0.81794107 -0.24533603
0.11407369 -1.2272317 0.38077509
0.15885589 -1.2060609 0.36130732
0.20234896 -1.1864707 0.3447409
0.25069296 -1.1982756 0.3379187
0.1172127 -1.2524621 0.33586285
0.15920797 -1.2111831 0.31274518
0.20642459 -1.2158735 0.30321735
0.24892972 -1.1969329 0.28796107
0.11805554 -1.2612309 0.28768095
0.16155338 -1.2276993 0.26822403
0.20901182 -1.2339839 0.25861612
0.24848151 -1.1990813 0.240759
0.11944049 -1.2729143 0.2408829
0.15921085 -1.2123512 0.21776281
0.20146488 -1.1930946 0.20363279
0.24704573 -1.1944609 0.19353719
0.1179541 -1.2582538 0.19017984
0.16183844 -1.23721 0.17527102
0.21247762 -1.2623388 0.16743696
0.24925049 -1.2105526 0.14987236
0.11839885 -1.2653747 0.14370008
0.16047563 -1.2269583 0.12789552
0.20921466 -1.246009 0.11854143
0.2612192 -1.2718282 0.10966676
0.11935058 -1.27771 0.097886316
0.16291071 -1.2486267 0.083879419
0.20535804 -1.2248729 0.07106775
0.24718551 -1.2055291 0.058507677
0.12003542 -1.2894158 0.051129341
0.16078374 -1.2370365 0.037328281
0.20239258 -1.2109435 0.025245875
0.24975064 -1.2206376 0.013591482
0.12392806 -1.3332474 0.0038092984
0.16129805 -1.2445621 -0.0085643521
0.20537609 -1.2318351 -0.020097962
0.24563561 -1.2027702 -0.031481106
0.12003253 -1.2987169 -0.044178061
0.160439 -1.2415036 -0.054196279
0.20420107 -1.2294168 -0.065880813
0.23936103 -1.1735089 -0.074721538
0.11848778 -1.2913483 -0.091543496
0.16349947 -1.2704191 -0.10260852
0.20575997 -1.2400073 -0.11264532
0.1993819 -0.97898757 -0.099228799
0.11756024 -1.2851837 -0.13887684
0.16008313 -1.248175 -0.14738257
0.20041014 -1.2097278 -0.15521151
0 -0 -0
0.11721852 -1.2931405 -0.18812636
0.1573436 -1.2322689 -0.19184791
0.18471172 -1.1176294 -0.18625274
0 -0 -0
0.11288176 -1.2560256 -0.23061123
0.15687262 -1.2332054 -0.23948163
0.18549895 -1.1266704 -0.23114775
0 -0 -0
0.10936539 -1.2301434 -0.27388236
0.1525102 -1.2032733 -0.28088972
0.16285937 -0.98981023 -0.24243908
0.19024804 -0.9358933 -0.2411111
0.10417509 -1.1844171 -0.31103855
0.12520468 -0.99381715 -0.27220485
0.15599582 -0.94964743 -0.27172601
0.17071716 -0.83966422 -0.25153282
0.10521994 -1.2126787 0.37605229
0.15336221 -1.2222314 0.36586282
0.19771375 -1.2038168 0.34942186
0.24333577 -1.1997912 0.3379187
0.10935729 -1.2512329 0.33534691
0.15550444 -1.241936 0.32043362
0.1991169 -1.2180755 0.30345607
0.23984973 -1.1898503 0.28589764
0.11133363 -1.2735893 0.29033855
0.15231547 -1.215091 0.26526022
0.20411581 -1.2516743 0.26205623
0.2415058 -1.2025074 0.24114484
0.10982595 -1.253065 0.2369947
0.15506832 -1.2396815 0.22249678
0.1969884 -1.2118287 0.20662004
0.24437039 -1.2191955 0.19729824
0.11014512 -1.2579688 0.19003102
0.15510093 -1.2450585 0.17624474
0.20377658 -1.2577461 0.1666588
0.23521413 -1.1789588 0.14577948
0.11063243 -1.2660774 0.14370008
0.1550342 -1.2447 0.12964329
0.19616486 -1.2138515 0.11536537
0.24018568 -1.2069514 0.10394354
0.11168174 -1.2804049 0.098038428
0.15770654 -1.2694063 0.085208729
0.19895174 -1.2330092 0.071467645
0.24192478 -1.2178 0.059030063
0.11177541 -1.2861463 0.050971538
0.15294491 -1.2360158 0.037268464
0.19622865 -1.2200593 0.025410345
0.23972869 -1.2093959 0.013449677
0.11418913 -1.3160502 0.0037580905
0.15512776 -1.2574378 -0.0086462423
0.1986057 -1.2380084 -0.020178417
0.23650479 -1.1954288 -0.03125038
0.11154627 -1.2934545 -0.04397494
0.15355003 -1.2484143 -0.054455798
0.19665368 -1.2306466 -0.065880813
0.24202263 -1.2248911 -0.077897206
0.10988161 -1.2840999 -0.09098015
0.15315671 -1.2506206 -0.10093164
0.19673444 -1.2323945 -0.11184198
0.19683802 -0.99776566 -0.1010078
0.10908083 -1.278946 -0.13812788
0.15627109 -1.2806826 -0.15110494
0.19189067 -1.2040766 -0.15433249
0.19516975 -0.99058396 -0.13788889
0.10869869 -1.2869323 -0.18712263
0.15383089 -1.2665676 -0.1970371
0.177076 -1.1138692 -0.18544154
0.19979654 -1.0149077 -0.18039919
0.10180925 -1.2165039 -0.22323598
0.14824146 -1.2253712 -0.23777916
0.17704946 -1.1181067 -0.22916366
0 -0 -0
0.10181531 -1.2307913 -0.27388236
0.14360884 -1.1916127 -0.27795675
0.15435219 -0.97542971 -0.23868033
0.19574063 -0.99412179 -0.25579807
0.097851872 -1.1966046 -0.31407553
0.13023455 -1.0875078 -0.29764208
0.15046629 -0.95248801 -0.27226949
0.15981448 -0.81151164 -0.24280098
0.099849306 -1.2390151 0.38402203
0.14574635 -1.2221975 0.36557809
0.19137339 -1.2116542 0.35134932
0.23522618 -1.1974782 0.33685437
0.10191245 -1.2547692 0.33612081
0.14925463 -1.2544103 0.32340977
0.19314696 -1.2288674 0.30584362
0.23123904 -1.1846123 0.28429276
0.10430654 -1.2839681 0.29255319
0.14763154 -1.2392941 0.27034101
0.19127455 -1.2200084 0.25517598
0.23861799 -1.2270828 0.24577482
0.10213522 -1.2537153 0.2369947
0.14908569 -1.2542964 0.22495143
0.19000579 -1.2159375 0.20711793
0.23124035 -1.1915853 0.19259694
0.10346699 -1.2714338 0.19196557
0.14932062 -1.2617214 0.1784704
0.19315648 -1.2403575 0.16419458
0.23381163 -1.2105961 0.14951125
0.10302269 -1.2687131 0.14392479
0.1486797 -1.2564938 0.1307742
0.19024116 -1.2248704 0.1162995
0.2344718 -1.2172086 0.10470103
0.10325941 -1.2741092 0.097506031
0.14722507 -1.2475591 0.083680019
0.19260626 -1.2420994 0.071924672
0.23463657 -1.2202425 0.059077557
0.10388166 -1.2868079 0.050971538
0.14944106 -1.2716762 0.038315326
0.19087663 -1.2350732 0.025698163
0.23249188 -1.2118261 0.013460586
0.10522825 -1.3057616 0.0037267967
0.14822376 -1.2653183 -0.0086940117
0.19085337 -1.2382154 -0.020162325
0.23029329 -1.2027484 -0.031404197
0.10344816 -1.2921222 -0.043907236
0.14959502 -1.2810872 -0.0558399
0.19015953 -1.2387395 -0.066250347
0.22944111 -1.199885 -0.076215968
0.10097413 -1.2718229 -0.090064712
0.14858773 -1.2782706 -0.10308761
0.18992378 -1.2385008 -0.11228827
0.21590404 -1.1309105 -0.11435032
0.10091766 -1.2756267 -0.1376999
0.14623928 -1.2628716 -0.14889479
0.18479922 -1.2071928 -0.15458363
0.22415924 -1.175711 -0.16346397
0.099641554 -1.2727754 -0.18497181
0.14616962 -1.2684695 -0.19718973
0.17664251 -1.1568789 -0.19241793
0.20278281 -1.0645009 -0.18898962
0.09320268 -1.2023945 -0.22053772
0.14094383 -1.2282089 -0.23815748
0.17637411 -1.1598692 -0.23749687
0.19058311 -1.0021716 -0.21720803
0.091802411 -1.1992697 -0.26673761
0.13109498 -1.1469793 -0.26735288
0.15727185 -1.0349784 -0.25301054
0.18673359 -0.98006499 -0.25188154
0.080516212 -1.0650198 -0.27940321
0.12595426 -1.109381 -0.30341136
0.1460624 -0.96290821 -0.27498674
0.17638648 -0.92558277 -0.27660158
0.089550652 -1.2033976 0.37280536
0.14018235 -1.2402146 0.37070301
0.18263789 -1.2042514 0.34887117
0.22841415 -1.2017399 0.33765262
0.092982247 -1.2389923 0.33173546
0.14177203 -1.2572279 0.32390583
0.18719693 -1.2405916 0.30846992
0.22577222 -1.1955733 0.28658542
0.095915325 -1.2777768 0.2910029
0.14188866 -1.2566863 0.27393991
0.18291065 -1.2153486 0.25396183
0.23126565 -1.2294883 0.24596775
0.094809555 -1.2592181 0.23792046
0.13995406 -1.2424694 0.22267212
0.1815175 -1.210254 0.20595621
0.21791194 -1.1609489 0.18742551
0.095663667 -1.2720448 0.19196557
0.14047255 -1.2527727 0.17707935
0.18788709 -1.25721 0.1662697
0.22947773 -1.2285973 0.15155768
0.09531042 -1.2703123 0.14403714
0.14008062 -1.2494743 0.12995172
0.18521692 -1.2427555 0.11788754
0.23192555 -1.2450736 0.10697348
0.094695218 -1.2647756 0.096745454
0.14023255 -1.2543887 0.084078819
0.18615668 -1.2511578 0.072381705
0.22787525 -1.2255874 0.059267513
0.095463961 -1.2804459 0.050695378
0.14108256 -1.2676021 0.038165774
0.18197505 -1.2273204 0.025513137
0.22541663 -1.2151961 0.013482402
0.096175328 -1.2924212 0.0036869682
0.14200062 -1.2801183 -0.0087895505
0.18471473 -1.2492543 -0.020323237
0.22891392 -1.2365769 -0.032250185
0.09375041 -1.2688116 -0.043094765
0.14348815 -1.2978692 -0.056531951
0.18240972 -1.2388949 -0.066197552
0.22461449 -1.2150103 -0.077087715
0.093459852 -1.2763981 -0.090346389
0.14204983 -1.2910483 -0.10404583
0.18507457 -1.2583656 -0.1139842
0.2199778 -1.1919072 -0.12037916
0.092220701 -1.2643224 -0.136416
0.1416253 -1.2923768 -0.15226819
0.18416131 -1.2544374 -0.1604857
0.21658182 -1.1751155 -0.16319335
0.091402955 -1.2674402 -0.18411146
0.13859789 -1.2713073 -0.19749497
0.17297155 -1.1813732 -0.1963117
0.20427565 -1.109323 -0.19672103
0.083023071 -1.1636961 -0.21334238
0.13382886 -1.2329553 -0.23891413
0.1658604 -1.1376529 -0.23273504
0.19344848 -1.052382 -0.22782893
0.086772479 -1.232922 -0.27409884
0.12897511 -1.1932852 -0.27795675
0.16198853 -1.1119109 -0.27156934
0.19301015 -1.0479401 -0.26901636
0.07913968 -1.1398082 -0.29889059
0.12192524 -1.1360393 -0.31049183
0.13807401 -0.94950092 -0.27091083
0.16618423 -0.90211314 -0.26927811
0.081579559 -1.1953455 0.37014881
0.13267171 -1.2420046 0.37098774
0.1753836 -1.2063007 0.34914652
0.21424304 -1.1661435 0.32727557
0.087104343 -1.2646002 0.33844241
0.13446574 -1.2619272 0.32489786
0.17777434 -1.2292229 0.30536613
0.22157748 -1.2141721 0.29071227
0.088073231 -1.2783413 0.2910029
0.13448618 -1.2604488 0.27457502
0.17908478 -1.2416493 0.25922316
0.22494555 -1.2376418 0.24731815
0.086742513 -1.2548743 0.2369947
0.13430747 -1.2619053 0.22600342
0.17577147 -1.2230581 0.20794773
0.21765777 -1.200164 0.19353719
0.08765243 -1.2696482 0.19151913
0.13507779 -1.2752761 0.18013965
0.17988838 -1.2563761 0.16601032
0.22158232 -1.2280284 0.15131693
0 -0 0
0.13607781 -1.2849312 0.13355006
0 -0 0
0 -0 0
0 -0 0
0.13525711 -1.2810245 0.085806914
0 -0 0
0 -0 0
0 -0 0
0.1381076 -1.3141716 0.039541658
0 -0 0
0 -0 0
0 -0 0
0.13914241 -1.3287033 -0.0091171106
0 -0 -0
0 -0 -0
0 -0 -0
0.13676614 -1.3106492 -0.057050988
0 -0 -0
0 -0 -0
0 -0 -0
0.13474305 -1.2978443 -0.10452493
0.17651661 -1.2535598 -0.11344865
0 -0 -0
0.085786112 -1.2847055 -0.13855585
0.13430557 -1.2991492 -0.15296613
0.17314693 -1.2319654 -0.15747187
0.21492273 -1.2076374 -0.1675235
0.083103344 -1.260077 -0.18296435
0.13079469 -1.2721338 -0.19749497
0.16749997 -1.1951159 -0.19842084
0.1938435 -1.0901872 -0.19311304
0.075497314 -1.1582938 -0.21226306
0.12826046 -1.2532903 -0.24269743
0.16686802 -1.1959213 -0.24444124
0.19997753 -1.126739 -0.24365616
0.077766813 -1.2110229 -0.26911917
0.12263824 -1.2037462 -0.28021291
0.16241102 -1.1648699 -0.28425512
0.18436947 -1.0366949 -0.26583418
0.077092551 -1.2184789 -0.31939027
0.11106881 -1.0983617 -0.30000225
0 -0 -0
0.16266231 -0.91445208 -0.27265817
0.074421138 -1.1986843 0.37103435
0.12591214 -1.2513795 0.37355018
0.1706281 -1.2263976 0.35465357
0.21331304 -1.2025542 0.33712047
0.078678042 -1.2545041 0.33560488
0.12691362 -1.2646564 0.32539389
0.17049481 -1.2322143 0.30584362
0.21479878 -1.2193433 0.29162934
0.080166765 -1.2778845 0.29078147
0.12655424 -1.2593054 0.27415162
0.17159665 -1.2436949 0.25942555
0.21446514 -1.2225691 0.2440386
0.078732364 -1.2504791 0.23606893
0.12626748 -1.2597668 0.22547741
0.16772647 -1.2202059 0.2072839
0.21590869 -1.2335811 0.19870862
0.07936395 -1.2622668 0.19032864
0.12567809 -1.2603146 0.17791398
0.17056185 -1.2456675 0.16445397
0.21625677 -1.242079 0.15288186
0.079279296 -1.2644442 0.14325067
0.12838842 -1.2877216 0.13375568
0.16752841 -1.2271783 0.1162061
0.20998196 -1.2095371 0.10369106
0.07941629 -1.269823 0.097049676
0.12640756 -1.2719014 0.085142262
0.1713282 -1.2573048 0.072610214
0.21503511 -1.2410861 0.059884883
0.079929903 -1.2845129 0.050813735
0.12856589 -1.3000737 0.039093003
0.17012797 -1.253238 0.026006542
0.21116851 -1.2218121 0.013526034
0.080370061 -1.2945023 0.0036898132
0.12843786 -1.3036579 -0.0089396816
0.16963877 -1.2534088 -0.020355422
0.20505758 -1.1890513 -0.030942746
0.077988863 -1.266874 -0.04299321
0.12784326 -1.3025151 -0.056661714
0.16799282 -1.2469782 -0.066514291
0.2134138 -1.239314 -0.078457616
0.078274488 -1.2854141 -0.090909727
0.12648654 -1.2956705 -0.10428539
0.16855593 -1.2526451 -0.11327013
0.20954928 -1.2190349 -0.12284999
0.078142315 -1.2891774 -0.13898382
0.12392987 -1.2752349 -0.15005803
0.16505629 -1.2290716 -0.15696956
0.20884968 -1.2167456 -0.16860604
0.077555589 -1.2971156 -0.18826975
0.1232717 -1.2758635 -0.19795285
0.16500925 -1.232308 -0.20442377
0.18498603 -1.0787337 -0.19087952
0.072097957 -1.2215819 -0.22377564
0.11427178 -1.1885653 -0.23002343
0.16121015 -1.2095524 -0.24702054
0.18662488 -1.0903467 -0.23553428
0.069146372 -1.1910098 -0.2645725
0.1149715 -1.2015666 -0.27953607
0.15141103 -1.1369393 -0.27720746
0.18013579 -1.0502298 -0.26901636
0.069449171 -1.2160313 -0.31863102
0.10797511 -1.1374499 -0.31049183
0 -0 -0
0.15607485 -0.90975881 -0.27096817
0.065677568 -1.1743157 0.36335981
0.11660937 -1.2349498 0.36842525
0.16170691 -1.2169389 0.3516247
0.20511761 -1.1990896 0.3357901
0.071579188 -1.2655739 0.33844241
0.11951472 -1.2692693 0.32638597
0.16458434 -1.2457526 0.30894741
0.20943175 -1.2331134 0.29460984
0.072159052 -1.2754314 0.29011706
0.11891665 -1.2610312 0.27436331
0.16281117 -1.2359861 0.2576043
0.20843199 -1.2325692 0.24577482
0.071392469 -1.2568253 0.23717983
0.11835097 -1.2585576 0.22512676
0.16100602 -1.2270786 0.20827965
0.20192774 -1.1969013 0.19259694
0.071561337 -1.2617428 0.19017984
0.11766594 -1.258104 0.17749667
0.16535655 -1.2653713 0.16691819
0.21355973 -1.2727538 0.15649325
0.070734009 -1.2510177 0.14167772
0.11900295 -1.2726392 0.13211073
0.16231048 -1.2459543 0.11788754
0.20748881 -1.2402866 0.106216
0.071005873 -1.2593358 0.09621305
0.11924905 -1.2796075 0.085607521
0.16322412 -1.2553623 0.072438829
0.20544209 -1.2305595 0.059315003
0.072214581 -1.2879721 0.050932083
0.11984827 -1.2928758 0.038853716
0.16127938 -1.2453346 0.025821514
0.20284639 -1.2181531 0.013471493
0.071308814 -1.2750024 0.0036329157
0.12181539 -1.3193575 -0.0090420451
0.16168875 -1.2524427 -0.020323237
0.20857143 -1.2553732 -0.032634728
0.071153872 -1.2842928 -0.043568708
0.11829349 -1.2863624 -0.055926409
0.16161086 -1.2578901 -0.067042179
0.20776555 -1.2524154 -0.079204828
0.070494905 -1.2878624 -0.091050565
0.11717265 -1.281532 -0.10308761
0.16289495 -1.2694623 -0.11469828
0.2041788 -1.2330602 -0.12413483
0.069581814 -1.2777191 -0.1376999
0.11547283 -1.2690475 -0.14924377
0.16444227 -1.284184 -0.16387624
0.20477399 -1.2385324 -0.17144772
0.067846023 -1.2649549 -0.18353792
0.1151738 -1.2736431 -0.19749497
0.1586944 -1.2430854 -0.20604618
0.18317986 -1.1090072 -0.19603379
0.065276206 -1.2347715 -0.22611414
0.11102355 -1.2342319 -0.23872498
0.15329136 -1.2066296 -0.24622692
0.18486293 -1.1213878 -0.24199013
0.061735969 -1.1894617 -0.26413947
0.10968085 -1.2255375 -0.28495079
0.14994004 -1.1812394 -0.28777894
0.16594423 -1.0044413 -0.25702199
0.062134139 -1.2193332 -0.31939027
0.098008357 -1.1044481 -0.30131343
0.10182831 -0.80389595 -0.22879331
0.15627781 -0.94572622 -0.28139001
0.059515834 -1.1956903 0.36985362
0.10843986 -1.2289579 0.36643225
0.15532389 -1.2264916 0.35410285
0.20089029 -1.2193482 0.34111163
0.063374691 -1.2573049 0.33612081
0.1111301 -1.2632235 0.32464984
0.15718001 -1.2486659 0.30942491
0.20484628 -1.2526267 0.29896593
0.065264851 -1.2943549 0.29432487
0.1116058 -1.266605 0.27542183
0.15595587 -1.242792 0.25881845
0.20559511 -1.2628789 0.2515623
0.064574182 -1.2749058 0.24051258
0.11114333 -1.2651445 0.22617877
0.15445209 -1.2358716 0.20960732
0.19980456 -1.2302886 0.19776838
0.065465972 -1.294749 0.19509059
0.11080577 -1.2686676 0.17888771
0.15550767 -1.2496347 0.16471337
0.20463839 -1.2671801 0.15565059
0.06470675 -1.2841777 0.14538538
0.11197071 -1.2822636 0.13303602
0.15503006 -1.2498909 0.11816778
0.19987465 -1.2415364 0.106216
0.063777611 -1.2697061 0.096973628
0.11148176 -1.281309 0.085673988
0.15465976 -1.2494045 0.072038934
0.19867982 -1.236728 0.059552453
0.063662797 -1.2754173 0.050419219
0.11070694 -1.2796452 0.038434971
0.15657082 -1.2701155 0.02631492
0.19710825 -1.2302357 0.013591482
0.06408076 -1.287401 0.003667054
0.11260195 -1.3071284 -0.0089533301
0.15534213 -1.2643278 -0.020500243
0.19991796 -1.2507066 -0.032480914
0.063124776 -1.2817105 -0.043467149
0.11022753 -1.285073 -0.0558399
0.15558596 -1.2727351 -0.067781225
0.1991332 -1.247753 -0.078831218
0.062591404 -1.2882707 -0.091050565
0.10939179 -1.2832202 -0.10316747
0.15437838 -1.264506 -0.11416272
0.19645251 -1.2333072 -0.12403601
0.061452731 -1.2721634 -0.13705795
0.10911076 -1.2865564 -0.15122128
0.15476003 -1.2703967 -0.16199259
0.19639254 -1.2348731 -0.17077114
0.059566788 -1.2544733 -0.18196063
0.1073567 -1.2743258 -0.19749497
0.15249136 -1.2557904 -0.20799306
0.18085438 -1.1383252 -0.20101625
0.057055935 -1.221392 -0.22359575
0.10213681 -1.2192335 -0.23569834
0.14917625 -1.2347928 -0.25178239
0.1795104 -1.132161 -0.24407266
0.054213308 -1.1849418 -0.26305696
0.10159283 -1.2193915 -0.28337148
0.14455298 -1.1975772 -0.2915377
0.16312569 -1.0265069 -0.26240721
0.052139577 -1.163636 -0.30471149
0.094723321 -1.1473449 -0.312852
0.10575461 -0.87807679 -0.24971621
0.14444709 -0.90876269 -0.27012312
-0 0 0
-0.66451889 2.3264918 0.71862859
-0.70665139 2.15996 0.65093249
-0.84360176 2.2861912 0.6726445
-0 0 0
-0.65684754 2.3019161 0.61284173
-0.76037198 2.3300788 0.60261464
-0.84170866 2.2894232 0.57454646
-0 0 0
-0.6605733 2.3137486 0.5212056
-0.74770755 2.2942567 0.49861512
-0.85461932 2.3296859 0.48788422
-0.56906468 2.3171654 0.44954932
-0.6653524 2.3328016 0.43201897
-0.76700085 2.3575053 0.41722316
-0.84402835 2.3035502 0.38926834
-0 0 0
-0.64935523 2.2810903 0.33315402
-0.76262558 2.3482356 0.32294193
-0.85244381 2.3329444 0.3011893
-0.58071542 2.3672814 0.27560306
-0.66392559 2.3324285 0.25065055
-0.75099021 2.3155723 0.22839543
-0.84834957 2.3252637 0.20906541
-0.56739342 2.3145456 0.18177801
-0.6677072 2.3485153 0.16264099
-0.74479491 2.2983837 0.13825077
-0.83287662 2.2852068 0.11563814
-0.57167161 2.3351698 0.09492068
-0.66118866 2.3299155 0.072473101
-0.75484544 2.3334255 0.050430074
-0.84375393 2.318069 0.026910262
-0.5751155 2.3506584 0.0068846168
-0.66415924 2.3436537 -0.016623713
-0.75765884 2.3453369 -0.039664913
-0.88264227 2.427676 -0.066243626
-0.573084 2.3476796 -0.081856363
-0.66242284 2.3407967 -0.10532159
-0.75404376 2.3390303 -0.12991402
-0.82882524 2.2813902 -0.15143566
-0.5600549 2.3009276 -0.16717249
-0.6399256 2.265826 -0.18860804
-0.72514182 2.2505872 -0.21190172
-0.76118845 2.0971544 -0.22158463
-0.48313105 1.987309 -0.22008447
-0.49593702 1.7589301 -0.21403626
-0.52956933 1.6450738 -0.21875279
-0.58881652 1.6234884 -0.23585902
-0.27610222 1.1397901 -0.16991596
-0.31075636 1.1045148 -0.17719603
-0.35606498 1.1075513 -0.19128223
-0.47876319 1.3206959 -0.24499929
-0.23201014 0.96099621 -0.18078336
-0 0 -0
-0.29192093 0.90993649 -0.19344983
-0.33837387 0.93433982 -0.21158518
-0.20515762 0.8533619 -0.1946405
-0.23852743 0.85081106 -0.20463212
-0.26863414 0.83765167 -0.21260403
-0 0 -0
-0.20115216 0.84018433 -0.22600278
-0.22083031 0.78996706 -0.22290376
-0.24989583 0.77992415 -0.23123883
-0 0 -0
-0 0 0
-0.66903752 2.3979297 0.73941296
-0.74207437 2.3162293 0.69664097
-0.82824552 2.287699 0.6715802
-0 0 0
-0.64505178 2.3143017 0.6150738
-0.72566509 2.2708755 0.58614063
-0.8332597 2.3101103 0.57844406
-0.56138319 2.3503547 0.54878634
-0.66920453 2.3996611 0.5396235
-0.74076182 2.321192 0.50347173
-0.84496033 2.3478115 0.49058509
-0.5518654 2.3081884 0.44714233
-0.63966477 2.2960591 0.42447963
-0.71899581 2.2569315 0.39863566
-0.82887584 2.3058975 0.38879821
-0.55948704 2.3409696 0.36220479
-0.65020216 2.3384602 0.34094384
-0.74189258 2.3330274 0.32021835
-0.84112793 2.3465414 0.30227271
-0.56825644 2.3794987 0.27661422
-0.64880222 2.3335831 0.25034213
-0.74580806 2.3486047 0.23119782
-0.82399285 2.3022802 0.20654047
-0.56336498 2.3606577 0.18512455
-0.64420736 2.3198802 0.16038117
-0.73128217 2.3048136 0.13836503
-0.81076843 2.2677004 0.11449838
-0.55571103 2.3318295 0.094644524
-0.63326442 2.2848036 0.070947669
-0.73175901 2.3103726 0.049833879
-0.83657587 2.3429787 0.027139334
-0.55813277 2.3434424 0.0068533234
-0.64843267 2.3428662 -0.016589593
-0.74325383 2.3499417 -0.039664913
-0.83146232 2.3313553 -0.063474931
-0.5607475 2.3599029 -0.082161032
-0.6544348 2.3679283 -0.10635966
-0.73757368 2.3369467 -0.1295445
-0.80844557 2.2685699 -0.15025257
-0.54569614 2.3033502 -0.16710208
-0.62601072 2.2697098 -0.18860804
-0.72240508 2.2901394 -0.21520431
-0.73428798 2.0624123 -0.21743362
-0.47207272 1.9950736 -0.22061943
-0.50200939 1.8232249 -0.221481
-0.51379955 1.6303142 -0.21636684
-0.55127996 1.5495913 -0.22462764
-0.27364522 1.1607279 -0.17278373
-0.29402417 1.0701879 -0.17139633
-0.3297109 1.0475938 -0.18057431
-0.40695095 1.1444665 -0.21184018
-0.22768411 0.96910506 -0.18204257
-0 0 -0
-0 0 -0
-0.33067009 0.93086851 -0.21033564
-0.20236379 0.8650614 -0.19702208
-0.23227356 0.84850001 -0.20372967
-0.26756543 0.85226756 -0.21589294
-0 0 -0
-0.19818787 0.85082495 -0.22853361
-0.21445446 0.78572148 -0.22133033
-0 0 -0
-0 0 -0
-0.54582804 2.3558216 0.74708664
-0.65254784 2.3955154 0.73741996
-0.71432692 2.2776263 0.68369937
-0.80451548 2.2654867 0.66359782
-0 0 0
-0.63211125 2.32289 0.61631387
-0.72186422 2.307723 0.59449697
-0.8216666 2.3225207 0.58027822
-0.54959977 2.3651533 0.55144387
-0.6375221 2.3414836 0.52565134
-0.72767329 2.3294327 0.50428116
-0.82367992 2.3335211 0.48653382
-0 0 0
-0.62504762 2.2980409 0.42412901
-0.73742568 2.3648572 0.41689122
-0.80650198 2.2876534 0.38488045
-0.53884178 2.3173897 0.3580381
-0.63428485 2.3366716 0.34010923
-0.72049111 2.3148136 0.31710565
-0.82375085 2.3432293 0.3011893
-0.54599965 2.3500326 0.27279422
-0.63811928 2.3509598 0.25178146
-0.71217519 2.291337 0.22512595
-0.82074118 2.33832 0.20931791
-0.54458523 2.3456161 0.18367946
-0.63361567 2.3372717 0.16131169
-0.7257129 2.3369076 0.14002176
-0.79783034 2.2754605 0.11464085
-0.5452292 2.3517435 0.095315196
-0.6333304 2.3407485 0.072562829
-0.7140168 2.3033597 0.049587179
-0.81920969 2.3395739 0.02704116
-0.55096602 2.3779972 0.0069443597
-0.63013262 2.3323202 -0.01648723
-0.72142917 2.330579 -0.03926263
-0.81054127 2.3175406 -0.062962212
-0.54040492 2.3379815 -0.081280857
-0.64145452 2.3776867 -0.10661918
-0.72322053 2.3414285 -0.1295445
-0.8010959 2.2923315 -0.15149792
-0.53446484 2.3192918 -0.16801752
-0.60740787 2.2561824 -0.1871707
-0.70099461 2.2707369 -0.21297285
-0.72489953 2.0762737 -0.21842195
-0.44688842 1.9417348 -0.21441385
-0.45859033 1.7063738 -0.20694049
-0.51226574 1.6609287 -0.22000855
-0.54633051 1.5660417 -0.22652209
-0.27448034 1.197112 -0.17794573
-0.29589903 1.1034724 -0.17643291
-0.32618132 1.0590274 -0.18219672
-0.42197666 1.210196 -0.2235232
-0.22567739 0.98774546 -0.18528049
-0.24473961 0.91441 -0.18235411
-0.2720947 0.88534415 -0.18749753
-0.32559568 0.93472731 -0.21075217
-0 0 -0
-0.23158908 0.86685097 -0.20779072
-0.2574783 0.83809769 -0.21189928
-0 0 -0
-0 0 -0
-0.21633548 0.81219983 -0.2284108
-0.23465852 0.76453179 -0.22580431
-0 0 -0
-0 0 0
-0.64522505 2.4272673 0.74596149
-0.70315874 2.2911568 0.68645287
-0.78140652 2.2439806 0.65588158
-0 0 0
-0.61958677 2.3332791 0.61804998
-0.71053284 2.3213944 0.59688449
-0.80261534 2.3137245 0.57683915
-0.5331431 2.3599205 0.54945076
-0.63343257 2.3840785 0.53433102
-0.69933957 2.2879634 0.49436551
-0.79779333 2.30515 0.47958887
-0.533687 2.3598366 0.45584449
-0.60689443 2.2866077 0.42132369
-0.69239676 2.2693574 0.39929947
-0.78954607 2.2841578 0.38347006
-0 0 0
-0.62500644 2.3596649 0.34289131
-0.71060705 2.3334191 0.31905106
-0.80903405 2.3473012 0.30106893
-0.53879464 2.3853238 0.27650189
-0.61833405 2.3346384 0.24962245
-0.71316522 2.3451967 0.22998345
-0.80475688 2.3386006 0.20889707
-0.52381593 2.3207071 0.18147378
-0.61900735 2.3401508 0.16124523
-0.70091188 2.3069274 0.13796513
-0.79391944 2.3095963 0.11611304
-0.53781921 2.3862371 0.096577652
-0.61104679 2.314631 0.071635611
-0.70103085 2.3115244 0.049669411
-0.79055381 2.3029428 0.026561204
-0.52823442 2.3452373 0.0068390984
-0.62269193 2.3622503 -0.016671482
-0.71812791 2.371326 -0.039874099
-0.79825127 2.3281443 -0.063116029
-0.52561098 2.3393033 -0.081213154
-0.62227577 2.364187 -0.10584062
-0.70335203 2.3276596 -0.1285415
-0.78572148 2.293427 -0.15124884
-0.51913363 2.3176603 -0.16766542
-0.59937686 2.2820415 -0.18900727
-0.68906409 2.2816696 -0.21359766
-0.71536851 2.0900974 -0.21941029
-0.45775586 2.0463197 -0.22564811
-0.4773308 1.8206015 -0.22043408
-0.50063199 1.6592917 -0.21938068
-0.5411998 1.5824895 -0.22841655
-0.25959599 1.1649646 -0.17292713
-0.29037321 1.1100477 -0.17719603
-0.328217 1.0893528 -0.18706395
-0.42505804 1.2435243 -0.22919288
-0.22366354 1.0073572 -0.18869826
-0 0 -0
-0.26214236 0.87197906 -0.18432297
-0 0 -0
-0 0 -0
-0.22430041 0.86071378 -0.20598581
-0.25344995 0.84338528 -0.21283895
-0 0 -0
-0.18793991 0.85413778 -0.22878668
-0.20916398 0.80510598 -0.22605065
-0.226919 0.75581819 -0.22281533
-0.24957053 0.72996205 -0.22646402
-0 0 0
-0.61564404 2.3745768 0.72859365
-0.68190062 2.2714887 0.67929369
-0.78724176 2.3062057 0.6726445
-0 0 0
-0.60671562 2.3426638 0.61953807
-0.69098407 2.3080351 0.59234822
-0.79028362 2.3241351 0.57821476
-0.52199769 2.3783872 0.55299413
-0.60849535 2.3481846 0.52543962
-0.71586341 2.3944836 0.51642275
-0.78079724 2.3016391 0.47785264
-0.51708841 2.3534687 0.45399296
-0.59433293 2.2960072 0.42237568
-0.69791627 2.3387651 0.41075072
-0.77741748 2.2945719 0.38441032
-0.52309054 2.3817782 0.36696672
-0.60729629 2.350991 0.34108296
-0.69146448 2.3215802 0.31684625
-0.78571987 2.3258867 0.29769829
-0.51775897 2.3594675 0.27313128
-0.62215704 2.4086943 0.25712758
-0.69876194 2.3495286 0.22998345
-0.78147578 2.3170571 0.20654047
-0.50251883 2.2917366 0.17896387
-0.61236298 2.3738558 0.16330564
-0.69214654 2.3293679 0.13905056
-0.79886764 2.3712199 0.11896244
-0.51547378 2.3543527 0.095157392
-0.59957415 2.3289845 0.071964622
-0.68114865 2.296612 0.04925824
-0.78310418 2.3276527 0.026790274
-0.51789546 2.3669951 0.0068931514
-0.60818571 2.3660266 -0.016671482
-0.69163936 2.3354218 -0.039198264
-0.7861799 2.3396316 -0.063295476
-0.51444399 2.3571308 -0.081720948
-0.60750932 2.366993 -0.10579737
-0.69103736 2.338635 -0.12891102
-0.76718706 2.2849588 -0.15037709
-0.50511509 2.3217771 -0.16773586
-0.58659977 2.2905045 -0.18940654
-0.67251217 2.2772577 -0.21279432
-0.69240391 2.0642574 -0.21624763
-0.39896229 1.836311 -0.20221666
-0.49099579 1.9206849 -0.2321828
-0.49268723 1.6699446 -0.22038528
-0.53336883 1.5914171 -0.22922845
-0.25474554 1.1771754 -0.1745044
-0.27720654 1.0869102 -0.17322783
-0.30284303 1.0279289 -0.17619382
-0.35546401 1.0611542 -0.19517474
-0.21602707 1.0019796 -0.18743908
-0 0 -0
-0 0 -0
-0 0 -0
-0.1837436 0.85623056 -0.19420747
-0.22261323 0.87623721 -0.20937002
-0.25183263 0.85704821 -0.21589294
-0 0 -0
-0.17865355 0.83635288 -0.22372504
-0.20516767 0.81011611 -0.2270996
-0 0 -0
-0 0 -0
-0 0 0
-0.58391601 2.3104641 0.70780927
-0.67471904 2.2986908 0.68617755
-0.75717443 2.2634563 0.65880841
-0 0 0
-0.59422684 2.3538566 0.62152219
-0.68690264 2.3467145 0.6011821
-0.76246953 2.2883086 0.56812698
-0 0 0
-0.59359699 2.3499789 0.52501619
-0.67011112 2.2926133 0.49355608
-0.76635039 2.3054554 0.4776597
-0.49669331 2.3287253 0.44862354
-0.58023375 2.2996106 0.42237568
-0.66173428 2.2682166 0.39763987
-0.7589671 2.2861762 0.38221636
-0.50702304 2.3781734 0.36592504
-0.57351655 2.2778485 0.32995465
-0.6769293 2.3248274 0.31671655
-0.77268153 2.334434 0.29817984
-0.50327176 2.3626001 0.27313128
-0.57725257 2.2928557 0.24437913
-0.68377638 2.3518596 0.22979662
-0.76067817 2.3019397 0.20477299
-0.50173295 2.357193 0.18383156
-0.59681255 2.373698 0.16303979
-0.67004317 2.3067262 0.13745096
-0.76082093 2.3049369 0.11540069
-0.50309521 2.3672452 0.095551908
-0.58624548 2.3364975 0.072084263
-0.67010647 2.3113108 0.049484383
-0.75941628 2.3039234 0.026463032
-0.50273889 2.3671939 0.0068846168
-0.59025455 2.3561337 -0.016575946
-0.67145771 2.3194525 -0.038860351
-0.76930863 2.3368154 -0.063090391
-0.49686456 2.345577 -0.081213154
-0.58836818 2.3522611 -0.10497555
-0.67667478 2.3428311 -0.12891102
-0.75970149 2.3095329 -0.15168472
-0.49353832 2.3375206 -0.16865128
-0.57181031 2.2911592 -0.18916698
-0.65244955 2.2602887 -0.21083063
-0.66885173 2.0353792 -0.21278846
-0.44060978 2.0897248 -0.22982082
-0.51017183 2.0479863 -0.2471886
-0.47968248 1.6634039 -0.21912952
-0.52081221 1.5861876 -0.22801058
-0.24670421 1.1748422 -0.17393085
-0.28030464 1.1279142 -0.17948538
-0.31127468 1.0809718 -0.18495484
-0.39102861 1.1915497 -0.21871254
-0.20846507 0.99654633 -0.18617989
-0 0 -0
-0.2500689 0.87042022 -0.18333091
-0.28761706 0.87736225 -0.19659096
-0.18186909 0.87359029 -0.19788811
-0.2181689 0.88136935 -0.21027248
-0.24200803 0.84269506 -0.21189928
-0.27877018 0.84937352 -0.22568978
-0.17685531 0.8535378 -0.22802743
-0.20227356 0.81979185 -0.22945976
-0.22638501 0.78907281 -0.23178229
-0.23640454 0.72020656 -0.22252062
-0 0 0
-0 0 0
-0.64999831 2.2658246 0.67516345
-0.74267155 2.2662277 0.65827632
-0 0 0
-0.5723694 2.3273554 0.61358577
-0.66047227 2.3088717 0.59043813
-0.74599814 2.2855413 0.56629282
-0.48764092 2.3597841 0.54723608
-0.57613063 2.3412395 0.52226412
-0.66436952 2.3258727 0.49982923
-0.7476331 2.2961195 0.47476599
-0.48259422 2.3326914 0.44880867
-0.57997763 2.3595347 0.4327203
-0.65537459 2.2987878 0.40228674
-0.75836366 2.3321161 0.38911161
-0.49462408 2.3918915 0.36756197
-0.58123094 2.3698077 0.34275222
-0.6588527 2.3155854 0.31490085
-0.75007701 2.3136337 0.29492956
-0.49258569 2.3841326 0.27526599
-0.57857317 2.3591495 0.2510618
-0.67423034 2.37325 0.23147807
-0.75144887 2.3217323 0.20611963
-0.49068719 2.376828 0.18512455
-0.5760653 2.3521175 0.16131169
-0.65996569 2.3252006 0.13830788
-0.74912196 2.3171656 0.11578061
-0.50268084 2.4387929 0.098313525
-0.56928766 2.32937 0.071755253
-0.64909941 2.2913308 0.048970424
-0.75509578 2.3389904 0.026812091
-0.48880979 2.3731723 0.0068931514
-0.57483828 2.3558254 -0.016548648
-0.65313107 2.3090971 -0.038618982
-0.75127453 2.3300743 -0.062782757
-0.48547965 2.3632662 -0.081720948
-0.57486987 2.3597097 -0.10514858
-0.6563201 2.3257954 -0.12774967
-0.74459803 2.3113008 -0.15149792
-0.48318782 2.3600497 -0.17005965
-0.55750579 2.2936559 -0.18908712
-0.63910908 2.2661667 -0.21100913
-0.64872891 2.0157633 -0.21031761
-0.4498851 2.2005153 -0.24169704
-0.51468998 2.1215386 -0.25568029
-0.46973601 1.6672707 -0.21925509
-0.51167637 1.5912398 -0.22828121
-0.2284344 1.1220266 -0.16590106
-0.26291773 1.0863879 -0.17261732
-0.2907404 1.0334677 -0.17651829
-0.37135178 1.1554734 -0.21166839
-0.20019591 0.98720193 -0.18420117
-0.23075454 0.95545739 -0.18935317
-0 0 -0
-0.27505293 0.8567602 -0.19159287
-0 0 -0
-0.20613669 0.85522568 -0.20372967
-0.23840818 0.84977937 -0.2133088
-0.26732266 0.83168364 -0.22054933
-0.17275761 0.86029798 -0.22954594
-0.19656335 0.81820261 -0.22867304
-0.2215391 0.790447 -0.23178229
-0.23550475 0.73260528 -0.22590068
-0 0 0
-0.56736237 2.3668623 0.72289932
-0.63686144 2.2725472 0.67598951
-0.74318582 2.315716 0.67131406
-0 0 0
-0.55920613 2.3355341 0.61482579
-0.64472479 2.3072693 0.58900559
-0.73047864 2.28544 0.56514651
-0 0 0
-0.56312048 2.3504333 0.5235343
-0.6514017 2.3346219 0.50084108
-0.73561674 2.3072073 0.47611639
-0.48063567 2.3972752 0.46065843
-0.56365579 2.3553891 0.43131763
-0.64337355 2.3103659 0.40361443
-0.7350502 2.3084929 0.38441032
-0.46808568 2.3357368 0.35848454
-0.56115949 2.3502126 0.33941367
-0.64622509 2.3253164 0.31567898
-0.73526603 2.3163004 0.29468882
-0.478728 2.3910077 0.27571541
-0.55808097 2.3374999 0.24838872
-0.6553964 2.3619924 0.22998345
-0.72845936 2.2987523 0.20367885
-0.469248 2.3455737 0.18246253
-0.55606842 2.3323138 0.15971652
-0.64941996 2.3426754 0.13910769
-0.73338282 2.3169568 0.11554316
-0.47185478 2.362462 0.095117934
-0.55683488 2.3405983 0.071994528
-0.63796037 2.3058698 0.049196564
-0.73440129 2.3235571 0.02658302
-0.47169468 2.3633785 0.0068561677
-0.55505753 2.3369312 -0.016391693
-0.64187896 2.3236625 -0.038795982
-0.7330513 2.3222473 -0.062449489
-0.46687272 2.3456166 -0.081010036
-0.55922753 2.3583322 -0.1049323
-0.63646561 2.3095617 -0.12664109
-0.73220336 2.3215373 -0.15187153
-0.47025034 2.3707976 -0.17062299
-0.54342169 2.2970335 -0.18908712
-0.62413424 2.2662046 -0.2106521
-0.67193353 2.1326501 -0.22207882
-0.41686416 2.1047275 -0.23089074
-0.49664158 2.1033909 -0.25312114
-0.45791799 1.6643823 -0.21850164
-0.50249809 1.5962397 -0.22855186
-0.22441772 1.1379716 -0.1680519
-0.26259068 1.1149156 -0.17689079
-0.28909874 1.0523592 -0.17943864
-0.30423564 0.96696776 -0.17679121
-0.19716814 1.0038557 -0.18707931
-0 0 -0
-0 0 -0
-0.27067053 0.86123103 -0.19221763
-0.16832654 0.86138397 -0.1946405
-0.20355481 0.86785609 -0.20643704
-0.23781225 0.86810076 -0.21753739
-0.26337862 0.8370077 -0.22152847
-0.16544452 0.85089552 -0.22676201
-0.1913196 0.81845367 -0.2284108
-0.21211235 0.77508307 -0.22689122
-0.23014103 0.7312907 -0.22505566
-0 0 0
-0 0 0
-0.61681592 2.2541583 0.66938108
-0.71856159 2.2871261 0.6617353
-0 0 0
-0.53387541 2.2917466 0.60242516
-0.629022 2.3055608 0.58757311
-0.71062875 2.2713001 0.56056112
-0.45808917 2.3627183 0.54657173
-0.54358482 2.3319523 0.51866519
-0.63654965 2.3366852 0.50043631
-0.7284618 2.3341575 0.48074636
-0.45917565 2.3654499 0.45399296
-0.54651386 2.347297 0.42921364
-0.629444 2.3152215 0.4037804
-0.72145951 2.3148456 0.38472375
-0.45864227 2.3638048 0.36235362
-0.54829681 2.3603635 0.3403874
-0.62000197 2.2852175 0.30971298
-0.72339594 2.3283525 0.29565185
-0.45913148 2.3685367 0.27279422
-0.54507816 2.3466935 0.24900559
-0.63620549 2.3486712 0.228302
-0.71699739 2.3117445 0.20443633
-0.4518134 2.332746 0.18124561
-0.55775386 2.4046931 0.16443557
-0.63190383 2.3350518 0.13842215
-0.71737891 2.3156884 0.11525822
-0.45431504 2.3496161 0.094486721
-0.53930765 2.3303378 0.071575783
-0.62223572 2.3039496 0.049073212
-0.71540242 2.3127348 0.02640849
-0.4592711 2.3770282 0.0068874615
-0.54250878 2.3480873 -0.016446285
-0.62084115 2.3024573 -0.038377613
-0.7240997 2.343894 -0.062910944
-0.45379505 2.3553066 -0.081247009
-0.54272562 2.3529575 -0.10454302
