# .PCD v0.7 - Point Cloud Data file format
VERSION 0.7
FIELDS x y z
SIZE 4 4 4
TYPE F F F
COUNT 1 1 1
WIDTH 1626
HEIGHT 1
VIEWPOINT 0 0 0 1 0 0 0
POINTS 1626
DATA ascii
8.1550159 -3.6814244 0.097605601
8.9271212 -5.2687383 0.029490056
8.3241854 -4.5149384 -0.064625025
8.2166328 -4.0776768 -0.14762107
8.1614933 -3.6879497 -0.22967364
0 -0 -0
1.4127487 -0.76692826 -0.069594428
1.4701289 -0.73070204 -0.086785309
1.5496402 -0.70069492 -0.10610458
1.3331817 -0.7889716 -0.10935926
1.4424361 -0.78402251 -0.13151456
1.4563806 -0.72415394 -0.14576055
1.5212724 -0.68841171 -0.16584256
1.3850718 -0.82020223 -0.17322156
1.420316 -0.77280235 -0.18937555
1.4770998 -0.7349385 -0.20883232
1.5334828 -0.69438869 -0.22990504
1.3601286 -0.8069393 -0.2291356
1.4623075 -0.796709 -0.25717083
1.5324744 -0.76322466 -0.28148827
1.5676686 -0.71016532 -0.30014989
0 -0 -0
1.4284176 -0.77911794 -0.31344476
1.5392524 -0.76777422 -0.34820971
1.5811617 -0.71687663 -0.36964929
1.1893765 -0.70841646 -0.30700803
1.4749674 -0.80537677 -0.38918456
1.5081792 -0.75247222 -0.40735403
1.52528 -0.69089884 -0.42273998
1.1796108 -0.70410687 -0.35937732
1.4274002 -0.78079486 -0.44213617
1.4112293 -0.70456272 -0.44535893
1.4028341 -0.63537604 -0.45208302
5.2772374 -3.1584163 1.9000381
5.6004519 -3.0671029 1.8965075
5.9174623 -2.9545221 1.8944227
6.2848406 -2.8501945 1.9048504
6.1353998 -3.6667907 1.9083819
6.5492496 -3.5889437 1.9119372
7.0043058 -3.5037401 1.9255495
7.4041963 -3.3684261 1.9159956
7.3219171 -4.3757334 1.9371405
7.8368964 -4.2931423 1.9355739
8.3994732 -4.2056732 1.9410372
8.6266546 -3.932018 1.8639532
8.9040422 -5.3185034 1.9540954
8.8109989 -4.8297663 1.7894422
8.7299976 -4.3766966 1.6435008
8.6699781 -3.9557862 1.5120975
8.9033232 -5.3191285 1.5607247
8.8263073 -4.8439693 1.4142702
8.7402391 -4.3875594 1.2791873
8.6469612 -3.9545872 1.152994
8.9336901 -5.3393865 1.1767902
8.3084373 -4.5599456 0.97957277
8.2201405 -4.1306043 0.86313856
8.1257162 -3.7210047 0.75487429
0 -0 0
8.2960587 -4.5565434 0.63049138
8.2274733 -4.1368074 0.52695251
8.1551085 -3.7377362 0.42650768
8.9262075 -5.3406248 0.41069174
8.3225069 -4.5763655 0.28420943
8.237093 -4.1468687 0.18963188
8.1777163 -3.7522438 0.098151006
8.9315214 -5.3454976 0.029612387
8.3331194 -4.5861797 -0.064911641
8.2691393 -4.1671638 -0.149021
8.1832237 -3.7584023 -0.23092979
8.8370523 -5.2952447 -0.3489559
1.4368942 -0.79148918 -0.07102178
1.4647263 -0.73925889 -0.086732522
1.5407773 -0.70810628 -0.10579325
8.8850889 -5.3320403 -0.73150295
1.4218868 -0.78419328 -0.13007724
1.4848067 -0.7496863 -0.14906314
1.5161157 -0.6973173 -0.16574372
8.8699293 -5.3263125 -1.1133684
1.4198951 -0.78390294 -0.18995719
1.4716769 -0.74354059 -0.20870674
1.527393 -0.70295638 -0.22963439
0 -0 -0
1.4331737 -0.79227865 -0.25289735
1.5224792 -0.76994151 -0.28051484
1.5597022 -0.71812296 -0.29946265
0 -0 -0
3.5448496 -1.9618244 -0.7804907
1.5283918 -0.77410448 -0.34682083
1.5714035 -0.72410899 -0.36839977
1.1983783 -0.72377658 -0.31047216
1.4597719 -0.8087464 -0.3864772
1.4957299 -0.75775856 -0.40523973
1.5201312 -0.69983929 -0.42249519
1.1785789 -0.71333528 -0.36038962
1.3626754 -0.7562899 -0.42351717
1.4085963 -0.7140789 -0.44590238
1.4076251 -0.64798409 -0.45489976
5.2659268 -3.1956942 1.90299
5.5781755 -3.0995467 1.8953687
5.9249463 -3.0038166 1.9026834
6.2681093 -2.8891075 1.9051164
6.1136117 -3.7048686 1.9086398
6.5245647 -3.6276491 1.9111931
6.9696879 -3.5400553 1.9219681
7.3966413 -3.4199216 1.9194348
7.2849221 -4.4145126 1.9344829
7.8180947 -4.3454208 1.9374793
8.3848591 -4.2629018 1.943668
8.6513329 -4.0075593 1.8745635
8.9006605 -5.3908558 1.9605757
8.8388443 -4.9157996 1.8011894
8.7469187 -4.452548 1.6517986
8.6751108 -4.0226202 1.5172689
8.9026585 -5.3931279 1.5663795
8.8414097 -4.9230866 1.4215035
8.7608576 -4.4654212 1.2861909
8.6792488 -4.0339298 1.160578
8.9466486 -5.4219117 1.1828573
8.3081112 -4.6263247 0.98286265
8.2221336 -4.1949916 0.86603439
8.136158 -3.7863486 0.75798833
0 -0 0
8.3167543 -4.6345611 0.63421351
8.2366152 -4.2049165 0.52918053
8.1691446 -3.804996 0.42845473
8.9385471 -5.4227629 0.41278267
8.3370419 -4.6512074 0.28567502
8.2595663 -4.2219052 0.19074206
8.1844454 -3.8162956 0.098510973
8.9669447 -5.4417038 0.029839978
8.3222847 -4.646975 -0.065048128
8.2790194 -4.2360415 -0.14966464
8.2007723 -3.8275688 -0.23208342
8.9854708 -5.4593859 -0.35613272
1.372707 -0.76714855 -0.068080567
1.453053 -0.74458909 -0.086310208
1.5354991 -0.71712464 -0.10573097
8.9110041 -5.4222364 -0.7363618
1.3909516 -0.77830082 -0.12768172
1.4775198 -0.75741971 -0.14879535
1.500089 -0.70112926 -0.16445889
8.9050188 -5.4220028 -1.1219279
1.389062 -0.77803952 -0.18646745
1.4591426 -0.74848145 -0.20757656
1.5410011 -0.72071004 -0.23234077
0 -0 -0
1.4334573 -0.80395818 -0.25381309
1.5098259 -0.77521241 -0.27905464
1.5499127 -0.72517473 -0.29843181
0 -0 -0
3.5866866 -2.0138249 -0.79240799
1.5166403 -0.77988231 -0.34523356
1.5616163 -0.73124868 -0.36715028
1.1905844 -0.72907668 -0.30960613
1.454782 -0.81768817 -0.3864772
1.4979672 -0.77047867 -0.4071191
1.5210779 -0.71161866 -0.42396387
1.2640574 -0.77570826 -0.38797566
1.4135067 -0.79588521 -0.44082499
1.4024769 -0.72182763 -0.44535893
1.3671197 -0.63953298 -0.44306955
5.2348261 -3.2209353 1.8988575
5.558217 -3.1332443 1.8950839
5.8910179 -3.0321956 1.8977269
6.2328053 -2.9193361 1.8997949
6.0957031 -3.7453461 1.9101876
6.506402 -3.6699946 1.9124331
6.9357524 -3.5765231 1.9186256
7.3913751 -3.4726923 1.9235615
7.2585282 -4.4596391 1.9347043
7.8040543 -4.4005108 1.9406548
8.3663759 -4.3183126 1.9454892
8.6407862 -4.0672541 1.8776503
8.9067736 -5.4695377 1.9692779
8.8368111 -4.9859061 1.8069755
8.7483435 -4.5210748 1.6572753
8.6860027 -4.0926127 1.5235373
8.9258537 -5.4823275 1.5763497
8.8584576 -5.0040317 1.4291542
8.7693996 -4.5377755 1.2915083
8.7144766 -4.1155119 1.1686434
8.9292974 -5.4865894 1.1849921
8.3358622 -4.7090163 0.98954529
8.2439795 -4.2700901 0.87107867
8.1452017 -3.8515346 0.76101828
0 -0 0
8.316824 -4.7017088 0.63640684
8.2647285 -4.2833996 0.53266531
8.2025242 -3.8819687 0.43144658
8.953619 -5.5073471 0.4150314
8.3501005 -4.7259073 0.28711075
8.2610149 -4.2867804 0.19137935
8.201539 -3.8857086 0.09900184
8.9827843 -5.5270162 0.030004982
8.3301582 -4.7186522 -0.065334745
8.2865896 -4.3042746 -0.15027611
8.2078438 -3.8923795 -0.23295507
0 -0 -0
1.3888326 -0.78738236 -0.069118641
1.4573159 -0.75809938 -0.086838096
1.5328734 -0.7273885 -0.10585551
8.8928471 -5.4862385 -0.73762929
1.4060882 -0.7981385 -0.1295183
1.4481057 -0.7535972 -0.1462961
1.5038488 -0.71416235 -0.1653484
8.9443426 -5.5214567 -1.1311293
1.4006693 -0.79587084 -0.18867762
1.4395636 -0.74963087 -0.20544177
1.5240211 -0.7241984 -0.23044631
0 -0 -0
1.4216253 -0.80882883 -0.25259212
1.5041659 -0.78400588 -0.27889243
1.5472133 -0.73551702 -0.29877543
0 -0 -0
3.5025895 -1.9949716 -0.77651823
1.5048755 -0.78554517 -0.34364629
1.5544504 -0.73955619 -0.3665255
0 -0 -0
2.9874916 -1.703383 -0.79641831
1.4854568 -0.77560651 -0.40500483
1.5149314 -0.72010595 -0.42347434
0 -0 -0
1.4228419 -0.81267965 -0.44528306
1.3997273 -0.73131073 -0.44590238
1.3614366 -0.64708567 -0.44250619
5.2028046 -3.24541 1.8944298
5.5147543 -3.1534903 1.8868271
5.8816743 -3.0731823 1.9007559
6.2199979 -2.9600101 1.9013914
6.0816283 -3.7882972 1.9130251
6.4846015 -3.7103291 1.9126812
6.9076543 -3.6158602 1.9169543
7.3541164 -3.5104322 1.9194348
7.2285452 -4.5025463 1.9340401
7.7319431 -4.4225941 1.9294347
8.3414564 -4.3704753 1.9458939
8.6484194 -4.135859 1.8847882
8.8588629 -5.5152559 1.9661301
8.838521 -5.0586171 1.8136381
8.7754545 -4.6035295 1.6677309
8.7088327 -4.1688595 1.5319996
8.9356976 -5.5641727 1.584088
8.8610964 -5.0774937 1.4345793
8.7677269 -4.6053309 1.2953993
8.7203865 -4.1839352 1.1728566
8.9654675 -5.5848818 1.1943172
8.775445 -5.0286179 1.0453711
8.2634478 -4.3446875 0.87593621
8.1717138 -3.9256029 0.76573151
0 -0 0
8.8798676 -5.0921617 0.68186927
8.2824688 -4.3572717 0.53552175
8.2118587 -3.9482403 0.43320376
8.9722261 -5.5949631 0.41747743
8.8904696 -5.1040168 0.30676192
8.2540169 -4.3476391 0.19183165
8.2171879 -3.9550407 0.099481806
8.9826412 -5.6031995 0.030118776
8.915781 -5.1228938 -0.070173092
8.2989397 -4.3755574 -0.15098412
8.2126245 -3.9565527 -0.23377541
0 -0 -0
1.4142874 -0.81332117 -0.070632502
1.4385079 -0.75956655 -0.085993469
1.5247852 -0.73504674 -0.10560644
8.9131432 -5.5745535 -0.74213606
1.3847513 -0.79730082 -0.12800112
1.4593068 -0.77084208 -0.14790276
1.4788246 -0.71343154 -0.16307522
8.9069242 -5.5741243 -1.1307014
1.4052254 -0.80990577 -0.18995719
1.4410766 -0.76169503 -0.20632081
1.5275794 -0.73741257 -0.23166418
3.2391081 -2.0307958 -0.55391169
1.3960923 -0.80568099 -0.24892913
1.4714164 -0.7784543 -0.27370068
1.5462196 -0.7467103 -0.29946265
0 -0 -0
3.6509802 -2.1092646 -0.81227022
1.4948307 -0.79201084 -0.3424558
1.5498834 -0.74908018 -0.3665255
3.0637619 -1.9282433 -0.80281085
3.0604739 -1.769967 -0.81875408
1.4806699 -0.78470653 -0.40500483
1.5131037 -0.73065263 -0.42420864
2.4303298 -1.5327791 -0.75165534
1.3927786 -0.8068825 -0.43741587
1.3833108 -0.73357332 -0.44209823
1.3652171 -0.65918189 -0.44504124
5.1860237 -3.2793152 1.8956106
5.5301285 -3.2074687 1.8987852
5.8711996 -3.1137178 1.9035093
6.2182078 -3.0060911 1.9064468
6.051734 -3.8214154 1.9109615
6.469254 -3.7544243 1.9149133
6.9102073 -3.6713898 1.9238782
7.3324385 -3.5554903 1.9194348
7.1884136 -4.5390053 1.9307179
7.7579188 -4.5008516 1.9427717
8.3084307 -4.4183569 1.9444773
8.6934862 -4.2231464 1.9002213
8.8165445 -5.5642643 1.9642786
8.8584023 -5.1424103 1.824158
8.7879534 -4.6790705 1.675531
8.7097359 -4.2351747 1.5367011
8.9590864 -5.6553178 1.5943558
8.8588839 -5.1486869 1.4393088
8.7786779 -4.6800332 1.3012357
8.7141829 -4.246932 1.175505
8.974719 -5.6673765 1.2001597
0 -0 0
8.2937288 -4.4257765 0.88200802
8.1877718 -3.9953339 0.76951891
8.9812479 -5.6734729 0.81031919
8.8622551 -5.1545782 0.68293267
8.2943268 -4.4287 0.53803539
8.2287655 -4.0187163 0.43538827
9.0061407 -5.6931572 0.42067298
8.9064932 -5.1861353 0.30840701
8.2650986 -4.4184713 0.19271567
8.2242069 -4.0207572 0.099863589
8.9818993 -5.6795883 0.030232573
8.9135542 -5.194622 -0.070405111
8.3080807 -4.4457383 -0.15164387
8.2286005 -4.0266428 -0.23492903
8.9248362 -5.6500487 -0.35779151
0 -0 -0
1.4162165 -0.75894505 -0.084937692
1.5005261 -0.73473281 -0.10423654
8.8981476 -5.6414232 -0.74375564
1.3686429 -0.79924774 -0.12696306
1.4448935 -0.7746051 -0.1469209
1.4735256 -0.72205412 -0.16297638
8.9145317 -5.6553016 -1.1360509
1.3625013 -0.7964586 -0.18483892
1.4232621 -0.76348829 -0.20443717
1.4990063 -0.73499435 -0.22801058
4.5446172 -2.8882968 -0.78017956
1.3996516 -0.8192243 -0.25045538
1.4822606 -0.79587024 -0.27662104
1.546031 -0.75835288 -0.3003217
0 -0 -0
3.6184835 -2.1202095 -0.8079195
1.4709518 -0.7909562 -0.33809081
1.5426239 -0.75728297 -0.36590075
3.0633955 -1.954357 -0.80584198
3.0117412 -1.7665321 -0.80860144
1.456138 -0.78318715 -0.39960161
1.5077215 -0.73949617 -0.42396387
2.3972411 -1.5325507 -0.74431598
1.2438629 -0.73084104 -0.39204839
1.3550553 -0.72927701 -0.43448991
1.3499475 -0.66205382 -0.44137949
5.1577601 -3.3059185 1.8926588
5.4657259 -3.215095 1.8834105
5.8443651 -3.1455836 1.9010311
6.1883974 -3.0386655 1.9029878
6.0249171 -3.8563926 1.9099296
6.4460955 -3.7940481 1.9149133
6.8781471 -3.7086511 1.9212518
7.2965126 -3.593533 1.9157662
7.1678195 -4.5877585 1.9327111
7.715837 -4.5399432 1.9391729
8.254447 -4.4548345 1.9382042
8.7114067 -4.2981172 1.9098672
8.7648535 -5.6071358 1.9603904
8.8818283 -5.2291346 1.8355546
8.7903109 -4.7497811 1.6815056
8.7154636 -4.3042808 1.5423425
8.9783583 -5.7448258 1.6040285
8.8723402 -5.229598 1.4466814
8.7942734 -4.7578731 1.30785
8.7351151 -4.3236618 1.1818851
8.994175 -5.7571588 1.2074627
0 -0 0
8.3066893 -4.4983921 0.88630509
8.189887 -4.0587721 0.77204382
9.0067263 -5.7671876 0.81579536
8.886322 -5.2418103 0.68725288
8.288064 -4.4909248 0.53940648
8.2307987 -4.0824471 0.436813
9.0215187 -5.7806559 0.42304009
8.9158163 -5.2650833 0.30984268
8.296711 -4.5010443 0.19409308
8.2217712 -4.0822616 0.10013628
9.0125484 -5.7766838 0.030454474
8.9374685 -5.2822886 -0.070848688
8.3201866 -4.5181036 -0.15236798
8.2422323 -4.0961876 -0.23603138
0 -0 -0
1.8324254 -1.08392 -0.0921726
1.4071467 -0.76523513 -0.084673747
1.4718608 -0.73192728 -0.10255531
8.9111977 -5.7266541 -0.74776947
1.3577094 -0.80407494 -0.12640411
1.4112412 -0.76774901 -0.14397535
1.4610496 -0.72709179 -0.16208689
8.9064255 -5.7271023 -1.1394747
8.8093748 -5.2223611 -1.1994174
1.4229075 -0.77457863 -0.20506506
1.4953551 -0.74461991 -0.22814591
4.5842161 -2.9531085 -0.79007334
1.3801513 -0.81922138 -0.24786077
1.4747499 -0.80353391 -0.27613431
1.5254768 -0.75991827 -0.29722914
0 -0 -0
0 -0 -0
1.4196109 -0.77461582 -0.32737663
1.5361977 -0.76586127 -0.36548424
3.0267518 -1.9572132 -0.79934675
1.1722052 -0.69725728 -0.31585994
1.4547178 -0.79396975 -0.40054131
1.5040236 -0.74916577 -0.42420864
2.4365063 -1.5787964 -0.75950092
1.169719 -0.69696736 -0.37002024
1.2981882 -0.70897871 -0.41764289
1.3544484 -0.67460221 -0.44419622
5.1574087 -3.3505163 1.9000381
5.47224 -3.2642865 1.8925214
5.8097672 -3.1730902 1.8960748
6.1739492 -3.0787303 1.9043183
5.9849305 -3.8827715 1.9047705
6.4201989 -3.8320398 1.9141693
6.8373718 -3.7409964 1.916238
7.2830315 -3.64259 1.918059
7.1297174 -4.6252842 1.9300536
7.6920309 -4.5897045 1.9402312
8.226099 -4.5049291 1.938002
8.7287331 -4.3734655 1.919513
8.7088451 -5.6469097 1.9555764
8.8808517 -5.302207 1.8420419
8.8094234 -4.8301778 1.6907994
8.746274 -4.3864565 1.5525287
8.9628515 -5.8127213 1.6076
8.8919363 -5.3149314 1.4551667
8.8222809 -4.8432369 1.3164099
8.7580919 -4.4021444 1.1886264
8.9578466 -5.8116965 1.2073503
0 -0 0
8.3112164 -4.5670166 0.88976133
8.1977625 -4.1255212 0.77515793
9.0071344 -5.8456841 0.81906581
8.9019442 -5.3249211 0.69097501
8.2997208 -4.5633407 0.54197729
8.2386017 -4.1494985 0.43857011
9.0227509 -5.8598485 0.42477596
8.9416561 -5.3546109 0.3118766
8.3171091 -4.5783849 0.19522381
8.2349615 -4.1519904 0.10060533
9.0314407 -5.8672857 0.03063939
8.9340515 -5.3545065 -0.071080707
8.3212061 -4.5849938 -0.15289898
8.2463951 -4.1615467 -0.23687738
0 -0 -0
0 -0 -0
1.3980532 -0.77144253 -0.084409796
1.4566511 -0.73554617 -0.1018081
8.8758917 -5.7812243 -0.74776947
8.9069576 -5.3490505 -0.83228678
1.4195834 -0.7836138 -0.14531423
1.4592252 -0.73738939 -0.16238339
8.8761139 -5.7849002 -1.1401167
8.8597355 -5.3259525 -1.2107008
1.4129175 -0.78041679 -0.20431159
1.4739583 -0.74528664 -0.22557487
4.0820622 -2.6652083 -0.70633417
1.3683248 -0.82359719 -0.24663979
1.453384 -0.80349672 -0.27305174
1.5207853 -0.7692641 -0.29722914
3.6075153 -2.3593264 -0.78825152
1.2716917 -0.76625019 -0.28601599
3.5473676 -1.9639763 -0.82082248
1.5271063 -0.77306408 -0.36444297
3.0089698 -1.9720021 -0.79783118
1.2263 -0.73965842 -0.33165294
1.4421657 -0.79864275 -0.39842701
1.5063201 -0.76188105 -0.42616692
2.3839142 -1.5655705 -0.74608755
1.1579869 -0.69964027 -0.36766008
1.3535799 -0.75004876 -0.43693542
1.3305902 -0.67294043 -0.43771777
5.1367536 -3.3820987 1.9000381
5.4242196 -3.2809336 1.882841
5.785984 -3.2063489 1.8946981
6.1635418 -3.1209095 1.906979
5.9593792 -3.9183598 1.9042546
6.3816471 -3.8623323 1.909705
6.8185339 -3.7852361 1.9174317
7.2909188 -3.702635 1.9260833
7.0938697 -4.6641226 1.9280604
7.6754317 -4.643899 1.9431952
8.2214146 -4.568161 1.9434656
8.742837 -4.4478531 1.92858
8.664999 -5.694303 1.9535398
8.8995247 -5.3877006 1.8527371
8.8390818 -4.9172192 1.7022506
8.7596788 -4.4606557 1.5597373
8.951807 -5.8839011 1.6120642
8.924366 -5.4089136 1.4658777
8.8521681 -4.9305701 1.325359
8.7618647 -4.4715943 1.1928396
8.8879776 -5.8441687 1.2027439
0 -0 0
8.3056469 -4.6305327 0.8921901
8.220211 -4.2002277 0.7797029
8.9744291 -5.9030333 0.81937009
8.8904314 -5.3923783 0.69263661
8.3386993 -4.6516309 0.54637617
8.2814636 -4.2349896 0.44222683
8.9899645 -5.9172988 0.42493379
8.9496431 -5.4342766 0.31331232
8.3211565 -4.6473689 0.19598447
8.2511644 -4.2238564 0.10111801
9.0245028 -5.9418383 0.030738959
8.9591379 -5.4445376 -0.071544752
8.3461542 -4.6657267 -0.15388055
8.253623 -4.2289333 -0.2378259
0 -0 -0
0 -0 -0
1.3880652 -0.7770794 -0.084093064
1.443229 -0.7399168 -0.10118542
2.4908214 -1.644227 -0.21069087
8.8688612 -5.4004912 -0.83180767
1.4069276 -0.78792936 -0.14451091
1.4422778 -0.73996961 -0.16099972
2.4855473 -1.6417422 -0.32055083
8.913394 -5.4329414 -1.2225658
1.3916585 -0.77985686 -0.20192565
1.4596617 -0.74933922 -0.22408637
2.4289801 -1.607242 -0.42199379
0 -0 -0
1.426911 -0.80033171 -0.2689957
1.5037681 -0.77228028 -0.29482383
2.4335775 -1.6129726 -0.53389555
0 -0 -0
3.4728684 -1.9506665 -0.80633855
1.5197244 -0.78107834 -0.36381823
2.4267275 -1.6117873 -0.64605922
1.1760273 -0.71921366 -0.31924415
1.4279165 -0.80223948 -0.39584288
1.4990294 -0.76978058 -0.42543256
2.3871493 -1.5887446 -0.75013691
1.1635467 -0.71278143 -0.37080696
1.283518 -0.72155488 -0.41574082
1.3161935 -0.67583269 -0.43433771
5.0960355 -3.400296 1.8926588
5.4015346 -3.3126504 1.8819869
5.7628493 -3.2399061 1.8935966
6.1374178 -3.1551437 1.9048504
5.9384403 -3.9569948 1.9052863
6.3570023 -3.9009101 1.909457
6.7960262 -3.8274794 1.9176706
7.2559509 -3.7410569 1.9228736
7.087029 -4.7221618 1.9340401
7.6134696 -4.6704655 1.9347272
8.2119989 -4.6291003 1.9479176
8.7476377 -4.5180745 1.9357179
8.6487083 -5.759892 1.9577984
8.902379 -5.4643517 1.8602765
8.8525429 -4.9960804 1.7107145
8.7602196 -4.5288348 1.5647522
8.957509 -5.9666767 1.6196537
8.9416323 -5.4946785 1.474224
8.8709536 -5.0125971 1.3327515
8.7977266 -4.5581536 1.201507
8.8114328 -5.871594 1.1972384
0 -0 0
8.3299417 -4.711307 0.89788824
8.2473555 -4.2781162 0.78475273
8.9670782 -5.9773445 0.82203209
8.8673763 -5.4530997 0.69343424
8.3534441 -4.7272944 0.5492326
8.2686205 -4.2926278 0.44293919
8.9775934 -5.9884286 0.42607787
8.9535818 -5.512145 0.31462836
8.3594646 -4.736289 0.19756749
8.2827654 -4.3043766 0.10182703
9.0136614 -6.0143056 0.030827152
8.9834538 -5.5350771 -0.072008796
8.3547678 -4.7380595 -0.15457247
8.2807322 -4.3071756 -0.23936409
0 -0 -0
0 -0 -0
1.3841394 -0.786075 -0.084145851
1.4413177 -0.75014067 -0.10137222
2.4185028 -1.6178815 -0.20540951
8.7515869 -5.402967 -0.82390243
1.3873444 -0.78818333 -0.14299351
1.4456534 -0.75294244 -0.16188923
2.4167638 -1.6176953 -0.31295434
8.950017 -5.5308671 -1.2322206
1.3635607 -0.7751435 -0.19853511
1.4620655 -0.76194453 -0.22516891
2.4083867 -1.6149503 -0.42012975
0 -0 -0
4.2307563 -2.4072087 -0.80033523
1.5033689 -0.78376979 -0.29568288
2.4375167 -1.6371984 -0.53695363
0 -0 -0
3.4616854 -1.9724241 -0.80653697
1.5131689 -0.78948367 -0.36340171
2.4248912 -1.6320983 -0.64822429
0 -0 -0
2.8670466 -1.6340042 -0.79755878
1.489979 -0.77672297 -0.42420864
2.3621166 -1.5930841 -0.74532831
0 -0 -0
1.2799023 -0.72989357 -0.41601253
1.3043641 -0.6799044 -0.43180269
5.0861564 -3.438993 1.8967912
5.3908758 -3.3518054 1.8854034
5.7378507 -3.2723477 1.8919445
6.138453 -3.2034464 1.9112363
5.8940315 -3.9798415 1.8988374
6.3436408 -3.9464951 1.9126812
6.7757859 -3.8710334 1.9186256
7.2225108 -3.7800918 1.9201224
7.0651946 -4.7704692 1.9360331
7.5813489 -4.7150278 1.9338803
8.1876917 -4.6818318 1.9489293
8.757987 -4.591711 1.9442061
8.6180916 -5.8161497 1.9589093
8.9196711 -5.5506024 1.8709717
8.8456831 -5.064023 1.7153614
8.7724943 -4.6036119 1.5719608
8.9379416 -6.0331445 1.6227787
8.9489336 -5.575098 1.48104
8.8684187 -5.0832057 1.3370315
8.804738 -4.6305327 1.2063222
14.087652 -9.5127983 1.9220307
0 -0 0
0 -0 0
8.2720881 -4.355567 0.78963429
8.9525414 -6.0473223 0.82408565
8.9819241 -5.5997858 0.70506567
8.8983393 -5.1079931 0.58710873
8.2801247 -4.363306 0.44498128
9.1310844 -6.1721034 0.43515176
8.9764042 -5.602438 0.31663236
8.9309597 -5.13273 0.21181455
8.2977667 -4.3770447 0.10233971
9.0627422 -6.1277518 0.03112302
8.9832478 -5.6112852 -0.07228177
8.9018955 -5.1207809 -0.16527316
8.2718287 -4.3672385 -0.23987679
0 -0 -0
0 -0 -0
1.3516004 -0.77860218 -0.082456596
1.4499252 -0.76596332 -0.10230624
2.427521 -1.6455642 -0.20702912
8.9311991 -5.5898314 -0.8440249
1.3678114 -0.78822684 -0.14147609
1.445405 -0.76412404 -0.16238339
2.4331231 -1.6503537 -0.31637812
8.9209623 -5.5888433 -1.2329187
1.3725299 -0.79142469 -0.20054433
1.4433497 -0.76348883 -0.22300383
2.4205341 -1.6447153 -0.42400128
0 -0 -0
1.3921978 -0.803478 -0.26429072
1.4898241 -0.78837186 -0.29396477
2.4144139 -1.6432683 -0.53407544
0 -0 -0
3.4520638 -1.9950989 -0.80713224
1.5065675 -0.79783791 -0.36298519
2.4116051 -1.6447462 -0.6473583
2.9808803 -1.8736385 -0.81536984
2.9747796 -1.7196711 -0.83044779
1.4809002 -0.7835834 -0.42298475
2.3682721 -1.6184648 -0.75038993
2.3739378 -1.4946303 -0.76233083
1.3203845 -0.76375377 -0.43068573
1.2721798 -0.67308712 -0.42250752
5.0689006 -3.4728363 1.8982671
5.3669643 -3.3827755 1.8842647
5.7401319 -3.3204899 1.899379
6.0769415 -3.2189415 1.8981984
5.9061799 -4.041028 1.9107035
6.2996402 -3.9729421 1.9067289
6.734262 -3.9023118 1.9136118
7.2017593 -3.8257072 1.9208102
7.0221081 -4.8043694 1.9322683
7.5497947 -4.7598934 1.9332452
8.140173 -4.7211733 1.9444773
8.7521696 -4.6573467 1.949222
8.594409 -5.8772402 1.9616865
8.9204168 -5.6272893 1.8783356
8.8766985 -5.1543522 1.7274764
8.7963848 -4.6852102 1.5813634
9.0835848 -6.2129245 1.6561122
8.9572592 -5.6568704 1.4881344
8.9039249 -5.1763973 1.3471477
8.8173208 -4.7064414 1.21198
14.103643 -9.6501207 1.9322548
8.976985 -5.6695471 1.0973929
0 -0 0
8.2935429 -4.4320722 0.79426336
0 -0 0
8.9693251 -5.6686521 0.70679379
8.8823595 -5.1715379 0.58813703
8.307806 -4.4432368 0.44792563
9.1507483 -6.2675395 0.43791336
9.0094347 -5.7001648 0.31902522
8.9321203 -5.2065649 0.21259578
8.2972002 -4.4420352 0.10266697
0 -0 0
8.9968042 -5.6967921 -0.072670743
8.9169436 -5.2025151 -0.16614208
8.3153677 -4.4556832 -0.24192767
0 -0 -0
0 -0 -0
1.3873222 -0.81055778 -0.084937692
1.4408 -0.77248746 -0.1019949
2.4264231 -1.6666408 -0.20780373
8.8967323 -5.644527 -0.8440249
1.3792875 -0.80615401 -0.14317203
1.4354279 -0.77015567 -0.16179039
2.4049242 -1.6528624 -0.31402427
3.167582 -2.0116098 -0.43947226
1.3556585 -0.7928198 -0.19878626
1.4290353 -0.76717556 -0.22151533
2.3924632 -1.6471895 -0.4208467
0 -0 -0
1.3863899 -0.81150675 -0.26412848
1.4919018 -0.80122721 -0.29533926
2.3921387 -1.6496753 -0.5313772
3.4377587 -2.1881595 -0.7850306
3.4338381 -2.0127735 -0.8057434
1.5085359 -0.81077129 -0.3646512
2.3990581 -1.6578475 -0.64670879
2.9364631 -1.8709539 -0.80634528
2.8383939 -1.6641481 -0.79520959
1.4666681 -0.78760946 -0.42029214
2.3479567 -1.6258061 -0.74709988
2.4338663 -1.5532961 -0.78462124
1.2069331 -0.70804864 -0.39508966
1.258727 -0.67588729 -0.41940913
5.0474963 -3.5038731 1.8982671
5.3436832 -3.4140944 1.8834105
5.7038951 -3.3464053 1.8941474
6.0409441 -3.2474961 1.8931429
5.867775 -4.0678334 1.9063182
6.2677979 -4.006825 1.9044968
6.7127028 -3.9450352 1.9143281
7.1918583 -3.8772147 1.9244785
6.9940996 -4.8484769 1.9327111
7.5097408 -4.7992868 1.9304931
8.1000786 -4.7645769 1.9418467
8.7286081 -4.7137594 1.9503795
8.5630322 -5.9332223 1.9627975
8.894845 -5.6877527 1.8802644
8.8822927 -5.2307391 1.7347785
8.8222084 -4.7686825 1.5912361
9.0899944 -6.2995229 1.6642969
8.981596 -5.7496314 1.4980106
8.8967657 -5.2455378 1.350909
8.8327942 -4.7845693 1.2181193
14.082548 -9.7630863 1.9375355
8.9847527 -5.7518735 1.1026362
0 -0 0
8.2863388 -4.4938025 0.79619914
0 -0 0
9.0041084 -5.7682538 0.71231043
8.9200954 -5.2670588 0.59276444
8.307601 -4.5088997 0.44939783
9.140851 -6.3435087 0.43929416
9.0113106 -5.7790804 0.32034126
8.9180794 -5.2719579 0.21302749
8.3075705 -4.5133886 0.10313602
0 -0 0
9.0062828 -5.7805157 -0.073032424
8.9502516 -5.2958264 -0.167365
8.3159752 -4.521903 -0.24274804
0 -0 -0
0 -0 -0
1.6263125 -0.963624 -0.099929802
1.4220058 -0.77368158 -0.10099861
2.4087822 -1.6763693 -0.20716996
8.9273262 -5.7410655 -0.85025328
1.361463 -0.80698413 -0.14183313
1.4193138 -0.77276284 -0.16050555
2.3939214 -1.6670196 -0.31391728
3.1510036 -2.0283198 -0.43889067
3.1136789 -1.8466822 -0.45822558
1.4321316 -0.78019542 -0.22273318
2.3741944 -1.6561763 -0.41941282
0 -0 -0
1.3678083 -0.8119393 -0.26153263
1.4722522 -0.80235213 -0.29241848
2.4045491 -1.6800976 -0.53641397
3.4366446 -2.2171972 -0.78786802
1.216581 -0.72317523 -0.28650418
1.4751966 -0.80455798 -0.35777888
2.3848417 -1.6697369 -0.64562619
2.9822154 -1.9259331 -0.82213831
1.1496325 -0.68354183 -0.32325211
1.4652133 -0.7984497 -0.42127126
2.3482325 -1.6474054 -0.75038993
2.3578486 -1.5252221 -0.76311755
1.1612122 -0.69083834 -0.38150331
1.252871 -0.68267977 -0.4188458
5.0235577 -3.5331292 1.8973817
5.3379221 -3.4567187 1.8888201
5.6816025 -3.3803577 1.8935966
6.0319052 -3.2905028 1.8966019
5.8284736 -4.0937653 1.901675
6.2430944 -4.045208 1.9044968
6.6825309 -3.9826691 1.9126568
7.1576853 -3.9156642 1.9217273
6.9642181 -4.8913007 1.9327111
7.479331 -4.8447442 1.9302814
8.0664854 -4.8116798 1.940835
8.6814508 -4.7573261 1.9463283
8.5176172 -5.9794412 1.9607607
8.9390898 -5.7936268 1.8970963
8.896596 -5.3129501 1.7439064
8.830018 -4.8431482 1.5979748
9.0819235 -6.3767719 1.6699516
8.9918385 -5.8342791 1.5056614
8.905262 -5.3244529 1.3571343
8.8215399 -4.8487177 1.2206472
14.111008 -9.9115658 1.9497819
9.0043631 -5.8426294 1.1094216
8.8730631 -5.3100371 0.97019017
8.283926 -4.5584936 0.79863995
0 -0 0
8.990304 -5.8375211 0.71403855
8.9235849 -5.3432336 0.59516382
8.3261528 -4.5853276 0.45191482
9.1810436 -6.455224 0.44312099
9.0251265 -5.8664041 0.32210597
8.9387293 -5.3584499 0.21430214
8.311245 -4.5816565 0.1035287
0 -0 0
9.0167465 -5.8656592 -0.073407754
8.9484549 -5.3691645 -0.16794428
8.3248348 -4.5931268 -0.24382475
0 -0 -0
0 -0 -0
8.9364262 -5.3693738 -0.55111837
1.4102417 -0.7785334 -0.10050047
2.4008965 -1.6928422 -0.20738122
8.8635387 -5.7772279 -0.84753829
8.896122 -5.3470597 -0.93017185
1.4023513 -0.77472037 -0.15912189
2.3860848 -1.6833963 -0.31423825
3.1393306 -2.0481584 -0.43900698
3.1090906 -1.869843 -0.45923015
1.4273175 -0.78896815 -0.22273318
2.3704531 -1.6752822 -0.42055991
4.0410361 -2.639667 -0.74541384
1.2774142 -0.76891971 -0.24514626
4.0286131 -2.227694 -0.80286235
2.3797433 -1.6845897 -0.53317606
3.3901017 -2.2167466 -0.78030151
1.1743468 -0.70785755 -0.2775757
3.2613821 -1.804778 -0.79365265
2.3833108 -1.6905516 -0.64800775
2.9246943 -1.9143175 -0.80950391
1.1803786 -0.71166182 -0.33311883
1.4518014 -0.80273348 -0.41882345
2.3136349 -1.6444085 -0.74254441
2.3662002 -1.5513009 -0.76888686
1.1651918 -0.70292157 -0.38422057
1.2293451 -0.67967641 -0.41236734
5.0041184 -3.5655499 1.8982671
5.319016 -3.4909842 1.8896742
5.6582847 -3.413666 1.8927706
6.014132 -3.3288524 1.8974003
5.8056068 -4.1311316 1.9024489
6.2367806 -4.0956693 1.910201
6.6504884 -4.0190773 1.910508
7.1148019 -3.9491172 1.9166836
6.9086494 -4.9158487 1.9256244
7.4543662 -4.8937635 1.9315517
8.0309439 -4.8575363 1.9394184
8.6692486 -4.8200407 1.9501865
8.4807682 -6.0315919 1.9607607
8.9527435 -5.8807974 1.9076161
8.9135971 -5.3975754 1.753698
8.8536415 -4.9270134 1.6076908
10.441484 -7.4274416 1.9282866
8.9608355 -5.8926072 1.5064961
8.9309301 -5.414464 1.3660834
8.837575 -4.9283805 1.2270274
14.058833 -10.004301 1.951018
8.9592018 -5.8917575 1.1082908
8.8360577 -5.3617988 0.96972305
8.3167028 -4.643239 0.80453146
9.0922461 -6.4722166 0.85131437
8.9651518 -5.8997049 0.71490258
8.9469547 -5.4320836 0.59893429
8.3501797 -4.6655622 0.45476419
9.1697474 -6.5317264 0.44450179
9.0089941 -5.9348679 0.32282382
8.9518166 -5.4412384 0.21541229
8.3650112 -4.6784482 0.10455406
0 -0 0
8.9822559 -5.9219751 -0.073421404
8.9708652 -5.4577498 -0.16899022
8.330514 -4.6631637 -0.24482454
0 -0 -0
0 -0 -0
2.0936427 -1.2754961 -0.12959729
1.4002135 -0.78424549 -0.10012686
2.3815355 -1.7011641 -0.20660663
2.4685583 -1.6306677 -0.23699772
8.8835583 -5.4139848 -0.93231404
1.3914948 -0.77990472 -0.15843004
2.3829906 -1.7032088 -0.31520119
2.4316049 -1.6077816 -0.34141111
3.1068764 -1.8945665 -0.46061152
1.3973883 -0.78365672 -0.21880898
2.3770275 -1.7018944 -0.42357111
2.4730375 -1.6371627 -0.45802352
0 -0 -0
4.0019808 -2.245141 -0.80028516
2.3613682 -1.6934272 -0.5313772
2.4130266 -1.5990711 -0.55765551
1.2293586 -0.75133908 -0.29166281
3.2826557 -1.8429503 -0.8015663
2.3776498 -1.7085619 -0.64930683
2.4501426 -1.6252679 -0.68090379
1.2365307 -0.75590026 -0.3502681
1.4426205 -0.80925465 -0.41759953
2.3490374 -1.6913607 -0.75722319
2.3614597 -1.5689946 -0.77046031
1.2273557 -0.75073302 -0.40623042
1.2201304 -0.68439031 -0.41067731
4.9689765 -3.5866814 1.8932493
5.3038812 -3.5278029 1.891952
5.6454329 -3.4533367 1.8955241
5.9700589 -3.3524761 1.88995
5.784852 -4.1700664 1.9039967
6.2066941 -4.1306405 1.908713
6.6356378 -4.065896 1.9133729
7.0811067 -3.9874446 1.9141614
6.8854756 -4.9632792 1.9276175
7.4103651 -4.9302073 1.9279528
8.0026569 -4.9077458 1.9398232
8.6591673 -4.8842311 1.9546237
8.4547615 -6.0915575 1.9633528
8.9828739 -5.9798098 1.9218181
8.9223299 -5.4779649 1.761996
8.8404436 -4.9909563 1.6108249
10.384482 -7.4832759 1.9262033
8.9302788 -5.951323 1.5074698
8.9321728 -5.4904494 1.3714008
8.867651 -5.0167313 1.235454
14.205145 -10.240293 1.9800051
8.9659243 -5.9753041 1.1136369
0 -0 0
8.3244724 -4.7148075 0.80806643
0 -0 0
8.9586678 -5.9745331 0.71729535
8.9593668 -5.5151401 0.60201919
8.4447908 -4.786653 0.46150777
9.2089052 -6.6451693 0.44836807
8.9981804 -6.0072393 0.32375106
8.9727345 -5.5296335 0.21672805
8.417901 -4.7760715 0.10557943
0 -0 0
8.9864912 -6.004199 -0.073755786
8.9848642 -5.5420866 -0.16989133
8.3886747 -4.7635546 -0.24738817
0 -0 -0
0 -0 -0
0 -0 -0
1.403185 -0.79725975 -0.10068727
2.3653955 -1.7116513 -0.20611368
2.4543645 -1.6430111 -0.23659845
4.1425071 -2.5595946 -0.43638903
1.3953338 -0.79334652 -0.15941837
2.3733003 -1.7183815 -0.31530818
2.4423215 -1.6364931 -0.34431919
3.1534176 -1.9495916 -0.46927622
1.4020267 -0.79760534 -0.22029746
2.3681424 -1.7176096 -0.42385787
2.4465313 -1.6412945 -0.45497105
0 -0 -0
4.003541 -2.2784252 -0.80337769
2.3660541 -1.7188693 -0.53479499
2.4031694 -1.613847 -0.55765551
0 -0 -0
3.2245409 -1.8364357 -0.79011238
2.3758039 -1.729439 -0.65168846
2.4077833 -1.6185312 -0.67187923
1.1889067 -0.73684639 -0.33805215
1.4241447 -0.81041855 -0.413683
2.3003156 -1.6778073 -0.74482214
2.3581917 -1.5877663 -0.77255821
2.3792043 -1.4754171 -0.79045099
1.2309194 -0.70040554 -0.4157474
4.9669285 -3.6317654 1.9009237
5.2710066 -3.5527794 1.887966
5.6339412 -3.4939914 1.8988284
5.9987936 -3.4171953 1.9056486
5.7646179 -4.2094712 1.9058024
6.1748061 -4.1643128 1.9067289
6.6014915 -4.1008983 1.9107467
7.0784822 -4.0433707 1.9201224
6.8651299 -5.0129099 1.9304965
7.3905096 -4.9826865 1.930705
7.9773827 -4.9598589 1.9410372
8.6205177 -4.9323978 1.9526945
8.4140501 -6.1410031 1.9626123
9.0276299 -6.0898724 1.9393514
8.9404564 -5.5649171 1.7722856
8.8465071 -5.0662117 1.6175635
10.346357 -7.5526834 1.9276913
9.0396729 -6.1046557 1.5322303
8.9454412 -5.5745201 1.3786638
8.8754482 -5.0932822 1.2408711
14.183773 -10.357734 1.9858475
14.052273 -9.4901133 1.7526004
9.0289412 -5.631588 0.99840093
0 -0 0
9.2955523 -6.790338 0.87808663
0 -0 0
8.9871864 -5.6085954 0.60618961
8.9105835 -5.1231656 0.48867208
9.2268457 -6.7445946 0.45124805
8.8377943 -5.9788857 0.31929439
8.9767923 -5.6084237 0.21765317
8.9500341 -5.1508379 0.11264787
0 -0 0
0 -0 -0
8.980361 -5.6156669 -0.17045453
8.922348 -5.1392589 -0.26405162
0 -0 -0
0 -0 -0
2.0050452 -1.2555144 -0.12505743
1.368866 -0.78891015 -0.098570161
2.3588712 -1.7290816 -0.20646578
2.452486 -1.6636357 -0.23739696
4.1461377 -2.5971251 -0.43844199
1.3852675 -0.79891038 -0.15882538
2.3707294 -1.7387918 -0.31637812
2.4273043 -1.6481006 -0.34362125
3.1800644 -1.9931399 -0.47505271
1.3825173 -0.79777455 -0.21799706
2.362344 -1.7356237 -0.4247182
2.3980007 -1.6301615 -0.44779775
0 -0 -0
1.3685062 -0.78997606 -0.27558124
2.3594244 -1.7362701 -0.53569442
2.3875391 -1.6246953 -0.55633134
3.3953795 -2.1327987 -0.81169564
3.2614863 -1.8840733 -0.80198276
2.3620043 -1.7416664 -0.65082234
2.3889499 -1.6272418 -0.66939747
2.6798377 -1.6837243 -0.76490468
1.3679217 -0.78957504 -0.39875126
2.299315 -1.6987889 -0.74785912
2.3324621 -1.5913289 -0.76731342
2.3521821 -1.4787195 -0.784473
1.1966815 -0.69067812 -0.40560719
4.9345694 -3.6547809 1.8970865
5.2562323 -3.5899208 1.8905284
5.605886 -3.5244017 1.8966256
5.9919024 -3.4621372 1.910172
5.7239223 -4.2338467 1.9009011
6.1395407 -4.1955633 1.9037528
6.5655222 -4.1346002 1.9076428
7.0594344 -4.0901432 1.9217273
6.8271861 -5.0497203 1.9285033
7.3420429 -5.015811 1.9260474
7.9310594 -4.9987931 1.9371926
8.5833015 -4.9812593 1.9511511
8.3501348 -6.1732364 1.9565023
9.0559273 -6.1901512 1.9535532
8.9561815 -5.6512437 1.7822431
8.8818684 -5.1590905 1.629787
10.426243 -7.709506 1.9513524
9.0380049 -6.1846142 1.5383509
8.9471149 -5.6520748 1.3842407
8.874917 -5.1656232 1.2452047
14.120751 -10.445159 1.9859598
14.067658 -9.6267157 1.7618533
8.9900084 -5.6842217 0.99793386
8.9883242 -5.237514 0.87868071
9.2537127 -6.8472466 0.87808663
0 -0 0
8.987196 -5.6855178 0.60853189
8.9160833 -5.1993804 0.4907141
9.2158041 -6.8236775 0.4527472
0 -0 0
8.9979572 -5.6987047 0.21901004
8.9363966 -5.2162433 0.11287694
0 -0 0
0 -0 -0
9.0014715 -5.7059951 -0.17151655
8.9199944 -5.2110534 -0.26492324
0 -0 -0
0 -0 -0
2.0310278 -1.2891998 -0.12716898
1.3433198 -0.78520662 -0.097075731
2.35062 -1.7453068 -0.20667705
2.4126592 -1.6583258 -0.23452233
4.1460996 -2.6326604 -0.44013792
1.3777626 -0.80588788 -0.15852888
2.3153214 -1.7201012 -0.31038651
2.4097817 -1.6578966 -0.34257433
3.1861968 -2.0243192 -0.47781536
1.3784515 -0.80674297 -0.21813239
2.3714986 -1.7648573 -0.42830294
2.3944643 -1.6493295 -0.44901872
0 -0 -0
1.3848869 -0.81080139 -0.27987647
2.3424165 -1.7460114 -0.53425533
2.3823755 -1.6426586 -0.55746633
3.349159 -2.1325352 -0.80375922
3.2270792 -1.8907003 -0.79635996
2.3520555 -1.7567109 -0.65103889
2.3933525 -1.6518302 -0.67345852
2.9022956 -1.8484278 -0.83162242
2.7453475 -1.6071736 -0.80313247
0 -0 -0
2.3083656 -1.5957334 -0.76259315
2.3601081 -1.5039854 -0.79017931
1.1874526 -0.69509947 -0.40391716
4.9112868 -3.6844163 1.8967912
5.216764 -3.6101038 1.8842647
5.5792909 -3.5556324 1.8949735
5.9497547 -3.4866536 1.90352
5.7086611 -4.2769985 1.9045125
6.1152744 -4.2342587 1.9042487
6.5392108 -4.1742849 1.9074042
7.0308485 -4.1314096 1.9208102
6.7898297 -5.0868387 1.9267317
7.3119316 -5.0613222 1.926259
7.9093156 -5.0531626 1.9394184
8.5415831 -5.0273619 1.9486433
8.3018732 -6.2166986 1.9540954
9.0420561 -6.2624173 1.9588133
8.937952 -5.7167187 1.7855624
8.898551 -5.2420654 1.6387194
9.2018032 -6.8918471 1.7300711
9.1056805 -6.3133049 1.5564343
8.9815731 -5.7512474 1.3950055
8.899478 -5.2532878 1.2531497
9.223814 -6.9108453 1.3031878
14.067181 -9.7536602 1.7692556
9.0019026 -5.7693615 1.003165
8.9474401 -5.287497 0.87783903
9.1947689 -6.8913398 0.8764894
0 -0 0
9.0160131 -5.7815132 0.61287367
8.9252815 -5.2783971 0.49299365
9.2385111 -6.9286571 0.45594275
0 -0 0
9.0124598 -5.7856746 0.22022299
8.9291763 -5.2857494 0.11319327
9.2551022 -6.9431195 0.032915298
0 -0 -0
9.0268574 -5.8000355 -0.17267512
8.9076338 -5.2774072 -0.26551285
0 -0 -0
0 -0 -0
2.0205598 -1.3000166 -0.12701061
8.9194574 -5.2873569 -0.64690173
0 -0 -0
2.4089825 -1.6776558 -0.23516114
4.1030664 -2.6408012 -0.43728161
1.3847737 -0.82143408 -0.15991254
3.7943327 -2.8551877 -0.51099825
2.4028227 -1.6749234 -0.34303963
3.1878955 -2.0529625 -0.47995016
1.3564348 -0.80507189 -0.21542603
0 -0 -0
2.3761947 -1.6583347 -0.44749248
0 -0 -0
1.2240239 -0.72674328 -0.24826364
3.5155456 -2.6541593 -0.80552036
2.393986 -1.6724292 -0.56257379
3.3335407 -2.1514509 -0.80316406
1.203259 -0.71492589 -0.29801023
2.8722334 -2.1728046 -0.79869717
2.3807769 -1.6648096 -0.67278165
2.9358144 -1.8951958 -0.8445431
1.1788797 -0.69988406 -0.34612292
0 -0 -0
2.3080158 -1.6165104 -0.76573998
2.3484101 -1.5168719 -0.7893641
1.1559376 -0.68620908 -0.394622
4.8961949 -3.7202625 1.8997431
5.2047186 -3.6491995 1.887966
5.5266829 -3.5699775 1.88451
5.9033895 -3.508321 1.8955377
5.6569118 -4.2926726 1.8959999
6.0923505 -4.2739267 1.9052408
6.5314116 -4.2259359 1.9126568
6.9978409 -4.1699882 1.9187468
6.7491679 -5.1213307 1.9240742
7.3071437 -5.1246109 1.9332452
7.8798046 -5.1026626 1.9398232
8.4920387 -5.0686135 1.9443991
8.2604399 -6.2651453 1.9533546
9.0058775 -6.3194766 1.9593391
8.9391155 -5.7950559 1.7928646
8.9018297 -5.3178406 1.6453012
9.1632814 -6.9511666 1.7308151
9.0886507 -6.3844266 1.5601902
8.9652452 -5.8186646 1.3979884
8.9352188 -5.3485847 1.2627801
9.1741114 -6.961905 1.3021766
14.075439 -9.8878202 1.7778916
9.0022354 -5.8478093 1.0071818
8.8686724 -5.3146391 0.87329412
9.1793146 -6.9681263 0.87907541
0 -0 0
9.0038071 -5.8519592 0.61447322
8.9227085 -5.3510427 0.49465579
9.2157164 -7.0003238 0.45692909
0 -0 0
9.0153379 -5.8659468 0.22116868
8.952302 -5.3738899 0.11390229
9.2155104 -7.0021968 0.032926675
0 -0 -0
9.0288029 -5.879868 -0.17339922
8.9702024 -5.3891087 -0.26835847
0 -0 -0
1.9827675 -1.3974224 -0.10501881
1.9648663 -1.2812986 -0.12400164
8.9381704 -5.3728375 -0.65063781
8.0210524 -6.1096444 -0.71178591
2.408417 -1.6993015 -0.23611936
4.0559201 -2.6457932 -0.43397903
8.8939114 -5.3498259 -1.030833
3.7727885 -2.8754022 -0.5104633
2.3908777 -1.6884893 -0.34280697
3.215116 -2.0985124 -0.48597777
3.2742572 -1.9706062 -0.52192098
4.3319693 -3.3071985 -0.78964323
2.3708165 -1.676307 -0.44840822
4.0313993 -2.6335101 -0.79173642
0 -0 -0
3.5187292 -2.6906183 -0.81001747
2.3732593 -1.6797123 -0.56011462
3.2636812 -2.1348441 -0.78947371
1.2181183 -0.73390472 -0.30280006
2.9154196 -2.233732 -0.81450224
2.3689272 -1.6782602 -0.6723305
2.7712133 -1.8131247 -0.80037785
1.2194191 -0.73410833 -0.3593412
0 -0 -0
2.2933316 -1.627291 -0.76416653
2.3350325 -1.5286174 -0.78800541
1.1648583 -0.70120651 -0.39912876
4.8649464 -3.7438252 1.8964961
5.1986413 -3.6927242 1.8939451
5.504674 -3.6038215 1.88451
5.8966122 -3.5534329 1.900327
5.6312323 -4.3278904 1.8962579
6.0699596 -4.3140345 1.9064808
6.4956145 -4.259542 1.9097917
6.9704566 -4.2118411 1.9182884
6.7036986 -5.1519499 1.9200877
7.2675958 -5.1636901 1.9311283
7.8499846 -5.1519909 1.9402279
8.4649754 -5.1231647 1.9453638
8.2070351 -6.304338 1.9498367
8.9508848 -6.3632083 1.9558326
8.9520149 -5.8817444 1.8026562
8.9095802 -5.3969231 1.6528234
0 -0 0
0 -0 0
8.8606157 -5.8283372 1.3872237
8.9582434 -5.4373055 1.2707251
13.772467 -10.585229 1.9640509
9.1358061 -6.5018735 1.1589761
8.9445629 -5.8887014 1.004753
8.8350449 -5.3684392 0.87321001
9.1126719 -7.0060859 0.87679368
9.1149759 -6.4913635 0.7454102
8.975234 -5.9120383 0.61498737
8.9622517 -5.4498038 0.49869245
9.3191032 -7.169456 0.46422762
0 -0 0
9.0042152 -5.937665 0.22178543
8.9960346 -5.4755096 0.11488403
0 -0 0
0 -0 -0
8.9958925 -5.9373598 -0.1734636
8.9711161 -5.4648499 -0.26938391
0 -0 -0
0 -0 -0
2.0044544 -1.3247142 -0.12701061
8.9374208 -5.4473186 -0.65300399
7.9534006 -6.1355925 -0.70910996
2.4092979 -1.7221625 -0.23723727
2.4543412 -1.6225917 -0.26367217
8.921237 -5.4410858 -1.0378503
3.7196567 -2.8711588 -0.50564861
2.3837035 -1.7054396 -0.3432723
2.4492121 -1.6201224 -0.37170392
3.2088211 -1.9581443 -0.51339597
4.3695316 -3.3785133 -0.80025399
2.3564689 -1.6879449 -0.4476451
2.4559972 -1.6259667 -0.48428962
0 -0 -0
3.5324855 -2.7356479 -0.81703293
2.3700902 -1.6993923 -0.56181705
2.4360523 -1.6149036 -0.59165889
1.1660168 -0.71230197 -0.29092962
2.9386816 -2.2803071 -0.82489467
2.3522532 -1.6882197 -0.67052555
2.4821694 -1.6458496 -0.71979976
1.1875815 -0.72490644 -0.35126337
0 -0 -0
0 -0 -0
2.3304207 -1.5461084 -0.78963578
2.3734844 -1.4486743 -0.81628454
4.8381147 -3.7706687 1.8950201
5.182888 -3.7295921 1.8965075
5.4848604 -3.6391242 1.885336
5.8672953 -3.5850239 1.8979324
5.6434541 -4.3926272 1.9094138
6.039444 -4.3483677 1.9052408
6.4523716 -4.2880311 1.9047778
6.8980031 -4.2260566 1.9054494
6.6811953 -5.2001739 1.9227452
7.2405338 -5.2116113 1.9323984
7.8108859 -5.1951795 1.9384066
8.4467621 -5.183219 1.9484503
8.1852617 -6.3678522 1.9539101
8.8909006 -6.4030514 1.9512739
8.933815 -5.9485865 1.8063074
8.9343672 -5.4871535 1.6636363
0 -0 0
0 -0 0
8.8040609 -5.8688459 1.3839813
8.9526119 -5.5093393 1.2746977
13.628061 -10.607891 1.9527032
14.211236 -10.245955 1.8107908
8.952158 -5.9727602 1.009704
8.806179 -5.4251614 0.87363076
9.2551823 -7.2064385 0.89474332
0 -0 0
8.9977446 -6.0063529 0.61904353
8.9737082 -5.5324759 0.50120944
9.339571 -7.2768612 0.46746269
0 -0 0
8.9992008 -6.0139112 0.22256665
8.9997091 -5.5537105 0.11536398
0 -0 0
0 -0 -0
9.0058336 -6.0235753 -0.1743647
8.9612303 -5.5345011 -0.27010173
0 -0 -0
0 -0 -0
1.9614403 -1.3136494 -0.12479347
8.9496756 -5.5303864 -0.65636641
7.9108868 -6.180593 -0.70868742
2.3696206 -1.7158668 -0.23436263
2.4385464 -1.6337399 -0.26304734
8.9520063 -5.5354977 -1.0453616
3.7011862 -2.8933158 -0.50554162
2.3619354 -1.7118733 -0.34164372
2.4342809 -1.6318057 -0.37095049
3.2633095 -2.0189788 -0.52408606
4.3043046 -3.3704817 -0.79208076
2.3476672 -1.7035331 -0.44795036
2.4426966 -1.6388068 -0.48364067
0 -0 -0
3.4366825 -2.6953511 -0.79868472
2.3699465 -1.7214049 -0.56427622
2.4147074 -1.6221688 -0.58888113
1.1882325 -0.73592281 -0.29759371
2.9484308 -2.3169956 -0.83160639
2.3686411 -1.7220991 -0.67819637
2.4534676 -1.6485802 -0.71439654
1.2243346 -0.75769109 -0.3635025
0 -0 -0
0 -0 -0
2.2993267 -1.5458808 -0.78229922
2.3686302 -1.465735 -0.81769288
4.8133874 -3.7991002 1.8944298
5.1506104 -3.7545471 1.8930908
5.4544501 -3.6673462 1.8825827
5.8402705 -3.6179116 1.8963358
5.5905972 -4.4068365 1.9006432
6.0095186 -4.38306 1.9042487
6.4323831 -4.331881 1.906688
6.9058428 -4.2893581 1.9148493
6.6491618 -5.2410707 1.9227452
7.2171073 -5.2622743 1.9347272
7.7658691 -5.234251 1.9351689
8.4189653 -5.2375417 1.949415
8.1514387 -6.4222131 1.9552062
8.8713284 -6.4719901 1.9556572
9.3483801 -6.3077583 1.8979173
8.968442 -5.5841551 1.6763299
0 -0 0
0 -0 0
9.1072283 -6.1519847 1.4375457
8.9666471 -5.5941195 1.2815593
13.512772 -10.651941 1.9455125
14.165772 -10.345868 1.8130525
14.050591 -9.4994707 1.591295
9.006834 -5.625308 0.89694446
0 -0 0
9.2891951 -6.7887716 0.76641327
0 -0 0
9.0141306 -5.6340213 0.5053885
9.3590689 -7.3847852 0.4706977
9.249856 -6.7669582 0.34295359
0 -0 0
9.0137835 -5.6390562 0.11598574
9.4539909 -7.4618254 0.034263771
0 -0 -0
0 -0 -0
8.9804821 -5.6228042 -0.2717168
0 -0 -0
0 -0 -0
1.9954838 -1.3542591 -0.12748572
8.9502516 -5.6069207 -0.65891945
8.0151892 -6.3416638 -0.72150356
2.3783379 -1.7445238 -0.23627906
2.4342446 -1.652588 -0.26367217
8.9524412 -5.6119919 -1.0494137
3.6740088 -2.9085658 -0.50425774
2.3706017 -1.7404407 -0.34443554
2.4250431 -1.6472688 -0.37107608
3.2617717 -2.0458081 -0.52584517
4.2951741 -3.4060528 -0.79423159
2.3443372 -1.7231739 -0.44932398
2.3926094 -1.6265804 -0.47569084
0 -0 -0
3.5263791 -2.8008156 -0.82350874
2.3427303 -1.7236936 -0.56030381
2.3917451 -1.6281301 -0.58570659
3.1915855 -2.0038831 -0.80239928
2.9280474 -2.3301797 -0.82987434
2.3635211 -1.7406445 -0.67977577
2.413578 -1.6433622 -0.70570445
0 -0 -0
0 -0 -0
0 -0 -0
2.3247931 -1.583801 -0.79425514
2.3417101 -1.4690232 -0.81149608
4.7825232 -3.8225977 1.8914782
5.1020274 -3.7672892 1.8836951
5.4818974 -3.7348456 1.8999298
5.8310227 -3.661881 1.900593
5.5657172 -4.4428649 1.901417
5.9747195 -4.4140944 1.9017686
6.414505 -4.3772888 1.9093142
6.886807 -4.3363185 1.9169127
6.616878 -5.2817707 1.9227452
7.1721034 -5.2971683 1.9313399
7.7368407 -5.2840118 1.9359783
8.3883295 -5.2901473 1.9498007
8.112648 -6.4727216 1.9553914
8.8274918 -6.523376 1.9547805
9.3729963 -6.4084129 1.9108621
8.9841213 -5.6707096 1.6857326
0 -0 0
9.172843 -6.7857661 1.6027559
9.1110392 -6.2363129 1.44416
8.9875288 -5.6840539 1.2895044
13.366394 -10.67018 1.9338278
14.119617 -10.445608 1.8153145
14.088139 -9.6513395 1.6022242
8.9704647 -5.6794009 0.89677614
0 -0 0
9.2144861 -6.821301 0.76368821
0 -0 0
9.0165176 -5.7127476 0.50747812
9.3229485 -7.4495573 0.47117114
9.165596 -6.7920456 0.34136832
0 -0 0
8.99928 -5.7071104 0.11624753
9.3150721 -7.4453955 0.033925228
0 -0 -0
0 -0 -0
8.9998293 -5.7120852 -0.27335751
0 -0 -0
0 -0 -0
0 -0 -0
8.9805546 -5.7029305 -0.66371405
0 -0 -0
2.343585 -1.7412496 -0.23388353
2.4166732 -1.6624128 -0.26286882
8.984189 -5.7089796 -1.0572217
3.6529899 -2.9285667 -0.50382972
2.3495171 -1.7472486 -0.34292331
2.4099867 -1.6587427 -0.37032261
3.2525017 -2.0679097 -0.52638644
4.2487297 -3.4118943 -0.78949976
2.3392689 -1.7416573 -0.45039234
2.4028993 -1.6552247 -0.47974688
0 -0 -0
3.3742201 -2.7138941 -0.7918492
2.339196 -1.7433169 -0.56200629
2.3865511 -1.6461139 -0.58689702
3.1784048 -2.0229034 -0.80219108
2.7981501 -2.2549868 -0.79696518
2.3691947 -1.7673467 -0.68451363
2.4114499 -1.6636605 -0.70805365
2.5313387 -1.6098354 -0.75735807
0 -0 -0
0 -0 -0
0 -0 -0
2.2881207 -1.4550458 -0.79600418
4.7545218 -3.8482642 1.8897071
5.0749779 -3.7956531 1.8822716
5.4454284 -3.7591274 1.8952488
5.8019385 -3.6934493 1.8984644
5.540606 -4.478754 1.9021909
5.9444203 -4.44835 1.9007766
6.4035006 -4.4276104 1.9140892
6.8477631 -4.3706388 1.9134737
6.5866203 -5.324111 1.9234097
7.1222496 -5.328196 1.9266826
7.7348742 -5.352561 1.943668
8.3590183 -5.3436317 1.9505724
8.0727797 -6.522378 1.9553914
8.7825699 -6.5738783 1.9537286
9.5345325 -6.6050706 1.95202
8.9865932 -5.7496805 1.6927844
0 -0 0
9.2451515 -6.9274311 1.6227869
9.0766764 -6.2949252 1.4448085
8.9842415 -5.7594523 1.2940788
13.231125 -10.695774 1.9237161
9.2361765 -6.9209576 1.1929033
14.124349 -9.8040247 1.6131536
9.0058908 -5.7795429 0.90384597
0 -0 0
9.2387161 -6.9273944 0.76920485
0 -0 0
9.0342445 -5.80197 0.51046997
9.2941513 -7.5204492 0.47203904
9.2452602 -6.9393616 0.34591475
0 -0 0
9.0246544 -5.8011513 0.11703292
9.2793179 -7.5105906 0.033962213
9.2490368 -6.9474978 -0.078942172
0 -0 -0
9.0335512 -5.8115506 -0.27545968
0 -0 -0
0 -0 -0
1.9926435 -1.3883495 -0.12838313
8.9806404 -5.7806149 -0.66632932
8.7439175 -7.0944352 -0.79487914
0 -0 -0
2.3966219 -1.6703757 -0.2617977
8.9523363 -5.7661533 -1.0576169
3.5886369 -2.9133265 -0.49741015
3.7969019 -2.8599632 -0.55672693
2.3899982 -1.666689 -0.36881569
3.2805612 -2.1141269 -0.53301704
4.2023759 -3.417295 -0.78476793
4.0629086 -3.0638869 -0.78585905
2.3870335 -1.6659842 -0.47861117
0 -0 -0
3.3636062 -2.7395165 -0.79328823
3.3175194 -2.5042336 -0.80073124
2.3860462 -1.6674637 -0.58927792
3.1864798 -2.0556228 -0.80739737
2.8198113 -2.3011243 -0.80714101
2.8106902 -2.1236558 -0.81582111
2.3796861 -1.6633899 -0.70171082
2.512449 -1.6195586 -0.75466549
0 -0 -0
0 -0 -0
0 -0 -0
0.62503219 -0.40287331 -0.21829554
4.7352538 -3.8809988 1.8914782
5.0462432 -3.822669 1.8802785
5.4057169 -3.7808983 1.8894664
5.7759271 -3.7268894 1.8974003
5.5264778 -4.5236816 1.9068341
5.9239621 -4.4900069 1.9030087
6.3475809 -4.4467602 1.9054941
6.8191824 -4.4115162 1.9130152
6.5515642 -5.3625722 1.9227452
7.0917587 -5.3735671 1.9273176
7.6505666 -5.3639398 1.9307169
8.3145447 -5.387351 1.9478716
8.0356493 -6.5742779 1.9561319
8.7404985 -6.6264539 1.953378
0 -0 0
8.9710331 -5.8176098 1.6965455
0 -0 0
9.1740732 -6.9624758 1.6177791
9.0727663 -6.3750129 1.4503855
8.9478998 -5.8139291 1.2939583
13.05068 -10.682976 1.9069754
9.1665964 -6.9570532 1.1894077
14.123378 -9.9323149 1.6199728
9.0061769 -5.8580561 0.90746504
0 -0 0
9.1976261 -6.9851584 0.76933777
0 -0 0
9.0101948 -5.8649225 0.5111348
9.2648363 -7.5912681 0.47290698
9.1873884 -6.9844656 0.34534645
0 -0 0
9.0274296 -5.881526 0.11753469
0 -0 0
9.173604 -6.9792933 -0.078662373
0 -0 -0
9.024518 -5.8843422 -0.27628002
0 -0 -0
0 -0 -0
1.9946929 -1.4080366 -0.12906939
9.0060234 -5.8754191 -0.67087483
0 -0 -0
7.3323846 -5.5888019 -0.73854172
2.414804 -1.7051578 -0.26492178
4.0613422 -2.651288 -0.48171431
3.5223062 -2.8955142 -0.49066964
3.7698061 -2.8759775 -0.55533105
2.3789165 -1.68075 -0.36869013
3.2243917 -2.1060417 -0.52598047
4.1637573 -3.4285469 -0.78147
4.0448174 -3.0893586 -0.78601164
2.3791833 -1.6823084 -0.4790979
3.6509418 -2.3854651 -0.76059735
3.3027174 -2.7238028 -0.78285497
3.2974107 -2.5209639 -0.79959625
2.3773699 -1.6832055 -0.58967477
3.0084448 -1.9670171 -0.76533026
2.7808034 -2.2978609 -0.79999626
