# .PCD v0.7 - Point Cloud Data file format
VERSION 0.7
FIELDS x y z
SIZE 4 4 4
TYPE F F F
COUNT 1 1 1
WIDTH 1714
HEIGHT 1
VIEWPOINT 0 0 0 1 0 0 0
POINTS 1714
DATA ascii
8.3142862 -4.6380129 0.54477656
8.2325506 -4.2099762 0.43961486
8.9874601 -5.9156504 0.42481542
8.9522057 -5.4358335 0.31340206
8.3438511 -4.6600442 0.19651899
8.2627354 -4.2297797 0.10125981
9.0253382 -5.9423881 0.030741805
8.9693928 -5.4507694 -0.071626641
8.3417902 -4.6632872 -0.15380009
8.2527332 -4.2284775 -0.23780026
0 -0 -0
0 -0 -0
1.4063637 -0.78732342 -0.085201636
1.4814191 -0.75949615 -0.10386294
2.4458668 -1.6145518 -0.2068883
8.7615862 -5.3351688 -0.82174647
1.3756431 -0.77040905 -0.14129756
1.4591 -0.74860036 -0.16287756
2.4639771 -1.6274948 -0.31776902
8.8726864 -5.4081287 -1.2169822
1.3752148 -0.77064216 -0.19953972
1.4825791 -0.76110417 -0.22760463
2.4743738 -1.6372788 -0.4298802
0 -0 -0
1.4140016 -0.79309106 -0.2665621
1.4967575 -0.76867992 -0.29344934
2.4319377 -1.6118857 -0.53353578
0 -0 -0
3.4839776 -1.9569064 -0.80891788
1.5153749 -0.77884287 -0.36277694
2.4633234 -1.6360937 -0.65580207
1.1810139 -0.7222634 -0.32059786
1.444865 -0.81176156 -0.40054131
1.4835043 -0.76180816 -0.42102647
2.4048676 -1.6005369 -0.75570464
1.24172 -0.76066989 -0.39571974
1.2784846 -0.71872526 -0.41411045
1.3076578 -0.6714499 -0.431521
5.0952406 -3.3997657 1.8923637
5.4186954 -3.323175 1.887966
5.7578216 -3.2370794 1.8919445
6.1485629 -3.1608732 1.9083095
5.9376364 -3.956459 1.9050285
6.3330574 -3.8862166 1.9022647
6.7799501 -3.8184252 1.9131342
7.2360525 -3.7307978 1.9176005
7.0935206 -4.7264872 1.9358116
7.6068048 -4.6663766 1.9330336
8.2068806 -4.6262155 1.9467034
8.7371759 -4.512671 1.9334029
8.6585236 -5.7664285 1.9600202
8.9107695 -5.469502 1.8620298
8.8430958 -4.9907494 1.708889
8.7663612 -4.5320096 1.5658492
8.993721 -5.9907975 1.6262013
8.9391012 -5.4931231 1.4738066
8.8700905 -5.0121098 1.3326219
8.770402 -4.5439963 1.1977752
8.7816648 -5.851758 1.1931938
0 -0 0
8.3108759 -4.7005239 0.89583313
8.2482395 -4.2785754 0.78483695
8.9587812 -5.9718142 0.82127154
8.9141226 -5.4818468 0.69708985
8.3551817 -4.7282777 0.5493468
8.2686205 -4.2926278 0.44293919
9.0199881 -6.0167074 0.42808992
8.9637957 -5.5184331 0.3149873
8.3490257 -4.7303748 0.19732079
8.268569 -4.296999 0.10165251
8.9961929 -6.0026498 0.030767409
8.9774942 -5.531405 -0.071961023
8.3834696 -4.7543364 -0.15510349
8.2700901 -4.3016396 -0.23905644
0 -0 -0
1.7841009 -1.1001606 -0.090745248
1.3850077 -0.78656811 -0.084198639
1.4501711 -0.75474846 -0.1019949
2.4317684 -1.6267557 -0.2065362
8.831316 -5.4521894 -0.83140844
1.3734882 -0.78031129 -0.14156535
1.4447708 -0.75248271 -0.16179039
2.4704697 -1.6536441 -0.31990889
8.8376446 -5.4614244 -1.2167495
1.3652855 -0.77612406 -0.19878626
1.4594296 -0.76057088 -0.22476296
2.4297581 -1.6292809 -0.42385787
0 -0 -0
4.2333298 -2.4086728 -0.80082196
1.4789096 -0.77101815 -0.29087222
2.4138355 -1.6212927 -0.53173697
0 -0 -0
3.4088876 -1.9423405 -0.79423559
1.5123017 -0.78903121 -0.36319345
2.4305606 -1.6359142 -0.64973986
1.2560461 -0.77877969 -0.34225681
2.9346058 -1.672508 -0.81635249
1.4856802 -0.77448201 -0.42298475
2.376554 -1.602821 -0.74988377
0 -0 -0
1.2498068 -0.71273082 -0.40623042
1.3069166 -0.6812349 -0.43264768
5.080616 -3.4352467 1.894725
5.4071574 -3.3619285 1.8910978
5.7478719 -3.2780628 1.8952488
6.1281977 -3.1980946 1.9080434
5.9164515 -3.9949801 1.9060603
6.3140283 -3.9280727 1.9037528
6.7555494 -3.8594723 1.9128954
7.2302728 -3.7841544 1.922186
7.0571122 -4.7650123 1.9338185
7.5805192 -4.7145119 1.9336687
8.1757898 -4.6750259 1.9460963
8.7588568 -4.5921664 1.9443991
8.6205339 -5.8177986 1.9594647
8.9221792 -5.5521631 1.8714978
8.8576641 -5.0708823 1.7176847
8.7733698 -4.6040711 1.5721176
9.0485897 -6.1078329 1.6428682
8.9371672 -5.5677671 1.4790925
8.8632574 -5.0802474 1.3362534
8.8029804 -4.6296082 1.2060814
14.093416 -9.5166903 1.9228171
9.0149803 -5.6164622 1.0978042
0 -0 0
8.2500458 -4.3439608 0.78753018
8.9938545 -6.0752287 0.82788855
8.9319677 -5.5686407 0.70114422
8.8957415 -5.1065016 0.58693731
8.2765894 -4.361443 0.44479129
9.09797 -6.1497207 0.43357369
8.9865799 -5.608789 0.3169913
8.9170904 -5.1247592 0.21148561
8.2977667 -4.3770447 0.10233971
8.9649906 -6.0616574 0.030787323
8.9925766 -5.6171126 -0.072356835
8.9183626 -5.1302538 -0.16557889
8.2665243 -4.3644381 -0.23972298
0 -0 -0
2.1288834 -1.3308681 -0.10869533
1.3602535 -0.7835868 -0.082984492
1.45875 -0.77062529 -0.10292892
2.4159613 -1.6377282 -0.20604327
8.8737421 -5.5538707 -0.83859503
1.3591816 -0.78325385 -0.1405835
1.4330887 -0.75761288 -0.16099972
2.4421742 -1.6564929 -0.31755504
8.8435278 -5.5403318 -1.2222168
1.3562005 -0.78200883 -0.19815838
1.4442255 -0.76395208 -0.22313914
2.4148037 -1.6408217 -0.4229975
0 -0 -0
4.2201796 -2.4355891 -0.80114645
1.4776337 -0.78192109 -0.29155946
2.4176667 -1.6454822 -0.53479499
3.3812664 -2.123162 -0.76914078
3.4953415 -2.0201111 -0.81725109
1.4910091 -0.78959864 -0.35923663
2.4309623 -1.6579481 -0.65255445
2.9949024 -1.882452 -0.81920534
2.9453263 -1.7026447 -0.82222557
1.4791862 -0.78267646 -0.42249519
2.3435111 -1.6015434 -0.74254441
2.3861876 -1.5023426 -0.76626444
1.3603709 -0.78688329 -0.4437286
1.2976234 -0.68654883 -0.43095767
5.0633831 -3.4690564 1.8962009
5.3977809 -3.402199 1.8950839
5.7218246 -3.3098998 1.8933214
6.0854602 -3.2234538 1.9008592
5.9133563 -4.045938 1.9130251
6.2971821 -3.9713919 1.9059849
6.7384629 -3.9047463 1.9148055
7.2043386 -3.8270772 1.9214981
7.018084 -4.8016162 1.9311609
7.5721169 -4.7739668 1.9389611
8.1461029 -4.7246122 1.9458939
8.7599659 -4.6614957 1.9509584
8.5660181 -5.8578253 1.9552062
8.9370708 -5.6377954 1.8818424
8.8630533 -5.1464291 1.7248211
8.7911539 -4.6824241 1.5804231
9.035429 -6.1799865 1.6473324
8.989913 -5.6774926 1.4935594
8.8919239 -5.1694202 1.345332
8.8103151 -4.7027016 1.2110169
14.06674 -9.6248703 1.9271989
8.9971695 -5.6822948 1.0998604
0 -0 0
8.2680569 -4.4184523 0.79182255
8.9317245 -6.1134043 0.82560682
9.0005331 -5.6883755 0.70925301
8.8996162 -5.1815848 0.58927959
8.2857857 -4.4314599 0.44673839
9.1218948 -6.247777 0.43653256
8.9925413 -5.6894765 0.31842703
8.9105272 -5.1939778 0.21208182
8.3130684 -4.4505305 0.1028633
0 -0 0
9.0094767 -5.7048168 -0.072773106
8.9264431 -5.2080574 -0.16631907
8.3250608 -4.4608769 -0.24220969
0 -0 -0
0 -0 -0
1.3416243 -0.78385824 -0.082139865
1.4522349 -0.77861828 -0.10280438
2.3992891 -1.6480033 -0.20547993
8.9405012 -5.672296 -0.84817713
1.3577899 -0.79358923 -0.14094053
1.4275361 -0.76592141 -0.16090088
2.4360611 -1.6742623 -0.31808999
3.1977654 -2.0307779 -0.44365993
1.3513765 -0.79031563 -0.19815838
1.4325271 -0.76905012 -0.2220566
2.375345 -1.6354038 -0.4178355
0 -0 -0
1.3804288 -0.80801749 -0.2629928
1.4719404 -0.7905069 -0.29138765
2.4002366 -1.6552597 -0.53317606
3.446871 -2.1939595 -0.78711146
3.4211545 -2.0053387 -0.80276716
1.4895823 -0.80058455 -0.36006966
2.4127119 -1.6672828 -0.65038937
2.9323552 -1.8683366 -0.80521727
2.9440475 -1.7260927 -0.82480967
1.4692307 -0.78898555 -0.42102647
2.3598876 -1.6340674 -0.75089616
2.3997011 -1.5314918 -0.77360713
1.2285151 -0.72070968 -0.40215451
1.2832422 -0.68905097 -0.42757761
5.031014 -3.4924316 1.8920685
5.366302 -3.4285457 1.8913825
5.7080412 -3.3488376 1.8955241
6.0664158 -3.2611892 1.9011253
5.8598347 -4.0623288 1.9037386
6.2824903 -4.0162172 1.9089611
6.7294464 -3.9548755 1.919103
7.1704388 -3.8656673 1.9187468
6.9716597 -4.832921 1.9265102
7.5360937 -4.8161283 1.9372674
8.1110516 -4.7710314 1.9444773
8.7389688 -4.7193542 1.9526945
8.536376 -5.914753 1.9566875
8.9064569 -5.695178 1.882719
8.8788939 -5.2287378 1.7341148
8.8004875 -4.7569418 1.5873184
9.0412283 -6.265727 1.6553682
8.9824305 -5.7501659 1.4981498
8.9053078 -5.2505741 1.352206
8.8205738 -4.7779493 1.216434
14.095614 -9.7721453 1.9393332
8.9931297 -5.7572365 1.1036643
0 -0 0
8.2767038 -4.4885774 0.79527336
0 -0 0
8.9999075 -5.7655625 0.71197808
8.9407282 -5.279242 0.59413552
8.3181362 -4.5146174 0.44996771
9.147418 -6.3480663 0.4396098
9.0003729 -5.7720656 0.31995243
8.9129152 -5.2689052 0.21290416
8.3137207 -4.5167303 0.10321237
0 -0 0
9.0416279 -5.8032012 -0.07331904
8.9278793 -5.282589 -0.16694665
8.3063135 -4.5166497 -0.24246603
0 -0 -0
0 -0 -0
1.6761414 -0.99314868 -0.10299157
1.4246359 -0.77511257 -0.10118542
2.3899508 -1.6632638 -0.20555036
8.9197807 -5.7362132 -0.84953463
1.3486109 -0.7993663 -0.14049424
1.4070784 -0.76610112 -0.15912189
2.4102397 -1.678383 -0.31605715
3.182739 -2.048748 -0.44331095
3.1102657 -1.8446579 -0.45772326
1.4190806 -0.77308547 -0.22070342
2.3855581 -1.6641033 -0.42142025
0 -0 -0
1.3652627 -0.81042826 -0.2610459
1.4523571 -0.79150963 -0.2884669
2.3876159 -1.6682659 -0.5326364
3.431694 -2.2140033 -0.78673315
1.178668 -0.70063859 -0.2775757
1.4674686 -0.80034322 -0.35590461
2.3728456 -1.6613379 -0.64237863
2.9183807 -1.8847084 -0.8045404
1.1721907 -0.69695437 -0.329595
1.4618078 -0.79659396 -0.42029214
2.3553605 -1.652406 -0.75266773
2.3951204 -1.549332 -0.77518058
1.1297834 -0.67214048 -0.37117773
1.2747774 -0.69461632 -0.42616925
5.0063639 -3.5210369 1.8908877
5.3459687 -3.4619293 1.8916674
5.7014308 -3.3921549 1.9002053
6.0344443 -3.2918878 1.8974003
5.8181953 -4.0865464 1.8983215
6.2528505 -4.0515294 1.907473
6.7000484 -3.9931092 1.9176706
7.1525621 -3.9128616 1.9203517
6.9602284 -4.8884983 1.9316038
7.4932761 -4.8537769 1.9338803
8.0597572 -4.8076663 1.939216
8.6857538 -4.7596836 1.9472929
8.532095 -5.9896049 1.9640936
8.8622561 -5.7438293 1.8807902
8.9008293 -5.3154783 1.7447362
8.8213577 -4.8383985 1.5964077
9.0867796 -6.3801818 1.6708444
8.9743929 -5.8229599 1.5027403
8.9086666 -5.326488 1.3576531
8.8232794 -4.8496737 1.220888
14.085801 -9.8938599 1.946299
8.9901772 -5.833425 1.1076739
8.8679361 -5.3069696 0.96962965
8.3118629 -4.5738668 0.80133325
0 -0 0
8.9969978 -5.8418679 0.71457022
8.9398594 -5.3529782 0.59624928
8.3156528 -4.5795455 0.45134494
9.1753216 -6.451201 0.44284481
9.0100422 -5.8565989 0.3215676
8.9387293 -5.3584499 0.21430214
8.3191261 -4.5860009 0.10362687
0 -0 0
9.047761 -5.8858347 -0.073660254
8.9458828 -5.3676214 -0.16789603
8.3379631 -4.6003704 -0.24420927
0 -0 -0
2.0110905 -1.3093228 -0.10389423
8.9124584 -5.3549733 -0.5496403
1.4320856 -0.79059243 -0.10205717
2.3715477 -1.6721488 -0.20484617
8.923665 -5.8164177 -0.85328764
8.8423405 -5.3147345 -0.92454851
1.4040933 -0.77568275 -0.15931955
2.4153318 -1.7040305 -0.31808999
3.1484807 -2.0541282 -0.44028652
3.1184425 -1.8754674 -0.46061152
1.4169118 -0.78321624 -0.22110938
2.357522 -1.6661433 -0.41826567
4.1188121 -2.6904714 -0.75976044
1.4025348 -0.84423411 -0.26915795
1.4759225 -0.81613785 -0.29413658
2.3829548 -1.6868631 -0.53389555
3.343257 -2.1861153 -0.76951921
1.1508431 -0.6936903 -0.27202022
3.3093059 -1.8312979 -0.80531484
2.3554406 -1.6707826 -0.64043003
2.6989026 -1.7665287 -0.74700874
1.1712219 -0.70614117 -0.33053467
1.4534984 -0.80367178 -0.41931301
2.3499086 -1.6701899 -0.75418621
2.3670073 -1.5518299 -0.76914907
1.1627196 -0.7014302 -0.38340539
1.2646132 -0.6991753 -0.42419752
5.006453 -3.5672133 1.8991528
5.3093991 -3.4846725 1.8862576
5.6574612 -3.4131691 1.8924953
6.0048547 -3.3237174 1.8944733
5.7945862 -4.1232896 1.8988374
6.2157269 -4.0818439 1.9037528
6.6762519 -4.034647 1.9179093
7.1301208 -3.9576199 1.9208102
6.9197731 -4.9237642 1.9287249
7.4478297 -4.8894725 1.929858
8.0351343 -4.8600707 1.9404303
8.6546688 -4.8119349 1.9469069
8.4903774 -6.0384264 1.9629825
9.0350304 -5.9348493 1.9251494
8.8941965 -5.3858271 1.749881
8.8415594 -4.92029 1.6054969
10.265821 -7.3024855 1.895846
8.967454 -5.8969598 1.5076089
8.9444962 -5.4226885 1.3681585
8.8211021 -4.9191937 1.2247403
14.113885 -10.043476 1.9586579
8.9558783 -5.8895712 1.1078795
8.8854256 -5.3917556 0.97514099
8.2932119 -4.6301241 0.80225903
0 -0 0
8.9434805 -5.8854442 0.71317446
8.9298878 -5.4217215 0.59779173
8.3292513 -4.6538692 0.45362443
9.1933489 -6.5485387 0.4456459
8.9989777 -5.9282694 0.32246491
8.9577971 -5.4448733 0.2155562
8.3493023 -4.6696625 0.10435771
0 -0 0
9.0206585 -5.9472942 -0.073735312
8.9700108 -5.4572301 -0.16897413
8.3296423 -4.6626759 -0.24479893
0 -0 -0
0 -0 -0
2.0825562 -1.268742 -0.12891102
1.4054382 -0.78717178 -0.10050047
2.3661132 -1.6901478 -0.20526868
2.4461017 -1.6158334 -0.23484175
8.9184284 -5.435236 -0.93597364
1.4036477 -0.78671616 -0.15981372
2.3773284 -1.6991618 -0.31445223
2.4664013 -1.630789 -0.34629673
3.1416042 -1.9157435 -0.46576008
1.3956599 -0.78268743 -0.21853834
2.35852 -1.6886435 -0.42027315
2.4969356 -1.6529833 -0.46244961
0 -0 -0
3.971051 -2.2277892 -0.79410005
2.365365 -1.6962935 -0.53227663
2.4146636 -1.6001558 -0.55803382
1.1591095 -0.70840538 -0.27499637
3.2792442 -1.8410351 -0.80073327
2.3610008 -1.6965981 -0.64476019
2.4566376 -1.6295762 -0.68270874
1.1809655 -0.72193289 -0.33452833
1.446003 -0.81115204 -0.41857865
2.3286247 -1.676663 -0.75064301
2.3662822 -1.5721989 -0.77203375
1.217504 -0.74470705 -0.40296969
1.2435623 -0.69753361 -0.41856411
5.0162334 -3.6207922 1.9112549
5.2879176 -3.517185 1.8862576
5.6503534 -3.4563465 1.8971763
6.0011578 -3.3699396 1.8997949
5.7887702 -4.1728911 1.9052863
6.1760473 -4.1102448 1.8992885
6.6530266 -4.076551 1.9183869
7.1158805 -4.0070262 1.9235615
6.8831024 -4.9615684 1.9269531
7.4152474 -4.9334559 1.9292231
8.0059967 -4.9097934 1.9406325
8.649766 -4.8789282 1.9525015
8.4268551 -6.0714517 1.9568726
9.0328646 -6.0130887 1.9325134
8.9391375 -5.4882836 1.7653152
8.8662453 -5.0055227 1.6155262
10.322708 -7.4387603 1.9147449
9.0291653 -6.0172229 1.5241623
8.9431543 -5.4972 1.3730869
8.869379 -5.0177088 1.2356946
14.144691 -10.196712 1.9715785
8.9742012 -5.9808207 1.114665
0 -0 0
8.2967262 -4.6990929 0.80537313
0 -0 0
9.0142851 -6.0116243 0.72174847
8.9568167 -5.5135703 0.60184789
8.4473982 -4.7881308 0.46165025
9.2129564 -6.6480927 0.44856533
9.0173006 -6.0200038 0.32443899
8.9906082 -5.5406485 0.21715976
8.417901 -4.7760715 0.10557943
0 -0 0
9.0122671 -6.0214205 -0.073967338
8.9789076 -5.5384121 -0.16977869
8.4556093 -4.8015642 -0.24936214
0 -0 -0
0 -0 -0
1.9787269 -1.2221969 -0.12294585
1.3884329 -0.7888779 -0.099628717
2.3460004 -1.6976167 -0.20442367
2.4295144 -1.6263759 -0.23420292
4.1679263 -2.5753007 -0.4390668
1.3806278 -0.78498518 -0.15773821
2.3692739 -1.7154661 -0.31477323
2.4522231 -1.6431276 -0.34571508
3.1424477 -1.9428095 -0.46764374
1.398582 -0.79564565 -0.2197562
2.3401029 -1.6972727 -0.41883925
2.4137032 -1.619271 -0.4488661
0 -0 -0
3.9547384 -2.2506516 -0.79358464
2.3636665 -1.7171348 -0.53425533
2.4202883 -1.6253432 -0.56162792
0 -0 -0
3.3163307 -1.8887116 -0.81260371
2.3521249 -1.7122021 -0.64519322
2.4368901 -1.6380972 -0.68000132
1.1632944 -0.72097278 -0.3307696
1.4367851 -0.81761158 -0.41735473
2.3198564 -1.6920599 -0.75114924
2.3405814 -1.5759093 -0.7667889
0 -0 -0
1.2467645 -0.70942158 -0.42109916
4.9723272 -3.6357129 1.90299
5.2829299 -3.560816 1.8922367
5.6314902 -3.4924715 1.8980023
5.9770164 -3.4047899 1.8987305
5.7552547 -4.2026343 1.9027069
6.1611524 -4.1551046 1.9025127
6.6377859 -4.1234446 1.9212518
7.0886245 -4.0491643 1.9228736
6.8470163 -4.9996834 1.9254029
7.4059062 -4.9930668 1.9347272
7.9649081 -4.9521031 1.938002
8.5787868 -4.9085207 1.9432417
8.3775368 -6.1143537 1.9540954
9.0227327 -6.0865688 1.9382993
8.947154 -5.5690856 1.7736132
8.8653622 -5.0770097 1.6210113
10.313611 -7.528779 1.9215902
9.0462379 -6.1090899 1.5333431
8.9605894 -5.5839601 1.3809984
8.8849192 -5.0987177 1.2421951
14.173341 -10.350116 1.9843868
14.096787 -9.5201759 1.7581522
8.9512215 -5.5831122 0.98980695
0 -0 0
9.2037649 -6.7232881 0.86941612
8.9615211 -6.0562067 0.72048563
8.9821053 -5.6054239 0.60584682
8.9157782 -5.126153 0.48895699
9.2292662 -6.7463636 0.45136639
9.0058575 -6.0925822 0.32536623
8.992054 -5.617959 0.21802323
8.9327011 -5.1408625 0.1124297
0 -0 0
0 -0 -0
8.9956207 -5.6252089 -0.17074417
8.9232149 -5.1397576 -0.26407725
0 -0 -0
0 -0 -0
2.0719082 -1.2973825 -0.12922776
1.3740543 -0.79190034 -0.09894377
2.3596756 -1.7296714 -0.2065362
2.4161897 -1.6390142 -0.23388353
4.1562667 -2.6034698 -0.43951312
1.3714751 -0.79095608 -0.15724404
2.3474791 -1.7217391 -0.31327534
2.4346995 -1.6531218 -0.34466815
3.1422365 -1.9694307 -0.46940181
1.3790847 -0.79579377 -0.2174558
2.3687243 -1.7403114 -0.42586529
2.4306934 -1.652386 -0.45390269
0 -0 -0
1.3975145 -0.80672121 -0.28142273
2.3507092 -1.7298567 -0.53371572
2.4021516 -1.6346389 -0.55973631
3.3273227 -2.090049 -0.79542607
3.2606394 -1.883584 -0.8017745
2.3502181 -1.7329755 -0.64757478
2.4267931 -1.6530187 -0.68000132
2.8683152 -1.8021435 -0.81870174
1.4292221 -0.82495803 -0.41662037
2.3094304 -1.7062624 -0.75114924
2.3300705 -1.5896974 -0.7665267
2.3546264 -1.4802561 -0.78528816
1.2415571 -0.7165786 -0.42081749
4.9353371 -3.6553495 1.8973817
5.260982 -3.5931647 1.8922367
5.5774002 -3.5064929 1.8869882
5.9852252 -3.4582794 1.9080434
5.7293591 -4.2378688 1.9027069
6.14114 -4.1966567 1.9042487
6.5918174 -4.1511593 1.915283
7.0409064 -4.0794082 1.9166836
6.818562 -5.0433416 1.9260672
7.3404293 -5.0147085 1.9256241
7.9186316 -4.9909601 1.9341571
8.5535984 -4.9640212 1.9443991
8.3232679 -6.1533742 1.9502072
9.0705585 -6.2001519 1.9567093
8.9453402 -5.644403 1.7800857
8.8861389 -5.161571 1.6305705
0 -0 0
9.043725 -6.188529 1.5393246
8.9722633 -5.6679616 1.3881315
8.8826389 -5.1701174 1.2462882
14.116757 -10.442205 1.9853982
14.076689 -9.6328945 1.7629842
8.9908504 -5.6847544 0.99802732
8.9099789 -5.1918616 0.87102169
9.1831779 -6.7950549 0.87139362
0 -0 0
9.0015392 -5.694592 0.60950309
8.9195356 -5.2013931 0.49090409
9.224637 -6.8302178 0.45318115
0 -0 0
8.9979572 -5.6987047 0.21901004
8.926897 -5.2106986 0.11275695
9.2653866 -6.8623934 0.032801501
0 -0 -0
9.0132942 -5.7134895 -0.17174183
8.9450264 -5.2256775 -0.26566669
0 -0 -0
0 -0 -0
2.0225968 -1.2838482 -0.12664109
1.3726161 -0.80233109 -0.099192843
2.3378057 -1.7357924 -0.20555036
2.3962297 -1.6470332 -0.23292531
4.1233974 -2.6182451 -0.43772793
1.368314 -0.80036122 -0.15744171
2.4158835 -1.794811 -0.32386762
2.4351478 -1.6753482 -0.34618038
3.2054565 -2.0365555 -0.48070359
1.3587837 -0.79523242 -0.21502008
2.3627651 -1.7583579 -0.42672563
2.4034169 -1.6554962 -0.45069757
0 -0 -0
1.3763853 -0.8058241 -0.27815837
2.3589792 -1.758357 -0.53803289
2.3920765 -1.6493474 -0.55973631
3.349159 -2.1325352 -0.80375922
3.2616792 -1.910972 -0.80489832
2.3426692 -1.7497004 -0.64844078
2.4133976 -1.6656647 -0.6790989
2.8498247 -1.8150098 -0.81658739
2.8206542 -1.6512593 -0.82516295
2.2354028 -1.6728693 -0.73039645
2.302809 -1.5918921 -0.76075739
2.3625429 -1.5055369 -0.79099447
1.1750315 -0.68782854 -0.39969209
4.9120512 -3.6849899 1.8970865
5.2388353 -3.6253777 1.8922367
5.5509157 -3.5375493 1.885336
5.9647245 -3.4954262 1.9083095
5.6854644 -4.2596192 1.8967737
6.129611 -4.2441854 1.908713
6.5228405 -4.163835 1.902629
6.9964414 -4.1111922 1.9114103
6.7952929 -5.0909314 1.928282
7.3207717 -5.0674415 1.9285879
7.8961115 -5.0447268 1.9361807
8.5280523 -5.0193977 1.9455565
8.3152456 -6.2267118 1.9572428
9.0663366 -6.2792339 1.9640732
8.9097071 -5.6986527 1.7799197
8.8781281 -5.2300344 1.6349584
9.2841177 -6.9534979 1.7455473
9.10324 -6.3116126 1.556017
8.9915943 -5.7576637 1.3965619
8.9490614 -5.2825565 1.2601317
9.2047281 -6.8965459 1.3004913
14.087617 -9.7678289 1.7718259
8.9935198 -5.763989 1.0022309
8.8891058 -5.2530246 0.87211579
9.1883869 -6.8865561 0.87588102
0 -0 0
9.0076084 -5.776124 0.61230236
8.9484959 -5.2921257 0.4942759
9.2544985 -6.9406476 0.45673183
0 -0 0
9.0133009 -5.7862144 0.22024354
8.9265947 -5.2842212 0.11316055
9.2591019 -6.9461203 0.032929521
0 -0 -0
9.0377922 -5.8070612 -0.1728843
8.9360151 -5.2942224 -0.26635885
0 -0 -0
0 -0 -0
2.0188801 -1.298936 -0.12690504
1.3951408 -0.82702422 -0.10118542
0 -0 -0
2.3819888 -1.6588569 -0.23252606
4.088829 -2.6316376 -0.43576422
1.3676566 -0.81128037 -0.15793587
3.7474597 -2.8199162 -0.50468564
2.4223776 -1.6885545 -0.34583139
3.1937342 -2.0567226 -0.48082918
1.3504705 -0.80153191 -0.21447879
0 -0 -0
2.4045601 -1.6781307 -0.45283431
0 -0 -0
0 -0 -0
3.4284027 -2.5883684 -0.78555322
2.3794963 -1.6623069 -0.55916882
3.2734249 -2.1126523 -0.78868008
1.1998955 -0.71292746 -0.2971772
2.9469783 -2.2293482 -0.81948191
2.389559 -1.6709507 -0.6752634
2.9170318 -1.8830708 -0.83913994
1.2113948 -0.7191878 -0.35566947
0 -0 -0
2.3230338 -1.6270288 -0.77072251
2.3459849 -1.5153054 -0.78854889
1.1452115 -0.6798417 -0.39096028
4.8825011 -3.7098577 1.8944298
5.2188463 -3.6591053 1.8930908
5.540411 -3.5788453 1.8891912
5.9232769 -3.5201399 1.9019235
5.6684566 -4.3014331 1.8998692
6.074903 -4.2616873 1.8997844
6.5045066 -4.2085276 1.9047778
6.9861345 -4.1630125 1.9155371
6.7584901 -5.1284046 1.9267317
7.296742 -5.1173158 1.9304931
7.8732285 -5.0984039 1.9382042
8.4937239 -5.0696192 1.9447849
8.2761002 -6.2770224 1.9570577
9.0010424 -6.3160839 1.9582872
8.8745728 -5.7532144 1.7799197
8.9018297 -5.3178406 1.6453012
9.1987343 -6.9780607 1.7375115
9.0732546 -6.3736115 1.5575472
8.9743948 -5.8246026 1.3994151
8.943737 -5.3536835 1.263984
9.1669874 -6.9564991 1.3011655
14.077882 -9.8895359 1.7782001
8.9888763 -5.8391318 1.0056872
8.8558512 -5.3069558 0.87203163
9.1642246 -6.9566712 0.87763029
0 -0 0
9.0054808 -5.8530474 0.61458749
8.9638271 -5.3757019 0.49693534
9.2300386 -7.0112028 0.45763919
0 -0 0
9.0237188 -5.8713994 0.22137426
8.9437284 -5.3687434 0.11379321
9.2051601 -6.9943323 0.032889694
0 -0 -0
9.0497494 -5.8935089 -0.17380151
8.9496355 -5.3767529 -0.2677432
0 -0 -0
0 -0 -0
0 -0 -0
8.9424477 -5.3754086 -0.65094912
8.0059757 -6.0981598 -0.71044791
2.3856115 -1.6832106 -0.23388353
4.0409045 -2.6359978 -0.43237236
8.8905001 -5.347774 -1.0304377
3.7459021 -2.8549109 -0.50682551
2.3851986 -1.6844788 -0.34199271
3.2134547 -2.0974281 -0.48572665
3.2004018 -1.9261565 -0.51014835
4.3390484 -3.3126032 -0.79093367
2.3861485 -1.6871476 -0.4513081
4.0900526 -2.6718254 -0.80325556
0 -0 -0
3.4437129 -2.6332567 -0.79274857
2.3684504 -1.6763086 -0.55897963
3.2136474 -2.1021159 -0.77737075
1.1846075 -0.71371472 -0.29446992
2.90767 -2.2277944 -0.81233716
2.3697221 -1.6788232 -0.6725561
2.8232703 -1.8471841 -0.81541282
1.1795471 -0.71010482 -0.34759164
0 -0 -0
2.3012016 -1.6328753 -0.7667889
2.3068511 -1.5101686 -0.77849507
1.0884068 -0.65518522 -0.3729333
4.8490453 -3.7315888 1.8902974
5.1916075 -3.6877277 1.8913825
5.5440845 -3.6296232 1.8980023
5.9122992 -3.5628862 1.9053825
5.6511493 -4.3431983 1.9029647
6.0517979 -4.301127 1.9007766
6.4891176 -4.2552819 1.9078816
6.9762883 -4.2153649 1.9198933
6.7129769 -5.159081 1.9227452
7.2604256 -5.1585956 1.9292231
7.8417969 -5.1466174 1.9382042
8.4742088 -5.1287527 1.9474857
8.2218418 -6.3157125 1.9533546
8.9308243 -6.348947 1.9514492
8.9413013 -5.8747053 1.8004988
8.916338 -5.4010162 1.6540769
0 -0 0
0 -0 0
8.8879528 -5.8463192 1.3915036
8.9404211 -5.4264889 1.2681972
13.760649 -10.576146 1.9623656
9.1828098 -6.5353255 1.1649389
8.957037 -5.896914 1.0061543
8.8759193 -5.3932757 0.87724984
9.3506069 -7.1890173 0.89968705
0 -0 0
8.9543905 -5.8983088 0.61355919
8.9707861 -5.4549937 0.49916735
9.2787132 -7.1383824 0.4622156
0 -0 0
8.9908609 -5.9288588 0.2214565
8.9644308 -5.4562736 0.11448043
9.1977329 -7.0781264 0.033017714
0 -0 -0
9.0234308 -5.9555354 -0.1739946
8.9617252 -5.4591293 -0.26910192
0 -0 -0
1.9847257 -1.4171093 -0.1055811
2.0211165 -1.3357259 -0.12806639
8.9144096 -5.4332938 -0.65132272
7.9518213 -6.1343737 -0.70896918
2.3695621 -1.6937592 -0.23332457
2.4468634 -1.6176481 -0.26286882
8.8575201 -5.4022245 -1.0304377
3.7259531 -2.876019 -0.50650454
2.3635094 -1.6909915 -0.34036419
2.4492121 -1.6201224 -0.37170392
3.2299652 -1.9710473 -0.51677889
4.3202066 -3.3403754 -0.79122043
2.3540585 -1.6862184 -0.44718722
2.4642248 -1.6314137 -0.48591202
0 -0 -0
3.5908158 -2.7808204 -0.83052421
2.3485439 -1.6839434 -0.55670965
2.4466722 -1.6219437 -0.59423822
1.1685208 -0.7138316 -0.29155439
2.8083308 -2.1791596 -0.78830487
2.3649168 -1.6973083 -0.67413539
2.4546256 -1.6275862 -0.71181244
1.1768229 -0.71833932 -0.3480812
0 -0 -0
0 -0 -0
2.3031552 -1.528019 -0.78039712
2.3480949 -1.4331778 -0.8075527
4.8283186 -3.7630339 1.891183
5.1852226 -3.731272 1.8973618
5.5377302 -3.6742024 1.9035093
5.8623595 -3.5820081 1.8963358
5.6106701 -4.3671093 1.8983215
6.0300102 -4.3415751 1.9022647
6.4580331 -4.2917938 1.9064492
6.9635715 -4.2662268 1.9235615
6.6773477 -5.1971788 1.9216379
7.2214966 -5.1979084 1.9273176
7.8068089 -5.1924677 1.9373949
8.4383984 -5.1780872 1.9465212
8.1736269 -6.3588004 1.9511328
8.892499 -6.404202 1.9516246
8.9551563 -5.9627967 1.8106223
8.9267931 -5.482502 1.662226
0 -0 0
9.1758986 -6.6153569 1.5889846
8.8172617 -5.8776455 1.3860564
8.9661388 -5.517664 1.2766237
13.639822 -10.617045 1.9543885
14.195907 -10.234903 1.8088375
8.941391 -5.9655766 1.0084896
0 -0 0
0 -0 0
0 -0 0
8.9894409 -6.0008097 0.61847222
8.9728575 -5.5319514 0.50116193
9.3293238 -7.268877 0.46694979
0 -0 0
9.0116701 -6.0222445 0.22287504
8.9971571 -5.5521355 0.11533126
0 -0 0
0 -0 -0
9.0158072 -6.0302458 -0.17455779
8.9680347 -5.5387034 -0.27030683
0 -0 -0
0 -0 -0
0 -0 -0
8.9615622 -5.5377316 -0.65723819
7.9116735 -6.1812072 -0.70875788
2.3696206 -1.7158668 -0.23436263
2.4302719 -1.6281962 -0.26215473
8.9410038 -5.5286942 -1.0440767
3.6565368 -2.8584123 -0.49944302
2.3707817 -1.718285 -0.34292331
2.4285123 -1.6279387 -0.37007144
3.2498281 -2.010638 -0.52192098
4.316772 -3.3802445 -0.79437506
2.3980601 -1.7400994 -0.45756564
2.4640014 -1.6531003 -0.48785892
0 -0 -0
3.3863707 -2.6558921 -0.78699225
2.3596182 -1.713903 -0.56181705
2.4065716 -1.6167033 -0.58689702
1.1616242 -0.71944308 -0.29092962
2.8824155 -2.2651179 -0.81298673
2.3536699 -1.7112143 -0.67390978
2.4099007 -1.6193058 -0.70171082
1.212792 -0.75054789 -0.36007556
0 -0 -0
0 -0 -0
2.2985277 -1.5453438 -0.78202742
2.3441525 -1.4505879 -0.80924273
4.8103881 -3.7967327 1.8932493
5.147512 -3.7522886 1.891952
5.4624281 -3.6727099 1.885336
5.865674 -3.6336482 1.9045843
5.5830097 -4.4008555 1.8980635
6.0056052 -4.3802056 1.9030087
6.4331884 -4.3324232 1.9069266
6.9124579 -4.293467 1.9166836
6.6560545 -5.2465038 1.9247384
7.189467 -5.2421207 1.9273176
7.7748017 -5.2402716 1.9373949
8.3931379 -5.2214737 1.9434345
8.1506672 -6.4216051 1.9550211
8.8808727 -6.4789529 1.9577612
9.3263083 -6.2928658 1.8934363
8.9508352 -5.5731926 1.673039
0 -0 0
9.1239395 -6.6633577 1.5870372
9.0053434 -6.0831609 1.4214634
8.9624357 -5.5914922 1.2809575
13.502627 -10.643945 1.9440521
14.182641 -10.358188 1.8152115
14.091007 -9.5267954 1.5958723
8.8640032 -5.5361013 0.88272059
0 -0 0
9.2456942 -6.7569799 0.76282412
0 -0 0
8.9743204 -5.609139 0.50315648
9.3457336 -7.3742628 0.47002703
9.2466288 -6.7645979 0.34283397
8.9637861 -6.0701375 0.22260776
8.9976768 -5.6289797 0.11577848
9.3817749 -7.4048271 0.034002043
0 -0 -0
0 -0 -0
8.9737034 -5.6185598 -0.2715117
0 -0 -0
0 -0 -0
2.0078781 -1.3626707 -0.12827756
8.9790087 -5.6249356 -0.66103649
8.0988922 -6.4078908 -0.7290383
2.3614588 -1.7321429 -0.23460218
2.4062269 -1.633567 -0.26063734
8.9381084 -5.6030068 -1.0477337
3.6506224 -2.8900516 -0.50104791
2.3882151 -1.753372 -0.34699464
2.413554 -1.6394645 -0.36931801
3.239948 -2.03212 -0.52232695
4.233139 -3.3568592 -0.7827605
2.3801711 -1.749513 -0.45619202
2.4244347 -1.6482164 -0.48201826
0 -0 -0
3.3992815 -2.6998689 -0.79382789
2.3474758 -1.7271852 -0.5614388
2.4014678 -1.6347486 -0.5880875
3.1427135 -1.9731981 -0.79011238
2.8959632 -2.304647 -0.82078099
2.349401 -1.7302456 -0.67571467
2.4087572 -1.6400799 -0.70429492
0 -0 -0
0 -0 -0
0 -0 -0
0 -0 -0
2.3360205 -1.4654539 -0.80952436
4.7840157 -3.8237908 1.8920685
5.1166797 -3.7781081 1.8891048
5.4413791 -3.7072406 1.8858869
5.8146958 -3.651628 1.8952715
5.5634522 -4.4410567 1.9006432
5.9716029 -4.4117918 1.9007766
6.4112968 -4.3750992 1.9083592
6.8637438 -4.3217969 1.9104931
6.6206889 -5.2848125 1.9238526
7.1626697 -5.2902002 1.9287995
7.7376494 -5.2845645 1.9361807
8.3551311 -5.2692108 1.9420841
8.1195612 -6.4782376 1.9570577
8.8354092 -6.5292273 1.9565339
9.2093716 -6.2965412 1.8775041
8.9515486 -5.6501498 1.6796207
0 -0 0
0 -0 0
9.071764 -6.2094302 1.4379348
8.9749432 -5.6760945 1.2876986
13.424638 -10.716676 1.9422543
14.122816 -10.447974 1.8157257
14.056106 -9.6293945 1.5985812
8.9763575 -5.6831322 0.89736527
0 -0 0
9.1800013 -6.795773 0.76083016
0 -0 0
8.9810791 -5.6902943 0.50548351
9.3213873 -7.4483099 0.47109222
9.164794 -6.791451 0.34133843
0 -0 0
9.0043459 -5.7103233 0.11631298
9.3385067 -7.4641261 0.034010578
0 -0 -0
0 -0 -0
9.0175543 -5.7233353 -0.27389589
0 -0 -0
0 -0 -0
1.9739714 -1.3574244 -0.12664109
8.9982471 -5.7141662 -0.66502166
8.0944529 -6.4855318 -0.73220712
2.3491859 -1.7454109 -0.23444249
2.4166732 -1.6624128 -0.26286882
8.9211979 -5.6689525 -1.0498091
3.6048939 -2.8900084 -0.49719617
2.4013214 -1.7857735 -0.35048437
2.4238794 -1.6683048 -0.37245739
3.2391238 -2.0594041 -0.52422136
4.2232652 -3.3914454 -0.78476793
2.3551228 -1.7534611 -0.45344481
2.4085875 -1.659143 -0.48088259
0 -0 -0
3.4209776 -2.7515013 -0.80282211
2.3431325 -1.7462507 -0.56295204
2.391392 -1.6494529 -0.5880875
3.21141 -2.0439095 -0.81052119
2.8734059 -2.3156343 -0.81839943
2.3488917 -1.7522014 -0.67864764
2.4050491 -1.6592445 -0.70617425
2.4552512 -1.5614467 -0.73459333
0 -0 -0
0 -0 -0
0 -0 -0
2.3245556 -1.4782152 -0.80867934
4.7589779 -3.851871 1.8914782
5.0941687 -3.8100066 1.8893895
5.4201117 -3.7416506 1.8864375
5.7759175 -3.6768844 1.88995
5.532341 -4.4720731 1.8993534
5.9405422 -4.4454479 1.8995365
6.3891234 -4.4176698 1.9097917
6.8411989 -4.3664494 1.9116396
6.589654 -5.3265629 1.9242955
7.1339874 -5.3369775 1.929858
7.713131 -5.3375144 1.9382042
8.3201628 -5.3187923 1.9415053
8.0605488 -6.512496 1.9524288
8.7833576 -6.5744677 1.9539038
0 -0 0
8.974946 -5.7422285 1.6905905
0 -0 0
9.0977488 -6.8169818 1.5969136
9.1182308 -6.3237443 1.451423
8.9875841 -5.7615952 1.2945603
13.221851 -10.688277 1.9223677
9.2401562 -6.9239402 1.1934173
14.054008 -9.7552004 1.6051201
8.9798937 -5.7628593 0.90123683
0 -0 0
9.1980028 -6.8968663 0.76581508
0 -0 0
9.0039873 -5.7825379 0.50876033
9.3104649 -7.533649 0.47286755
9.2444611 -6.9387617 0.3458848
0 -0 0
9.0347481 -5.8076401 0.11716381
9.3104095 -7.5357556 0.034076009
9.269825 -6.9631128 -0.0791196
0 -0 -0
9.0343914 -5.8120909 -0.27548531
0 -0 -0
1.9325799 -1.4527831 -0.10467278
1.9885467 -1.3854952 -0.12811919
8.9798021 -5.7800746 -0.66626704
8.601388 -6.9787927 -0.78192222
0 -0 -0
2.3917191 -1.6669587 -0.26126215
8.9540091 -5.767231 -1.0578146
3.5546725 -2.8857534 -0.49270245
3.6874216 -2.7774987 -0.54067421
2.407901 -1.6791737 -0.37157837
3.2630718 -2.1028559 -0.53017539
4.2484465 -3.4547586 -0.79337132
4.2033625 -3.169805 -0.81302607
2.3918884 -1.6693726 -0.47958463
0 -0 -0
3.385725 -2.7575314 -0.79850483
3.2242558 -2.4338336 -0.77822071
2.3836362 -1.6657795 -0.58868277
3.1634669 -2.040777 -0.8015663
2.8636818 -2.336925 -0.81969845
2.7531705 -2.0801959 -0.79912561
2.3988066 -1.676755 -0.70734888
2.5214133 -1.625337 -0.75735807
0 -0 -0
0 -0 -0
0.58043593 -0.40594834 -0.19999036
0 -0 -0
4.729342 -3.8761535 1.8891166
5.0653462 -3.8371401 1.8873965
5.411231 -3.7847552 1.8913939
5.7581077 -3.7153914 1.8915465
5.5152631 -4.514502 1.9029647
5.9015732 -4.4730372 1.8958163
6.3380365 -4.4400744 1.902629
6.8273544 -4.4168029 1.9153078
6.5568466 -5.3668962 1.9242955
7.1096754 -5.3871431 1.9321868
7.6818395 -5.3858657 1.9386091
8.2931347 -5.3734784 1.9428557
8.0364103 -6.5749006 1.9563172
8.7342224 -6.621695 1.9519752
0 -0 0
8.9760056 -5.8208346 1.6974858
0 -0 0
9.1606646 -6.9522986 1.6154145
9.1084633 -6.4000955 1.456092
8.9670458 -5.8263693 1.2967271
13.123726 -10.742769 1.9176489
9.1808586 -6.9678779 1.1912583
14.139667 -9.9437695 1.6218411
8.9844589 -5.8439298 0.90527678
9.4196138 -7.7131429 0.9286651
9.1531277 -6.951364 0.76561576
0 -0 0
9.0110321 -5.8654675 0.51118231
9.3034821 -7.6229329 0.47487956
9.2072811 -6.9995885 0.34609419
0 -0 0
9.0466986 -5.8940802 0.11778557
9.3575792 -7.6694422 0.034420241
9.2094173 -7.0065398 -0.078969464
0 -0 -0
9.0303793 -5.888164 -0.27645949
0 -0 -0
0 -0 -0
2.0061145 -1.4160988 -0.12980844
8.9491816 -5.8383369 -0.66664064
8.1445122 -6.6913915 -0.74410772
7.2951241 -5.5604014 -0.73478878
2.3765643 -1.6781555 -0.2607266
4.0838404 -2.6659751 -0.48438281
3.5138574 -2.8885689 -0.48949268
3.7587509 -2.8675437 -0.55370247
2.3967421 -1.6933442 -0.37145278
3.1746199 -2.0735328 -0.51786143
4.2187648 -3.4738414 -0.791794
4.080946 -3.1169529 -0.79303235
2.3791833 -1.6823084 -0.4790979
3.7400095 -2.4436605 -0.77915269
3.2852626 -2.7094076 -0.77871758
3.3067718 -2.5281208 -0.80186623
2.3661711 -1.6752766 -0.58689702
3.1263268 -2.0440919 -0.79531872
2.8628352 -2.3656461 -0.82359558
2.8262327 -2.1627679 -0.8241688
2.3797472 -1.6852629 -0.70476478
2.4699965 -1.6137319 -0.74487418
0 -0 -0
0 -0 -0
0.57793415 -0.40950221 -0.19999036
0 -0 -0
4.6834126 -3.8867943 1.8802615
5.0546365 -3.8780682 1.8922367
5.4012408 -3.8273354 1.8960748
5.7424631 -3.7554011 1.8939413
5.4993606 -4.5581226 1.9070921
5.8817 -4.5150633 1.8982964
6.3178005 -4.4839382 1.9047778
6.8001246 -4.4586115 1.9153078
6.5222912 -5.4057827 1.9238526
7.0842395 -5.4366159 1.9343036
7.6103249 -5.4056778 1.9288957
8.2526264 -5.419416 1.9411196
7.9815373 -6.6121755 1.9527993
8.7027988 -6.6823578 1.9540793
9.3281918 -6.6329994 1.9262964
8.9269152 -5.8671217 1.6949785
0 -0 0
0 -0 0
9.167572 -6.5260177 1.471915
8.8706026 -5.841424 1.2879393
13.010895 -10.78441 1.9107952
13.765651 -10.581281 1.7945467
9.0371857 -6.4386683 1.0410908
9.0091648 -5.938983 0.91142076
0 -0 0
0 -0 0
0 -0 0
8.9673681 -5.9156971 0.51075488
9.3003664 -7.7162418 0.47712833
9.2037592 -7.086441 0.34758973
0 -0 0
9.0429068 -5.9709673 0.11821099
9.2757158 -7.6979771 0.034292221
9.5329981 -7.3455057 -0.082129061
0 -0 -0
9.0099268 -5.9539342 -0.27694657
0 -0 -0
0 -0 -0
1.9665211 -1.4063081 -0.12780245
2.4559977 -1.6238331 -0.18369044
0 -0 -0
7.2656026 -5.6087132 -0.73526782
2.3613622 -1.6892294 -0.26019105
2.4640129 -1.6301833 -0.29343656
3.5075297 -2.9196162 -0.49109757
3.6719227 -2.8371143 -0.54346597
2.3919539 -1.7120605 -0.37233183
2.4240477 -1.6045943 -0.3970226
4.0818324 -3.4033294 -0.76999891
4.0930123 -3.1661217 -0.79913729
2.378442 -1.7037708 -0.4810448
2.4362044 -1.6131918 -0.50958472
3.3712618 -2.8152652 -0.80318183
3.1793945 -2.4617946 -0.77462661
2.3534579 -1.6880498 -0.5863018
2.4614656 -1.6310318 -0.62871617
2.8415272 -2.3775291 -0.82164699
2.7235858 -2.110841 -0.79799759
2.3733108 -1.702666 -0.70593935
2.4091172 -1.5951345 -0.72945291
0 -0 -0
0 -0 -0
0 -0 -0
0.60324007 -0.39938948 -0.21238044
4.6938543 -3.9443474 1.8941346
5.0458851 -3.9207735 1.8979311
5.3753123 -3.8587229 1.8952488
5.7104735 -3.7847075 1.8910143
5.4638886 -4.5855694 1.9045125
5.8584743 -4.554635 1.8997844
6.2980533 -4.5282884 1.9071654
6.7572355 -4.4900174 1.9109516
6.4949751 -5.450716 1.9256244
7.0314565 -5.4649878 1.9290112
7.5722427 -5.4488401 1.9276814
8.2200346 -5.4704947 1.9413126
7.9340386 -6.6553402 1.9511328
8.6561928 -6.731401 1.9528519
0 -0 0
9.0017166 -5.995698 1.7161342
0 -0 0
9.1887465 -7.1530027 1.6357237
9.2906179 -6.6998811 1.4982432
8.7767916 -5.8571692 1.2795129
12.834877 -10.772055 1.8946165
13.621191 -10.603831 1.784163
14.176424 -10.231908 1.6403369
8.9708967 -5.9930434 0.91125244
9.3158522 -7.8211026 0.92782843
0 -0 0
0 -0 0
9.0156012 -6.0272336 0.51559889
9.2712078 -7.788588 0.47807518
9.290163 -7.2441974 0.35252494
0 -0 0
9.0584555 -6.0613747 0.11889821
9.2987413 -7.8139334 0.034553949
0 -0 -0
0 -0 -0
8.9715633 -6.0079937 -0.27689528
0 -0 -0
0 -0 -0
1.9432987 -1.4078027 -0.12685224
2.4352088 -1.6316501 -0.18288095
8.6667814 -7.3004513 -0.79994929
7.2404752 -5.6605558 -0.73622602
2.3598242 -1.7101156 -0.26117289
2.4390864 -1.6352969 -0.29165757
3.5032339 -2.9526169 -0.49302346
3.664614 -2.8675482 -0.5449782
2.3709626 -1.7191342 -0.37069935
2.4404867 -1.6371003 -0.40135276
4.1009521 -3.4621472 -0.7775985
4.0509467 -3.173502 -0.79471123
2.3863118 -1.7316619 -0.48477635
2.4148078 -1.6204249 -0.50717944
3.3411548 -2.8251007 -0.80012387
3.2198641 -2.524883 -0.78824645
2.3581212 -1.7134051 -0.59007162
2.4229918 -1.6270207 -0.62142736
0 -0 -0
2.7366385 -2.147964 -0.80566847
2.3581009 -1.7137676 -0.70452982
2.4065304 -1.6147485 -0.7316559
0 -0 -0
0 -0 -0
0 -0 -0
0 -0 -0
4.6710191 -3.9743123 1.894725
5.0044055 -3.938026 1.8913825
5.3523121 -3.8921981 1.8955241
5.7055483 -3.8320363 1.8971341
5.4113531 -4.5983634 1.8959999
5.8205223 -4.5827055 1.8965603
6.2552357 -4.5559845 1.902629
6.7142177 -4.5210648 1.9065956
6.4554625 -5.485414 1.9238526
6.9686084 -5.4850588 1.9209666
7.549747 -5.5032763 1.9305147
8.195262 -5.5268636 1.9434345
7.8788218 -6.6918101 1.9476149
8.6077652 -6.7789054 1.9512739
9.5631371 -6.9783225 1.9923483
10.164862 -6.8608365 1.9458716
9.3791084 -7.9674749 1.8519468
9.3515453 -7.3723292 1.6727253
9.1092167 -6.6544037 1.4755465
14.056314 -9.505619 2.0576453
9.4232616 -8.0078154 1.3982389
13.45901 -10.610847 1.7714146
14.176065 -10.364534 1.6476231
0 -0 0
9.4940805 -8.0705652 0.95049363
0 -0 0
9.1433029 -6.688364 0.6482361
0 -0 0
9.2483597 -7.866693 0.47937709
9.2518148 -7.3060203 0.35276425
9.2166576 -6.7491875 0.23490177
0 -0 0
4.3907318 -3.7358313 0.016400751
9.3809433 -7.4135756 -0.081596777
0 -0 -0
0 -0 -0
0 -0 -0
0 -0 -0
1.9426749 -1.425608 -0.12738013
2.4127655 -1.6381522 -0.18194695
8.2059116 -6.9987636 -0.76136017
7.2102962 -5.7085891 -0.73670518
2.3645418 -1.7357614 -0.26286882
2.4397068 -1.6575018 -0.2929424
3.4540427 -2.9475949 -0.48863676
3.6313813 -2.8776426 -0.54265171
2.3587704 -1.7324753 -0.37044817
2.3918831 -1.6258653 -0.39499283
4.1405668 -3.5393317 -0.789213
4.0306244 -3.1976843 -0.79455864
2.3764365 -1.7468559 -0.48493856
2.4040051 -1.6346574 -0.50700766
3.2572522 -2.7886117 -0.78411418
3.2804394 -2.605047 -0.80697364
2.3522999 -1.7313279 -0.5912621
2.4218578 -1.6479096 -0.62371808
0 -0 -0
2.7195942 -2.1616843 -0.8045404
2.3334513 -1.7178317 -0.70030129
2.398181 -1.6305746 -0.73214549
0 -0 -0
0 -0 -0
0 -0 -0
0 -0 -0
4.6537843 -4.0091348 1.8976768
4.9719019 -3.9620867 1.8882507
5.329103 -3.9255359 1.8957995
5.6986632 -3.8783624 1.9027218
5.3771772 -4.6264391 1.8939363
5.7885065 -4.6153135 1.8953202
6.2341957 -4.5994687 1.9047778
6.683135 -4.5599833 1.9056785
6.4076381 -5.5128369 1.9196448
6.9363499 -5.5289326 1.9213899
7.5174131 -5.5506606 1.9309194
8.1287909 -5.5549006 1.9357179
7.8540058 -6.7541246 1.9516883
8.555233 -6.8230004 1.9488193
0 -0 0
10.156813 -6.9464946 1.9524534
9.5309649 -8.1976871 1.8918281
9.3022633 -7.4264808 1.6720297
9.2324095 -6.8316703 1.5022637
14.081255 -9.6489258 2.0699241
9.390521 -8.0797424 1.4007107
13.360224 -10.666543 1.7669938
14.146608 -10.476802 1.6516399
0 -0 0
9.364275 -8.05972 0.94243151
0 -0 0
9.177495 -6.8002119 0.65360624
0 -0 0
9.2339878 -7.9526348 0.48115242
9.3184423 -7.4519215 0.35704142
9.138134 -6.7782135 0.23395607
0 -0 0
4.3283296 -3.7287624 0.016252816
9.3430862 -7.4772449 -0.081665024
9.3296413 -6.9260716 -0.18699633
0 -0 -0
0 -0 -0
0 -0 -0
1.9258765 -1.4315439 -0.12685224
2.3969128 -1.6489661 -0.18151107
8.4429102 -7.2908592 -0.7874853
7.2147956 -5.784523 -0.74077755
2.3706315 -1.7627177 -0.26474327
2.3983433 -1.6509988 -0.28918672
3.4328821 -2.9661329 -0.48820877
3.605135 -2.8930323 -0.54137218
2.3472998 -1.7463236 -0.37032261
2.3810461 -1.6399491 -0.39485753
4.3425207 -3.7583189 -0.83208632
4.0479088 -3.2520659 -0.80188453
2.3791282 -1.7714225 -0.48769668
2.4101543 -1.6605557 -0.51044381
3.2668393 -2.8317404 -0.79058993
3.2575061 -2.6195879 -0.80527115
2.3432038 -1.7469003 -0.59165889
2.3972065 -1.6527458 -0.61996955
0 -0 -0
0 -0 -0
2.3236461 -1.7326982 -0.70053619
2.4056964 -1.6573604 -0.73753071
0 -0 -0
0 -0 -0
0 -0 -0
0 -0 -0
4.6082158 -4.0194011 1.8891166
4.9206409 -3.9708467 1.8780007
5.2841125 -3.9426386 1.888365
5.6469841 -3.8941023 1.893409
5.3523312 -4.6625185 1.8952259
5.7766609 -4.6641335 1.9007766
6.2035232 -4.6358905 1.9040616
6.6598339 -4.6042256 1.9070543
6.3861914 -5.5629387 1.9234097
6.9349961 -5.597785 1.9304931
7.4808602 -5.5949221 1.9303123
8.0977802 -5.6069074 1.9364895
7.8146391 -6.8041248 1.9522438
8.5139723 -6.8759842 1.9489945
9.1941767 -6.8835678 1.9329346
10.139975 -7.0266857 1.957468
0 -0 0
0 -0 0
9.2172937 -6.9084101 1.5066733
14.051956 -9.7560921 2.074378
12.422388 -10.821763 1.8628204
13.253527 -10.715175 1.7615448
9.2197208 -6.9160109 1.0813519
0 -0 0
9.3439617 -8.1425743 0.94539773
0 -0 0
9.2481852 -6.9408946 0.66166133
0 -0 0
9.1804981 -8.0052032 0.48091567
9.3012848 -7.5322332 0.35814813
9.251442 -6.9506617 0.23794444
0 -0 0
4.2782388 -3.7315869 0.0161504
0 -0 -0
9.2518053 -6.9567471 -0.18628831
0 -0 -0
0 -0 -0
0 -0 -0
1.9282253 -1.4517428 -0.1275913
2.3908436 -1.6664957 -0.1818224
8.6999025 -7.606472 -0.8157934
7.1876793 -5.8355942 -0.74165589
0 -0 -0
2.3955135 -1.6708071 -0.29007623
3.4161141 -2.9884498 -0.48842272
3.5757539 -2.9057033 -0.53962731
4.9186988 -3.7064717 -0.77957368
2.3774388 -1.6590641 -0.39594004
4.0633268 -3.5605259 -0.7827605
3.9964466 -3.2512712 -0.795627
3.7571566 -2.8334575 -0.77372766
2.3918421 -1.669674 -0.5087257
3.2471848 -2.8497856 -0.79005033
3.2170062 -2.6196852 -0.79921794
2.9699121 -2.2426047 -0.75336307
2.3878222 -1.6679838 -0.62017781
0 -0 -0
0 -0 -0
2.651927 -2.0029278 -0.80319691
2.3946865 -1.6715353 -0.73728591
0 -0 -0
0 -0 -0
0 -0 -0
0 -0 -0
4.5734406 -4.0387468 1.8849843
4.9043493 -4.007637 1.8811327
5.2437153 -3.9628153 1.8825827
5.6142921 -3.9226055 1.8904822
5.3381138 -4.7080541 1.9003853
5.7539334 -4.7043958 1.9027606
6.1788325 -4.6767979 1.9052554
6.6481996 -4.6567297 1.9118689
6.3833866 -5.6297545 1.9329327
6.8937078 -5.6346655 1.9285879
7.454196 -5.6466322 1.9323359
8.0817003 -5.6694498 1.9409267
7.766108 -6.8460979 1.9505775
8.4868641 -6.9405608 1.9525013
9.1839828 -6.9642825 1.9397391
10.187201 -7.1523328 1.9750197
0 -0 0
0 -0 0
9.1699934 -6.9612393 1.5058953
14.08683 -9.9089546 2.0884626
12.327436 -10.872807 1.8585511
13.129805 -10.749037 1.753834
9.1747341 -6.9706454 1.0810717
0 -0 0
9.2855997 -8.1924982 0.94456112
0 -0 0
9.1577339 -6.9612594 0.65823358
0 -0 0
9.2660398 -8.180419 0.48801699
9.2378883 -7.5752192 0.35749009
9.1911154 -6.9939775 0.23749216
0 -0 0
4.2387714 -3.7432051 0.016087813
9.4137297 -7.7251844 -0.083104923
9.2089453 -7.0133843 -0.18628831
0 -0 -0
0 -0 -0
0 -0 -0
1.8946649 -1.4447757 -0.12595484
2.376497 -1.6782557 -0.18151107
7.9352765 -7.0243211 -0.74812162
7.1756072 -5.8992114 -0.74413127
3.717252 -2.8355122 -0.41898346
2.3909054 -1.6894941 -0.29076806
3.3902702 -3.0027626 -0.48735282
3.5218108 -2.8979278 -0.53416002
4.8895545 -3.7317674 -0.77856904
2.3672142 -1.6736205 -0.39594004
4.0169725 -3.5637171 -0.77802867
3.9436219 -3.2487113 -0.78906411
3.8047862 -2.9061716 -0.78719372
2.3807478 -1.6837498 -0.50855386
3.3436162 -2.9709308 -0.81793237
3.2016292 -2.6399996 -0.79940712
2.9654384 -2.2679305 -0.75574404
2.3799379 -1.6842988 -0.62080258
0 -0 -0
0 -0 -0
2.695174 -2.0616832 -0.82011127
2.382802 -1.6850778 -0.73679638
0 -0 -0
0 -0 -0
0 -0 -0
0 -0 -0
4.5706534 -4.0864744 1.8941346
4.8959146 -4.0510983 1.8873965
5.2177749 -3.993747 1.8820319
5.5869703 -3.9547524 1.8894179
5.305522 -4.7375016 1.8990954
5.7145128 -4.7309637 1.8992885
6.1477075 -4.7128501 1.9045391
6.6202946 -4.697998 1.9120981
6.3225365 -5.6454344 1.9249599
6.8597569 -5.6774812 1.9287995
7.4318404 -5.7018018 1.9355736
8.0483608 -5.7200685 1.9413126
7.7268872 -6.8962383 1.951318
8.4456348 -6.9937601 1.9528519
9.2536993 -7.106998 1.9636374
10.149562 -7.2192855 1.9762734
0 -0 0
0 -0 0
0 -0 0
14.097716 -10.046479 2.0991764
12.173032 -10.870144 1.8452934
13.000809 -10.777343 1.7454038
13.786453 -10.60852 1.6321164
0 -0 0
9.2031803 -8.2207565 0.94129062
0 -0 0
0 -0 0
0 -0 0
9.1836367 -8.2084875 0.48632056
9.2227631 -7.6579394 0.35871643
0 -0 0
0 -0 0
9.1858797 -8.2128 0.035054646
9.3146219 -7.7399821 -0.082647704
0 -0 -0
0 -0 -0
0 -0 -0
0 -0 -0
1.9197491 -1.4826205 -0.12822476
2.3572257 -1.6864179 -0.18082611
4.3092666 -3.8619888 -0.40849522
7.1101637 -5.9188948 -0.74109691
3.758898 -2.9039361 -0.4256779
2.3659291 -1.6937062 -0.28898904
3.2666681 -2.9292517 -0.4721598
3.5016742 -2.9175756 -0.53381109
4.8500814 -3.7489579 -0.77593195
2.3746216 -1.7008066 -0.39891705
3.9383376 -3.5373766 -0.76698774
3.9729438 -3.3139958 -0.79898471
3.8079557 -2.9457643 -0.79157424
2.373575 -1.7006211 -0.50924116
3.2448785 -2.9190238 -0.79814512
3.1868775 -2.6608534 -0.79978544
3.0274038 -2.3449011 -0.77518821
2.3616095 -1.6931711 -0.61872005
0 -0 -0
0 -0 -0
2.7162824 -2.1043746 -0.83044779
2.3692648 -1.6974078 -0.73581719
0 -0 -0
0 -0 -0
0 -0 -0
0 -0 -0
4.5547018 -4.1227779 1.897972
4.8658218 -4.0767536 1.8854034
5.1984897 -4.0298104 1.8839594
5.5688663 -3.993453 1.8915465
5.2648859 -4.7595997 1.894968
5.6786947 -4.7603374 1.8970563
6.1263452 -4.7564383 1.9069266
6.5779076 -4.7288718 1.9082004
6.2892246 -5.6854305 1.9254029
6.821795 -5.7169542 1.9279528
7.3781552 -5.7328744 1.9307169
7.9971848 -5.7578778 1.9374541
7.6793237 -6.9389076 1.950022
8.4025631 -7.0454502 1.9528519
9.205246 -7.1600108 1.9626415
0 -0 0
0 -0 0
0 -0 0
0 -0 0
13.89012 -10.027617 2.0773876
12.08915 -10.929304 1.8427092
12.844534 -10.781449 1.7332722
13.688118 -10.667208 1.6281931
0 -0 0
9.1096725 -8.2382812 0.93687934
0 -0 0
0 -0 0
0 -0 0
9.0945702 -8.2298183 0.48426905
9.2253313 -7.7561951 0.36066061
0 -0 0
0 -0 0
9.0945377 -8.2320995 0.034898177
9.3029184 -7.8272481 -0.082968444
9.4428854 -7.37638 -0.19283743
0 -0 -0
0 -0 -0
0 -0 -0
1.925561 -1.5060611 -0.12922776
2.3258219 -1.6856219 -0.17920715
4.2640648 -3.8689189 -0.4064531
7.1156316 -5.9977441 -0.74548876
3.7370872 -2.9238772 -0.42523164
2.3603258 -1.7116966 -0.28958204
3.219923 -2.9231763 -0.46798709
3.4875021 -2.9422088 -0.53439271
4.8262057 -3.7780352 -0.77580643
2.3697546 -1.719418 -0.39986426
3.9326668 -3.5761232 -0.77014226
3.892133 -3.2872958 -0.78677481
3.7719438 -2.9550776 -0.78784269
2.3630955 -1.7151531 -0.50924116
3.2247245 -2.9368918 -0.7976054
3.2019856 -2.7069836 -0.80773026
3.1108973 -2.440258 -0.80038631
2.3598809 -1.7139522 -0.62101084
0 -0 -0
0 -0 -0
0 -0 -0
2.3423266 -1.699954 -0.73067677
0 -0 -0
0 -0 -0
0 -0 -0
0 -0 -0
4.5053697 -4.1286998 1.8879361
4.8604527 -4.1232767 1.8930908
5.1524925 -4.0450101 1.8762494
5.5380187 -4.0230155 1.8894179
5.2355824 -4.7918148 1.894968
5.6523333 -4.7975988 1.8980484
6.0878839 -4.7867365 1.9040616
6.554276 -4.7731552 1.9098053
6.2592568 -5.7285218 1.9269531
6.7754097 -5.7492189 1.9247772
7.3420711 -5.7774324 1.9305147
7.9450569 -5.7946973 1.9334029
7.6366024 -6.9858966 1.950022
8.3464155 -7.0860424 1.9498712
9.1433229 -7.2023239 1.9588245
0 -0 0
0 -0 0
9.4503899 -8.0315428 1.7421381
9.2676563 -7.3081298 1.5437663
0 -0 0
11.919244 -10.909351 1.8269798
9.441679 -8.0244236 1.2807029
13.518461 -10.668961 1.6157691
0 -0 0
9.0310059 -8.2684355 0.93398911
9.4646578 -8.0490751 0.82762802
0 -0 0
9.2287397 -6.760602 0.54390287
9.0321131 -8.2746677 0.48363784
9.2217112 -7.850234 0.36239541
0 -0 0
9.3043232 -6.8219624 0.12585756
9.0298471 -8.2749109 0.034844127
4.355608 -3.7105849 -0.039047983
9.4013681 -7.4372835 -0.1929179
0 -0 -0
0 -0 -0
0 -0 -0
1.9021933 -1.506687 -0.12827756
2.3516393 -1.72644 -0.18200921
4.2373066 -3.8923106 -0.40617141
7.06884 -6.0328803 -0.74445075
3.7963617 -3.0079885 -0.43406829
2.3586004 -1.7326275 -0.29066923
3.1931417 -2.9348047 -0.46670318
3.4444618 -2.9422643 -0.530554
4.8138175 -3.8162055 -0.77756447
2.3535712 -1.7298187 -0.39891705
4.0045757 -3.686655 -0.78863949
3.9222126 -3.3541503 -0.79700059
3.6764393 -2.9168365 -0.77161855
2.3588765 -1.7342888 -0.51061559
3.1979654 -2.9486215 -0.79544687
3.1920297 -2.7323267 -0.8094328
3.0820515 -2.4483266 -0.79681492
2.3532591 -1.731298 -0.62205213
0 -0 -0
0 -0 -0
0 -0 -0
2.3404448 -1.7206116 -0.73336935
0 -0 -0
0 -0 -0
0 -0 -0
0 -0 -0
4.4750485 -4.1517181 1.8858699
4.8147001 -4.1355329 1.8851187
5.1659536 -4.1070604 1.8902924
5.5202174 -4.0620623 1.8918126
5.2160034 -4.8330431 1.8985794
5.6227894 -4.832191 1.8980484
6.053081 -4.819767 1.9023904
6.5287814 -4.8161707 1.9109516
6.2025299 -5.7469368 1.9203092
6.7511258 -5.8002377 1.9279528
7.3164392 -5.8303075 1.9331453
7.9164543 -5.8485856 1.9351391
