# .PCD v0.7 - Point Cloud Data file format
VERSION 0.7
FIELDS x y z
SIZE 4 4 4
TYPE F F F
COUNT 1 1 1
WIDTH 1540
HEIGHT 1
VIEWPOINT 0 0 0 1 0 0 0
POINTS 1540
DATA ascii
1.5049618 -0.70210308 -0.13303174
1.5347397 -0.6490019 -0.14933091
1.5671338 -0.59630787 -0.16653439
1.4619645 -0.74868053 -0.17675233
1.5235252 -0.71157295 -0.19693662
1.5266962 -0.64607173 -0.20983693
1.5889183 -0.60504156 -0.23220544
1.4475546 -0.74280059 -0.2357315
1.5039344 -0.70344633 -0.25640771
1.5845692 -0.67128009 -0.28294843
1.6183927 -0.61655617 -0.3020398
1.5064803 -0.77449995 -0.30976018
1.5562068 -0.72879016 -0.33103701
1.6123079 -0.68419319 -0.35455883
1.61849 -0.61717558 -0.36881629
1.5126226 -0.77949446 -0.37737304
1.5453939 -0.7245816 -0.39527616
1.5747465 -0.66844833 -0.41346201
1.5874276 -0.60469604 -0.42885953
1.4586638 -0.75342876 -0.42948118
1.4577446 -0.68482083 -0.43767807
1.4730363 -0.62572956 -0.45188037
1.4391558 -0.54815757 -0.45208302
5.4609828 -2.8288684 1.9000381
5.7892661 -2.7232115 1.9002088
6.0945787 -2.5891061 1.8966256
6.4513917 -2.4608138 1.9059147
6.3538532 -3.2863262 1.9099296
6.7640133 -3.1838853 1.9139212
7.1755972 -3.0547047 1.9174317
7.6213613 -2.9174519 1.922186
7.5963831 -3.9288168 1.9422342
8.0977869 -3.8103244 1.9385377
8.605525 -3.6673393 1.9329429
8.5189838 -3.2680526 1.7939248
8.7577248 -4.5269399 1.857446
8.6915445 -4.0924897 1.7108933
8.6118975 -3.6752067 1.5757891
8.5283613 -3.2754073 1.4495701
8.758604 -4.5283628 1.4837897
8.6893301 -4.0968213 1.3494476
8.593482 -3.6726677 1.2223806
8.0292244 -3.0919123 1.0433284
8.2240133 -4.2537885 1.0469096
8.1549559 -3.8450503 0.93186891
8.1028013 -3.466809 0.82689416
8.0215664 -3.0934656 0.726174
8.2694845 -4.2789545 0.71022719
8.1826677 -3.8612592 0.60270888
8.1040554 -3.4696884 0.50444394
8.0344276 -3.1014862 0.40945876
8.2723942 -4.2837553 0.36780781
8.1735516 -3.8618422 0.27051041
8.1267014 -3.4842525 0.18181966
8.0650396 -3.1171858 0.094322272
8.2782068 -4.2882314 0.026522845
8.197299 -3.8767383 -0.06188171
8.1066713 -3.4795179 -0.14197302
8.0402832 -3.1110048 -0.22108555
0 -0 -0
1.4962698 -0.70830017 -0.071670577
1.5155584 -0.65159947 -0.087207623
1.5868837 -0.61445439 -0.10616685
1.4481674 -0.75235307 -0.11520396
1.4925189 -0.70748138 -0.13231307
1.5417081 -0.66312927 -0.15040202
1.5662291 -0.60699117 -0.1668309
1.4414642 -0.74938178 -0.17482646
1.5137466 -0.71835279 -0.19623867
1.5263482 -0.65699607 -0.21033922
1.588871 -0.61621267 -0.23274671
1.4526244 -0.75669807 -0.23730879
1.505838 -0.71563047 -0.25747606
1.5613902 -0.67279017 -0.27954137
1.5980476 -0.62006038 -0.29894724
1.5139086 -0.79010069 -0.31227854
1.5570259 -0.74085647 -0.33217198
1.6008805 -0.69096601 -0.35297152
1.6183196 -0.62851119 -0.36964929
1.5026209 -0.78604591 -0.37607402
1.5391599 -0.73321235 -0.39482495
1.5706153 -0.6780982 -0.41346201
1.576456 -0.61161929 -0.42690128
1.4463022 -0.75832164 -0.42720345
1.4448063 -0.68959582 -0.43505567
1.4744698 -0.63704634 -0.4535107
1.4393436 -0.55836582 -0.45320973
5.4452133 -2.8632123 1.9006284
5.7689886 -2.7570293 1.89907
6.0997572 -2.6356044 1.903234
6.4137082 -2.491626 1.8992628
6.3284364 -3.3225563 1.9083819
6.7408538 -3.2236569 1.9129292
7.1611748 -3.1006052 1.9186256
7.6132917 -2.9680498 1.9247079
7.5704064 -3.9744468 1.9417912
8.0724916 -3.8590968 1.9381144
8.616107 -3.7344828 1.9404303
8.5261889 -3.3309741 1.7997122
8.7706823 -4.6020508 1.866148
8.6929131 -4.1584888 1.7161531
8.6154175 -3.7393651 1.5806018
8.5577736 -3.3471014 1.4580325
8.7718077 -4.6036177 1.4907837
8.685463 -4.1603284 1.3527862
8.599885 -3.7379756 1.2265309
8.0230408 -3.1461945 1.0450138
8.2874947 -4.3512855 1.0583696
8.175168 -3.9160726 0.9369067
8.084116 -3.5176535 0.82717443
8.0024347 -3.1426268 0.726174
8.2739697 -4.3458424 0.71288919
8.1876135 -3.9251971 0.60483575
8.1054964 -3.5293126 0.50587213
8.041275 -3.1609581 0.41078848
8.282217 -4.3534946 0.3694253
8.2118788 -3.9417672 0.27257425
8.1253309 -3.5428424 0.18227193
8.0736752 -3.1775994 0.094649509
8.2650146 -4.3459258 0.026565516
8.2112131 -3.9451513 -0.062168323
8.1465664 -3.5559943 -0.14305113
8.0591764 -3.1753049 -0.22213662
0 -0 -0
1.482892 -0.71313787 -0.071238048
1.5380659 -0.67248803 -0.088738509
1.5793695 -0.62271541 -0.10591778
1.4444063 -0.76168996 -0.11527438
1.4827611 -0.7140311 -0.13183397
1.5321351 -0.67018163 -0.14986648
1.5596982 -0.61549413 -0.16653439
1.4254075 -0.75218004 -0.17343554
1.4878383 -0.71727592 -0.1934469
1.5177441 -0.66436011 -0.20971134
1.5795308 -0.62376666 -0.23193482
1.4610776 -0.77253586 -0.23945962
1.5023087 -0.72528636 -0.25762868
1.5753084 -0.69027859 -0.28278619
1.6134533 -0.63745582 -0.3025552
1.4820851 -0.78510046 -0.30670214
1.5427259 -0.74569565 -0.33009121
1.5975082 -0.70116973 -0.35316995
1.6262567 -0.64310503 -0.37235659
1.5020809 -0.79754019 -0.37715656
1.5328782 -0.74179387 -0.39437369
1.5539647 -0.68225199 -0.41017309
1.5645577 -0.6180746 -0.42469823
1.4510164 -0.77218109 -0.42998737
1.4414161 -0.69886905 -0.43531793
1.4617224 -0.64221042 -0.45079345
1.4394599 -0.56859702 -0.4543364
5.417428 -2.8911717 1.8970865
5.75455 -2.7936311 1.8999242
6.0605869 -2.6629274 1.8960748
6.3991952 -2.5312874 1.8995289
6.3070779 -3.3608699 1.908124
6.7305322 -3.2696137 1.9156574
7.162456 -3.1534867 1.9241168
7.6039844 -3.0182993 1.9270006
7.545877 -4.020823 1.9417912
8.0600891 -3.9141059 1.9408664
8.6234989 -3.8007083 1.9473104
8.5475292 -3.399909 1.8085862
8.781312 -4.6765671 1.8744799
8.6999969 -4.2276702 1.7226406
8.6166706 -3.8029087 1.5850829
8.562767 -3.4097786 1.4624203
8.7896509 -4.681993 1.4986706
8.7042961 -4.2352066 1.3597413
8.6393642 -3.8183303 1.2354798
8.0533705 -3.2152402 1.0515143
8.2781782 -4.4114013 1.0606167
8.1858673 -3.9831343 0.94091624
8.1170092 -3.5913608 0.83277917
8.0246372 -3.2083161 0.72996145
8.2867432 -4.4176369 0.71631181
8.2028456 -3.9945829 0.60776019
8.1421146 -3.6048479 0.50952834
8.0847893 -3.2354755 0.4140178
8.2800331 -4.4174008 0.37052995
8.2091007 -4.002593 0.27329206
8.1354294 -3.6068141 0.18299147
8.0763025 -3.2360046 0.094911307
8.2893629 -4.4238648 0.026730523
8.2138119 -4.0086174 -0.06237305
8.1538391 -3.6188936 -0.14356607
8.0738707 -3.2384651 -0.22308517
0 -0 -0
1.5045213 -0.73494005 -0.072492391
1.5129231 -0.67258257 -0.087524354
1.5662566 -0.62867671 -0.1052951
1.4326696 -0.76677275 -0.11471104
1.4864109 -0.72705758 -0.13255262
1.5352745 -0.68280792 -0.15058054
1.5568156 -0.62542361 -0.16663323
1.4330361 -0.76748377 -0.17493345
1.4887612 -0.72901237 -0.19414485
1.528141 -0.68011457 -0.21172056
1.576593 -0.6338163 -0.23207012
1.439741 -0.77259517 -0.23673522
1.4916188 -0.73144484 -0.25656033
1.5638326 -0.69671899 -0.28148827
1.6122535 -0.64844662 -0.30307063
1.481572 -0.79650855 -0.30760154
1.5381213 -0.75514758 -0.33009121
1.5824353 -0.70616573 -0.35078904
1.6195581 -0.65197569 -0.37173182
1.4920022 -0.80396307 -0.3758575
1.5248005 -0.74946654 -0.39347124
1.5497493 -0.69177413 -0.41017309
1.5688318 -0.6309188 -0.42690128
1.4394412 -0.77739203 -0.42796272
1.4405637 -0.70940554 -0.43636689
1.4568757 -0.65077484 -0.45052174
1.4492975 -0.58278835 -0.45856148
5.3802624 -2.9138925 1.8902974
5.7304225 -2.8254964 1.8976464
6.0379896 -2.6973195 1.8941474
6.4130511 -2.5823865 1.9083095
6.2939858 -3.4036422 1.9104456
6.694706 -3.3031342 1.9111931
7.1358814 -3.1942017 1.922207
7.5645633 -3.0565124 1.9217273
7.5150595 -4.0638013 1.940241
8.037674 -3.9643526 1.9412898
8.6169958 -3.8611581 1.9511553
8.5719824 -3.4707041 1.8182321
8.8017292 -4.7569928 1.8850336
8.7136211 -4.3005805 1.7305305
8.6210651 -3.8682225 1.5902276
8.5663967 -3.4722717 1.4666514
8.7877245 -4.7504148 1.5032837
8.7269735 -4.3126655 1.3673921
8.6609955 -3.8915882 1.2419647
8.058322 -3.2746849 1.0547644
8.2981529 -4.487637 1.0666838
8.2094278 -4.0570846 0.94646794
8.1329565 -3.6582525 0.83670259
8.0287971 -3.2672594 0.73214972
8.298069 -4.4892764 0.71965843
8.2220058 -4.066515 0.61101705
8.1435127 -3.6653934 0.51101369
8.0897617 -3.2951958 0.41530004
8.2791338 -4.4823952 0.37171352
8.2211123 -4.0710745 0.2745184
8.1596317 -3.6776161 0.18403998
8.0757389 -3.2934287 0.095140375
8.2981138 -4.4941692 0.026847159
8.2419224 -4.0851417 -0.062775671
8.1661129 -3.6844823 -0.14417753
8.0834646 -3.300035 -0.2239055
0 -0 -0
1.4883487 -0.73838568 -0.071930103
1.5215076 -0.68761051 -0.0882634
1.571609 -0.64204979 -0.10591778
1.4165423 -0.76935983 -0.1137956
1.4738872 -0.73217309 -0.13183397
1.5119973 -0.68359858 -0.14870611
1.543738 -0.63119823 -0.1656449
1.3994719 -0.76059461 -0.17140269
1.4780349 -0.73503774 -0.19333057
1.5130925 -0.68457091 -0.21021365
1.5561681 -0.63672441 -0.22963439
1.4497491 -0.78946078 -0.23917285
1.4924105 -0.74322677 -0.25747606
1.5397531 -0.69734538 -0.27791896
1.6045976 -0.65683419 -0.30238342
1.3954839 -0.76130074 -0.29069248
1.5308226 -0.76325667 -0.32952371
1.5887834 -0.72072083 -0.35316995
1.6155272 -0.66190082 -0.37173182
1.4793319 -0.8088873 -0.37390894
1.5201732 -0.75880843 -0.39347124
1.5490161 -0.70287675 -0.41111279
1.5550604 -0.63649303 -0.42420864
1.4295536 -0.78342003 -0.4264442
1.4335946 -0.71693647 -0.43558019
1.4484738 -0.65771234 -0.44916311
1.4705589 -0.60184628 -0.46644831
5.4418287 -2.9905653 1.9183389
5.7189775 -2.8636088 1.8996394
6.0432086 -2.7442546 1.9010311
6.3783541 -2.6140113 1.9027218
6.276371 -3.4440565 1.9114774
6.6838398 -3.3489237 1.9139212
7.1090765 -3.2347088 1.9202968
7.5447669 -3.1025002 1.9214981
7.4942575 -4.1121817 1.9413483
8.0079556 -4.0109701 1.9400196
8.5877953 -3.9115231 1.9499412
8.572298 -3.532207 1.8228621
8.8085642 -4.8307562 1.89281
8.716114 -4.3685226 1.7363166
8.6429262 -3.9419172 1.5986916
8.5860157 -3.5417166 1.4737035
8.8008938 -4.827549 1.5105754
8.7295551 -4.3807893 1.3719826
8.6540909 -3.9524846 1.2444289
8.0655994 -3.3354497 1.0583758
8.2887545 -4.5485077 1.0690432
8.2261639 -4.1283498 0.95130002
8.151103 -3.7267158 0.8409062
8.0564709 -3.3362863 0.73652631
8.2992115 -4.5559421 0.72216833
8.2325649 -4.1348009 0.61367565
8.1553679 -3.7310753 0.51318455
8.1229095 -3.3669553 0.41805443
8.2987661 -4.5590911 0.37384391
8.2325907 -4.139853 0.27574477
8.1596355 -3.7380233 0.18455394
8.0941696 -3.3590162 0.095598526
8.3115721 -4.567637 0.026980869
8.2327785 -4.1437287 -0.062898509
8.1606197 -3.7424386 -0.14448325
8.112915 -3.3702817 -0.22528985
0 -0 -0
1.4677298 -0.73941326 -0.07115154
1.5163525 -0.69651657 -0.08821062
1.5593454 -0.64823288 -0.10535736
1.4126686 -0.77851856 -0.11386602
1.4417775 -0.72728574 -0.12935859
1.5005342 -0.68953609 -0.14799203
1.5407547 -0.64104074 -0.16574372
1.4026144 -0.7734884 -0.17236562
1.4619714 -0.73827273 -0.19181836
1.5205811 -0.69923043 -0.21184613
1.5760139 -0.65616238 -0.23315266
1.4362154 -0.7935552 -0.23773895
1.4939957 -0.75549197 -0.25854445
1.5462015 -0.71173114 -0.27986586
1.5987184 -0.66590989 -0.3020398
3.7119193 -2.0546772 -0.77583951
1.5182258 -0.76864344 -0.32782122
1.581661 -0.72922474 -0.35257471
1.6087271 -0.670672 -0.37110707
1.4666574 -0.81368643 -0.37196037
1.5137507 -0.76724088 -0.39302003
1.5376128 -0.70911157 -0.40923342
1.5538108 -0.64714104 -0.424943
1.429793 -0.79499769 -0.42796272
1.4334707 -0.7279039 -0.43689138
1.4522752 -0.67021692 -0.45160863
1.4473513 -0.60274279 -0.46025151
5.4283834 -3.0266912 1.92011
5.6936083 -2.8947356 1.8970768
6.0175276 -2.7772548 1.8982778
6.3595257 -2.6519859 1.9019235
6.2703152 -3.4909625 1.9161208
6.6804338 -3.3986573 1.9188815
7.0882139 -3.2778611 1.9200583
7.5309753 -3.1509895 1.9228736
7.4646244 -4.1557164 1.940241
7.9814515 -4.0591445 1.9395963
8.5618553 -3.9633205 1.9495364
8.5884695 -3.600673 1.8309646
8.8277054 -4.9119492 1.9033637
8.7417898 -4.4487128 1.7468363
8.6543636 -4.0114632 1.6053299
8.5950861 -3.6073279 1.4790317
8.8367758 -4.9180069 1.521885
8.7519217 -4.4594469 1.3797723
8.6737461 -4.0259662 1.2507839
8.098053 -3.4072061 1.0653578
8.3040981 -4.6234498 1.0746609
8.2228355 -4.1900377 0.9538703
8.1614904 -3.7921827 0.8443625
8.0854359 -3.406549 0.74107116
8.3102999 -4.6286125 0.72559094
8.2417059 -4.2029152 0.6162678
8.155859 -3.7919891 0.5146699
8.1251068 -3.4264362 0.41924167
8.3064203 -4.6298714 0.3754614
8.2542162 -4.2143793 0.27732998
8.172801 -3.8048983 0.18537627
8.1231518 -3.4296203 0.096187562
8.3235655 -4.6409512 0.027111735
8.2463779 -4.2141886 -0.063198775
8.1909742 -3.8173604 -0.14543264
8.1344404 -3.4379001 -0.22646913
0 -0 -0
1.4836229 -0.75886923 -0.072146364
1.5039062 -0.70200616 -0.087735511
1.5590155 -0.65934372 -0.10560644
1.4017705 -0.78376424 -0.1133731
1.4372878 -0.73611861 -0.12935859
1.5016897 -0.70125878 -0.14852758
1.5487055 -0.65552509 -0.16702856
1.4125925 -0.79033297 -0.17418449
1.4565301 -0.74677616 -0.19170204
1.5288453 -0.71442747 -0.2136042
1.547325 -0.65538669 -0.22949909
1.4304559 -0.8018688 -0.23759556
1.4743859 -0.75697118 -0.25594983
1.5507433 -0.72538602 -0.28148827
1.6018586 -0.67878175 -0.30341426
3.8793583 -2.1785638 -0.81361514
1.5082411 -0.77525121 -0.32668623
1.5656188 -0.7335102 -0.34999537
1.6063825 -0.68129408 -0.37152356
3.1146996 -1.7530829 -0.79263502
1.507282 -0.77562314 -0.3925688
1.5323527 -0.71812034 -0.40899849
1.5515963 -0.65741938 -0.42543256
1.4173043 -0.79947788 -0.42568496
1.4349815 -0.73978114 -0.43872705
1.4411649 -0.6758464 -0.44943482
1.4524606 -0.61535531 -0.46306822
5.3490014 -3.0256031 1.8985623
5.6731839 -2.9282975 1.8962228
5.9951515 -2.8116763 1.8966256
6.3564444 -2.696604 1.9059147
6.2538247 -3.5322216 1.9176685
6.6628971 -3.4413619 1.9198736
7.0600576 -3.3175745 1.9179093
7.5186648 -3.2001894 1.9247079
7.4466267 -4.2057562 1.9422342
7.9607368 -4.1102834 1.9406548
8.5364895 -4.0153632 1.949334
8.5950966 -3.6656208 1.8371379
8.8333426 -4.9863119 1.91114
8.7510643 -4.5212474 1.7542003
8.6848993 -4.0905418 1.6156194
8.6018562 -3.6724079 1.4840463
8.8572378 -5.0008202 1.5306649
8.7648535 -4.5339932 1.3861711
8.6856499 -4.0964532 1.2561015
8.0952482 -3.464643 1.0677655
8.3171024 -4.697773 1.0800539
8.2473288 -4.2664638 0.95973039
8.1839857 -3.8638675 0.84912652
8.0936899 -3.4686568 0.74376452
8.3216753 -4.7020798 0.72908956
8.2574072 -4.2749667 0.61939168
8.1631289 -3.8564603 0.51661223
8.1176996 -3.4821332 0.41995403
8.3343925 -4.7127204 0.37802577
8.2539377 -4.2782865 0.27819741
8.1773176 -3.8682272 0.18601359
8.1322756 -3.4924195 0.096547529
8.3341007 -4.7140913 0.027239755
8.2638588 -4.2872725 -0.063533157
8.2107735 -3.8880877 -0.14620502
8.1232948 -3.49209 -0.22675112
0 -0 -0
1.4549989 -0.75552726 -0.070978522
1.5103977 -0.71635586 -0.088368982
1.5531069 -0.66810846 -0.10548191
1.396935 -0.79235059 -0.1133731
1.4522009 -0.75504005 -0.13111532
1.4973586 -0.71045977 -0.14852758
1.5263741 -0.65714544 -0.16505189
1.398205 -0.79358709 -0.17300758
1.4483964 -0.753865 -0.19123673
1.4912735 -0.70805091 -0.20895788
1.5414547 -0.66408449 -0.22922845
1.4091632 -0.80133575 -0.23487118
1.4705898 -0.76646036 -0.25610244
1.5391335 -0.73149902 -0.28019035
1.5949496 -0.68742812 -0.30289885
3.6488178 -2.078649 -0.76792455
1.5051969 -0.7853995 -0.32706457
1.5513539 -0.73846906 -0.34781289
1.5949874 -0.68803859 -0.36985755
3.2658186 -1.8646177 -0.83398801
1.5042214 -0.78575921 -0.39302003
1.5287951 -0.72792709 -0.40923342
1.5502045 -0.6680786 -0.42616692
1.3913797 -0.79614741 -0.4193579
1.4210103 -0.7436502 -0.43584239
1.4343843 -0.68343467 -0.44861963
1.4380834 -0.61969924 -0.45968819
5.3336506 -3.0602689 1.8997431
5.6483169 -2.9594932 1.8939451
5.9864645 -2.8525441 1.899379
6.3450894 -2.7378471 1.9075111
6.2404165 -3.5753305 1.920248
6.6270704 -3.4745328 1.9156574
7.0413218 -3.3616688 1.9183869
7.4881682 -3.2416224 1.9219567
7.4172959 -4.2494297 1.9413483
7.94662 -4.1649499 1.9434068
8.5090399 -4.0663996 1.9487269
8.6075497 -3.7335179 1.8446616
8.8597183 -5.0731359 1.9235452
8.7650089 -4.596806 1.7626163
8.6836538 -4.1552467 1.6201003
8.6235514 -3.7443933 1.4917251
8.8555622 -5.0717826 1.5357245
8.7763224 -4.6084051 1.3924308
8.7068491 -4.1719503 1.2628456
8.1229897 -3.5356436 1.074266
8.8545723 -5.0732679 1.1538701
8.2667894 -4.3410358 0.96507651
8.1888494 -3.9277897 0.85211581
8.1087923 -3.5341787 0.74713111
8.5729542 -4.913702 0.75373226
8.269001 -4.3455119 0.62224972
8.172616 -3.9224596 0.51872605
8.1236467 -3.5438588 0.42137873
8.8652477 -5.0849347 0.40351152
8.2788363 -4.355845 0.2799322
8.1993866 -3.9404154 0.18706207
8.1381836 -3.5542586 0.096874766
8.8982964 -5.1055427 0.029185655
8.2860613 -4.3635244 -0.063908495
8.218298 -3.9535658 -0.14676821
8.1291933 -3.5538809 -0.2275202
0 -0 -0
1.444149 -0.76117986 -0.070675753
1.5005761 -0.72300929 -0.08805225
1.5242896 -0.66682512 -0.10380067
1.3885884 -0.79891723 -0.11309142
1.426383 -0.75277042 -0.12919888
1.4893823 -0.71790415 -0.14817055
1.533252 -0.67128789 -0.16623789
1.3821077 -0.7957024 -0.17161667
1.4165196 -0.74835545 -0.1876307
1.5065595 -0.72666997 -0.21172056
1.5482413 -0.67830133 -0.23085226
1.3776442 -0.79463804 -0.23042612
1.4737214 -0.77962852 -0.25747606
1.5328388 -0.74007106 -0.27986586
1.5672426 -0.68691951 -0.29843181
1.2929118 -0.74708742 -0.27306384
1.498614 -0.79370129 -0.32668623
1.5485584 -0.7488274 -0.34820971
1.592527 -0.69859815 -0.37027407
3.1419525 -1.8195499 -0.80519241
1.501954 -0.79634321 -0.39369687
1.526925 -0.7385636 -0.40993819
1.547852 -0.67835629 -0.42665648
1.3538358 -0.7857306 -0.40948766
1.4240907 -0.75642949 -0.43820259
1.4396926 -0.69683504 -0.45160863
1.4421633 -0.6319775 -0.4622232
5.3180761 -3.0948603 1.9009237
5.6359758 -2.9972456 1.895938
5.9610615 -2.885453 1.8969009
6.3387632 -2.7813764 1.910704
6.1949716 -3.5999618 1.9130251
6.6295719 -3.5278728 1.9226017
7.0266786 -3.4077766 1.9200583
7.4699187 -3.2882922 1.9224151
7.3615713 -4.2777133 1.933597
7.8950295 -4.1998615 1.9370558
8.4786434 -4.1159678 1.9475129
8.6015368 -3.793786 1.848327
8.8649635 -5.1486244 1.9315066
8.7809601 -4.6740932 1.7715582
8.6970186 -4.2274194 1.6274027
8.6248083 -3.8080068 1.4959563
8.8730145 -5.154336 1.5442067
8.7819643 -4.6803336 1.3978559
8.7247734 -4.2465591 1.2692007
8.2100773 -3.6336315 1.0887115
8.8902884 -5.1664457 1.1626337
8.2680883 -4.4066496 0.9683665
8.1914463 -3.991044 0.85491818
8.1279497 -3.6020343 0.75091851
0 -0 0
8.2756367 -4.414012 0.62477541
8.1833925 -3.9895945 0.52095401
8.1410112 -3.6110532 0.42342079
8.9064302 -5.1814423 0.40682545
8.2916307 -4.4277487 0.28127819
8.191227 -3.9985466 0.18743213
8.1436377 -3.6163013 0.097202003
8.8884087 -5.1726193 0.029256776
8.3146915 -4.4439802 -0.064338416
8.1965799 -4.0052347 -0.14681649
8.1428614 -3.61953 -0.22852001
2.3937321 -1.3947134 -0.093840294
1.402452 -0.75023413 -0.068859123
1.4916269 -0.73000818 -0.087788306
1.5219932 -0.67697668 -0.10392521
1.3965836 -0.8149637 -0.11414769
1.4366752 -0.76950938 -0.13055636
1.4706365 -0.72002178 -0.14674239
1.5163769 -0.67501754 -0.16485423
1.3574514 -0.79263681 -0.16915584
1.4083999 -0.75515562 -0.18716541
1.4780178 -0.72411543 -0.20833001
1.5268537 -0.6801284 -0.22828121
1.3624916 -0.79707927 -0.22870544
1.4619442 -0.78491658 -0.25625509
1.5052344 -0.73816627 -0.27564761
1.5728962 -0.70093387 -0.3003217
0 -0 -0
1.4876611 -0.79962736 -0.32536209
1.538656 -0.75572258 -0.34701923
1.5828509 -0.70596611 -0.36902454
3.1559832 -1.8536272 -0.81168765
1.4893183 -0.80138934 -0.39166632
1.5162575 -0.74491847 -0.40829369
1.5383469 -0.6854732 -0.4251878
1.3198084 -0.77684683 -0.40062979
1.4160247 -0.7633217 -0.43715361
1.4327989 -0.70438194 -0.45079345
1.4119649 -0.62909949 -0.45377305
5.3121514 -3.1352031 1.9056466
5.6141043 -3.0299497 1.8947991
5.9173627 -2.9092505 1.8886403
6.3277402 -2.8229671 1.9125665
6.1744304 -3.6388867 1.9135411
6.6052437 -3.5671039 1.9218577
7.0152187 -3.4555473 1.9226844
7.4460478 -3.3324745 1.9214981
7.3410668 -4.3262687 1.9351474
7.8691111 -4.2482252 1.9370558
8.455864 -4.1692138 1.94812
8.637188 -3.8729897 1.8610594
8.8738489 -5.226862 1.940394
8.8006229 -4.7540879 1.781377
8.7195492 -4.3047128 1.6365303
8.6517382 -3.8835049 1.5047321
8.891489 -5.2382975 1.5529866
8.7826958 -4.7501478 1.4025853
8.7394409 -4.3202262 1.2751667
8.4954329 -3.8224332 1.1296405
8.8815346 -5.2345209 1.1656673
8.2960138 -4.4871116 0.9748435
8.2007132 -4.0580101 0.85846788
8.1356764 -3.6653459 0.75369596
0 -0 0
8.2852516 -4.4846554 0.62756693
8.2240715 -4.0720711 0.52512437
8.1405554 -3.6707921 0.42456058
8.9123363 -5.2583351 0.40856135
8.2933073 -4.4942579 0.28226522
8.2023678 -4.0664949 0.18825448
8.1595736 -3.6834815 0.097660147
8.92626 -5.2682304 0.029487213
8.3127584 -4.5087409 -0.064536318
8.2363358 -4.0874553 -0.14797506
8.1614933 -3.6879497 -0.22967364
0 -0 -0
1.4320654 -0.77741456 -0.070545994
1.4889079 -0.74003583 -0.087893881
1.5223577 -0.68835872 -0.10423654
1.3803968 -0.81691325 -0.11323225
1.3968947 -0.75926894 -0.12736231
1.4688663 -0.73036224 -0.14701018
1.5330583 -0.69374508 -0.1671274
1.3311746 -0.78828579 -0.16648102
1.4063572 -0.76520729 -0.18751438
1.4744351 -0.73361272 -0.20845559
1.5208466 -0.68866676 -0.22801058
1.3320409 -0.79027534 -0.22440377
1.4501578 -0.79008949 -0.25503409
1.5201086 -0.75706607 -0.27921689
1.5533109 -0.7036612 -0.29740095
0 -0 -0
1.4379002 -0.78429013 -0.31552556
1.5304818 -0.76339948 -0.34622562
1.575817 -0.7144534 -0.36839977
1.1851827 -0.70591855 -0.30592552
1.4869381 -0.81191319 -0.39234316
1.5125281 -0.75464201 -0.40852863
1.5358783 -0.69569951 -0.42567736
1.2402527 -0.74030387 -0.37785232
1.3867625 -0.75856584 -0.42954868
1.4189786 -0.7084316 -0.44780448
1.4063302 -0.63695955 -0.45320973
5.3001924 -3.1721547 1.908303
5.5878406 -3.0601962 1.8922367
5.8864994 -2.9390626 1.88451
6.2664051 -2.8418338 1.8992628
6.14784 -3.6742256 1.9122514
6.5645413 -3.5973234 1.9164014
6.9912782 -3.4972234 1.9219681
7.4360919 -3.3829367 1.9242494
7.3202429 -4.374733 1.9366976
7.8523245 -4.3015943 1.9393845
8.4292469 -4.2205806 1.9479176
8.6436186 -3.9397502 1.8676187
8.9031982 -5.3179994 1.9539101
8.8204956 -4.8349719 1.7913709
8.7326412 -4.3780222 1.6439985
8.664587 -3.9533267 1.5111573
8.8990793 -5.3165927 1.5599806
8.8150215 -4.8377752 1.4124618
8.7340364 -4.3844457 1.2782795
8.6361275 -3.9496326 1.1515495
8.9029837 -5.3210344 1.1727455
8.3101816 -4.5609026 0.97977841
8.2308159 -4.1359687 0.86425954
8.152895 -3.7334507 0.7573992
0 -0 0
8.3170481 -4.5680718 0.63208658
8.2435293 -4.1448803 0.5279808
8.150568 -3.7356553 0.42627022
8.9433565 -5.3508849 0.41148075
8.3102446 -4.569623 0.28379068
8.2290554 -4.1428223 0.18944685
8.16681 -3.7472396 0.098020114
8.9323797 -5.3460116 0.029615233
8.3348722 -4.5871444 -0.064925298
8.2262802 -4.145565 -0.14824861
8.1659632 -3.7504749 -0.23044272
0 -0 -0
1.4036409 -0.77317214 -0.06937816
1.4807732 -0.7473579 -0.087682724
1.5017818 -0.69018483 -0.10311572
8.9235783 -5.3551383 -0.73467177
1.4149039 -0.7803421 -0.12943844
1.4501315 -0.73217863 -0.14558202
1.5152117 -0.6969015 -0.1656449
8.822196 -5.2976494 -1.1073768
1.397288 -0.77142197 -0.18693276
1.4628221 -0.73906684 -0.20745099
1.5138922 -0.69674283 -0.22760463
0 -0 -0
1.4435526 -0.79801631 -0.25472882
1.5083903 -0.76281655 -0.27791896
1.5534383 -0.71523893 -0.29826
0 -0 -0
3.7037921 -2.049788 -0.81548607
1.5266432 -0.77321875 -0.34642401
1.5607439 -0.71919698 -0.36590075
1.1565939 -0.69854033 -0.29964676
1.480224 -0.82007736 -0.39189196
1.506135 -0.76302993 -0.40805879
1.5227734 -0.70105571 -0.42322955
1.2381699 -0.74940282 -0.37861159
1.4107697 -0.78298247 -0.43846479
1.4223304 -0.72104126 -0.45025
1.3762476 -0.63353986 -0.44475958
5.2487736 -3.1852846 1.8967912
5.5748239 -3.0976841 1.8942298
5.8683548 -2.975126 1.88451
6.2602305 -2.8854759 1.9027218
6.1227007 -3.7103767 1.9114774
6.5228715 -3.6267076 1.9106971
6.9618959 -3.5360975 1.9198194
7.4222622 -3.4317677 1.9260833
7.29076 -4.4180503 1.9360331
7.8291993 -4.3515935 1.9402312
8.393589 -4.2673402 1.9456916
8.6442108 -4.0042601 1.8730203
8.8956165 -5.3878012 1.9594647
8.8328218 -4.9124498 1.7999622
8.7416458 -4.4498639 1.650803
8.6715269 -4.0209584 1.5166421
8.8958912 -5.389029 1.565189
8.8241053 -4.9134512 1.4187214
8.7626247 -4.4663215 1.2864503
8.6945524 -4.0410423 1.1626244
8.9305029 -5.412127 1.1807226
8.3220158 -4.6340675 0.98450762
8.2407579 -4.2044935 0.86799604
8.1442881 -3.7901325 0.75874579
0 -0 0
8.3132668 -4.632618 0.63394761
8.2721825 -4.2230744 0.53146565
8.1791048 -3.8096352 0.4289771
8.9487991 -5.4289823 0.41325608
8.3134737 -4.6380587 0.28486744
8.2613468 -4.222815 0.19078317
8.1871643 -3.8175635 0.098543704
8.956686 -5.4354782 0.029805839
8.3283968 -4.6503878 -0.065095901
8.2647781 -4.2287545 -0.14940719
8.1971493 -3.8258777 -0.23198089
0 -0 -0
1.3884051 -0.77592152 -0.068859123
1.4823806 -0.75961751 -0.08805225
1.5192218 -0.7095226 -0.10461015
8.9186726 -5.4269032 -0.73699552
1.4048699 -0.78608871 -0.12895934
1.4420664 -0.7392453 -0.14522499
1.5118085 -0.70660686 -0.16574372
8.8888845 -5.412179 -1.1198951
1.3786637 -0.77221519 -0.18507157
1.4503152 -0.74395341 -0.20632081
1.5167686 -0.70937681 -0.22868717
0 -0 -0
1.4213896 -0.79719001 -0.25167635
1.4984145 -0.76935333 -0.27694553
1.5525897 -0.7264272 -0.29894724
0 -0 -0
3.5738435 -2.0066137 -0.78957057
1.5140254 -0.77853769 -0.34463832
1.558959 -0.73000431 -0.3665255
1.2105664 -0.74131298 -0.31480232
3.0488427 -1.7136606 -0.80995512
1.5014248 -0.77225703 -0.40805879
1.5237125 -0.71285129 -0.42469823
1.2302502 -0.75496197 -0.37759927
1.3647361 -0.76842451 -0.42561504
1.3922087 -0.71654272 -0.44209823
1.3862402 -0.64847749 -0.44926631
5.2331991 -3.219934 1.8982671
5.5598874 -3.134186 1.8956534
5.9183702 -3.0462742 1.9065382
6.2275677 -2.9168828 1.8981984
6.1096973 -3.7539444 1.914573
6.5072455 -3.6704705 1.9126812
6.9392042 -3.5783031 1.9195805
7.393137 -3.47352 1.9240201
7.263514 -4.4627023 1.9360331
7.7929869 -4.3942699 1.9379026
8.3524523 -4.3111262 1.9422514
8.6656437 -4.0789547 1.8830519
8.8808136 -5.4535956 1.9635381
8.8376684 -4.9863896 1.8071507
8.7465916 -4.5201693 1.6569434
8.6752815 -4.0875611 1.5216568
8.9384937 -5.4900908 1.5785819
8.8506975 -4.9996486 1.4279022
8.7764444 -4.5414214 1.292546
8.6974211 -4.1074572 1.1663561
8.9513102 -5.5001144 1.1879132
8.32547 -4.7031455 0.98831165
8.2342539 -4.2650528 0.87005109
8.172226 -3.8643134 0.76354319
0 -0 0
8.3324585 -4.7105474 0.63760322
8.2691603 -4.2856965 0.532951
8.1799526 -3.8712866 0.43025935
8.9723434 -5.5188646 0.41589937
8.3257437 -4.7121215 0.28627321
8.268115 -4.2904644 0.19154383
8.1879854 -3.8792868 0.098838225
8.967454 -5.5175829 0.029953772
8.3162374 -4.7107668 -0.065225556
8.2688437 -4.2950568 -0.14995427
8.1988106 -3.8880961 -0.23269869
0 -0 -0
1.3566756 -0.76915139 -0.067518272
1.4378259 -0.74796063 -0.085676737
1.5094295 -0.71626371 -0.10423654
8.9225597 -5.5045695 -0.74009389
1.3844162 -0.78583676 -0.12752202
1.4366198 -0.74761987 -0.14513572
1.4957588 -0.71032047 -0.16445889
8.8284349 -5.4499054 -1.1164713
1.3687181 -0.77771592 -0.18437362
1.4334041 -0.74642342 -0.20456274
1.5061231 -0.71569341 -0.22773996
0 -0 -0
1.4181893 -0.80687392 -0.25198162
1.4892905 -0.77625245 -0.27613431
1.5489928 -0.73636293 -0.29911903
0 -0 -0
3.5657303 -2.0309348 -0.79051644
1.5031378 -0.78463805 -0.34324947
1.5553336 -0.73997635 -0.36673376
0 -0 -0
3.0484262 -1.7381262 -0.81266254
1.4932115 -0.77965552 -0.4071191
1.515807 -0.72052217 -0.42371911
0 -0 -0
1.3834581 -0.79018497 -0.43295777
1.3911977 -0.72685426 -0.44318512
1.3701026 -0.65120459 -0.44532293
5.1987514 -3.2428815 1.892954
5.5247402 -3.1592007 1.8902438
5.8867865 -3.0758533 1.902408
6.2017193 -2.9513116 1.8958038
6.0685072 -3.7801239 1.9088979
6.4854426 -3.7108102 1.9129292
6.9171176 -3.6208138 1.9195805
7.3541164 -3.5104322 1.9194348
7.2393055 -4.5092487 1.936919
7.7616358 -4.4395781 1.9368441
8.3293123 -4.3641124 1.9430609
8.6696644 -4.146019 1.8894181
8.873045 -5.5240855 1.9692779
8.8564653 -5.0688872 1.81732
8.7623558 -4.5966578 1.6652415
8.7061605 -4.1675806 1.5315297
8.9365368 -5.5646958 1.5842367
8.8636742 -5.0789709 1.4349966
8.770359 -4.6067142 1.2957883
8.7033815 -4.1757765 1.1705695
8.9646244 -5.5843568 1.1942049
8.7581844 -5.0187273 1.0433149
8.2687349 -4.3474669 0.87649661
8.1923723 -3.9355268 0.76766729
0 -0 0
8.9032373 -5.1055632 0.68366379
8.2692146 -4.3502989 0.53466481
8.2010565 -3.9430463 0.43263388
8.9874878 -5.6044798 0.41818753
8.9060726 -5.1129746 0.3073003
8.2699394 -4.3560257 0.1922017
8.2216921 -3.9572086 0.099536337
8.9911251 -5.6084914 0.030147225
8.9279194 -5.1298685 -0.070268631
8.2909794 -4.3713608 -0.1508393
8.2279358 -3.9639287 -0.23421122
8.8906727 -5.5523 -0.35504943
1.3805108 -0.79389709 -0.068945631
1.4464555 -0.76376307 -0.086468577
1.4816309 -0.71424359 -0.10261758
8.9131432 -5.5745535 -0.74213606
1.3916621 -0.80127984 -0.12863994
1.4320054 -0.75642073 -0.14513572
1.4895797 -0.71862012 -0.16426122
8.8774252 -5.5556636 -1.1269566
1.366502 -0.78758746 -0.1847226
1.4340599 -0.75798619 -0.2053162
1.4954574 -0.72190624 -0.22679274
3.234077 -2.0276415 -0.55305135
1.3926684 -0.8037051 -0.24831864
1.4810107 -0.78353024 -0.27548534
1.5320261 -0.73985589 -0.29671371
0 -0 -0
3.5566022 -2.0547402 -0.791273
1.4991611 -0.79430521 -0.34344786
1.5525252 -0.75035703 -0.36715028
3.0257542 -1.9043223 -0.79285151
2.9390333 -1.699734 -0.78626561
1.4883995 -0.78880298 -0.4071191
1.5200887 -0.73402554 -0.42616692
2.4835188 -1.5663247 -0.76810575
1.3301537 -0.77060181 -0.41774786
1.3263459 -0.70336473 -0.42389259
1.3548484 -0.65417546 -0.44166118
5.1932912 -3.283911 1.8982671
5.5060811 -3.1935213 1.8905284
5.8584604 -3.1069615 1.899379
6.1930394 -2.9939239 1.8987305
6.0443811 -3.8167725 1.9086398
6.4617133 -3.7500479 1.9126812
6.8741899 -3.6522539 1.9138505
7.3193007 -3.5491197 1.9159956
7.2082028 -4.5515008 1.9360331
7.7325583 -4.4861379 1.9364207
8.3291826 -4.4293923 1.949334
8.6996641 -4.2261477 1.9015718
8.8298416 -5.5726562 1.9672412
8.8882027 -5.1597099 1.8302945
8.8027506 -4.6869493 1.6783524
8.7230577 -4.241653 1.5390517
8.9632673 -5.6579571 1.5950999
8.8734388 -5.157146 1.4416735
8.7795525 -4.6804996 1.3013653
8.7132912 -4.2464976 1.1753846
8.9814405 -5.6716213 1.2010585
0 -0 0
8.2779179 -4.4173393 0.88032663
8.2226973 -4.0123758 0.77280134
8.983777 -5.6750708 0.81054741
8.8967552 -5.1746449 0.68559128
8.2591 -4.4098907 0.53575027
8.2045317 -4.0068812 0.43410605
9.0027628 -5.6910214 0.42051518
8.9073563 -5.1866379 0.3084369
8.2844963 -4.4288411 0.19316797
8.2188158 -4.0181222 0.099798128
9.0030289 -5.6929493 0.030303692
8.9230576 -5.2001605 -0.070480175
8.3019094 -4.4424362 -0.15153123
8.2330894 -4.0288401 -0.23505722
0 -0 -0
1.467091 -0.85570872 -0.073530465
1.4214977 -0.7617752 -0.085254423
1.4942515 -0.73166049 -0.10380067
8.8981476 -5.6414232 -0.74375564
1.3849978 -0.80879855 -0.12848023
1.4203146 -0.76142836 -0.14442165
1.4762064 -0.72336775 -0.16327289
8.8893452 -5.6393232 -1.1328412
1.3582139 -0.79395241 -0.1842573
1.4092743 -0.75598478 -0.20242795
1.4909997 -0.73106861 -0.22679274
4.6673994 -2.9663301 -0.80125767
1.3919754 -0.8147313 -0.24908176
1.4700896 -0.78933525 -0.27434966
1.5194973 -0.74533767 -0.29516745
0 -0 -0
3.5956085 -2.106806 -0.8028121
1.4761312 -0.79374123 -0.33928123
1.5373559 -0.75469691 -0.3646512
3.0880871 -1.9701095 -0.81233716
2.9898925 -1.7537168 -0.80273545
1.4860996 -0.7993021 -0.40782386
1.5146856 -0.74291188 -0.42592216
2.4526684 -1.5679853 -0.76152557
1.258007 -0.7391516 -0.39650646
1.3711566 -0.73794258 -0.43965268
1.3697616 -0.67177129 -0.44785795
5.1698265 -3.3136523 1.8970865
5.4946446 -3.232106 1.8933755
5.8375931 -3.1419387 1.8988284
6.1754184 -3.0322924 1.8989967
6.0224762 -3.8548303 1.9091558
6.4477658 -3.7950311 1.9154093
6.839684 -3.687912 1.910508
7.3078647 -3.599124 1.9187468
7.176033 -4.5930152 1.9349258
7.7032018 -4.5325084 1.9359974
8.3104658 -4.4850669 1.9513577
8.7026072 -4.2937756 1.907938
8.7780981 -5.6156087 1.9633528
8.8818283 -5.2291346 1.8355546
8.7920456 -4.7507186 1.6818374
8.7376032 -4.3152146 1.5462604
8.9658642 -5.7368317 1.6017964
8.8825779 -5.2356324 1.4483505
8.8247967 -4.7743864 1.3123894
8.7511292 -4.3315883 1.184052
8.9874792 -5.7528729 1.2065638
0 -0 0
8.2926807 -4.4908061 0.88481039
8.2336359 -4.0804529 0.77616793
9.0025282 -5.7644992 0.81541508
8.9026508 -5.251442 0.68851572
8.2994757 -4.4971085 0.54014921
8.2182693 -4.0762329 0.43614811
9.0114222 -5.7741871 0.42256668
8.9149561 -5.264575 0.30981278
8.3019838 -4.5039048 0.19421645
8.2253532 -4.0840402 0.10017991
8.9982367 -5.7675104 0.03040611
8.9107819 -5.2665162 -0.070637137
8.3219433 -4.5190578 -0.15240015
8.2297001 -4.0899591 -0.23567249
8.8950472 -5.707943 -0.35799465
2.0405188 -1.2070118 -0.10263988
1.4150422 -0.76952881 -0.085148841
1.4816911 -0.73681569 -0.10324026
8.9313383 -5.7395973 -0.74945956
1.3757207 -0.81474179 -0.12808098
1.3937428 -0.75822949 -0.14219016
1.4744128 -0.733742 -0.16356939
8.9315138 -5.7432346 -1.1426846
8.7837429 -5.2071662 -1.1959275
1.396767 -0.76034868 -0.20129777
1.4900335 -0.74197 -0.22733399
4.5742321 -2.946677 -0.78835267
1.3359592 -0.79299015 -0.23992434
1.4582868 -0.79456383 -0.27305174
1.5175408 -0.75596488 -0.29568288
0 -0 -0
1.221499 -0.72582817 -0.27372029
1.4746746 -0.80466157 -0.3400749
1.5379483 -0.76673406 -0.36590075
3.0882378 -1.9969724 -0.81558484
1.2056968 -0.71717888 -0.3248845
1.4811672 -0.80840558 -0.40782386
1.5005521 -0.74743658 -0.42322955
2.4470608 -1.5856355 -0.76279104
1.2343811 -0.73549575 -0.39047495
1.3564674 -0.7408067 -0.43639198
1.351872 -0.67331892 -0.44335124
5.1493969 -3.3453114 1.8970865
5.5018773 -3.2819657 1.9027712
5.797112 -3.1661782 1.8919445
6.1610093 -3.0722778 1.900327
6.0027623 -3.8943398 1.9104456
6.4243584 -3.8345225 1.9154093
6.8288536 -3.7363358 1.9138505
7.3013129 -3.6517334 1.9228736
7.1444435 -4.6348376 1.9340401
7.6819601 -4.5836954 1.937691
8.28193 -4.5355043 1.9511553
8.7085552 -4.3633556 1.9150758
8.7360554 -5.6645527 1.9616865
8.8723984 -5.2971601 1.8402885
8.8068295 -4.8287554 1.6903014
8.7356796 -4.3811436 1.5506482
8.9811049 -5.8245587 1.6108738
8.9012861 -5.3205204 1.4566967
8.8301029 -4.8475313 1.3175772
8.7465611 -4.3963485 1.1870614
8.9811869 -5.8268394 1.2104962
0 -0 0
8.3129616 -4.5679755 0.88994813
8.2351465 -4.1443353 0.7786929
8.9945889 -5.8375421 0.81792498
8.8985186 -5.3228717 0.69070911
8.3084688 -4.568151 0.5425486
8.224328 -4.1423092 0.4378103
9.0110188 -5.8522291 0.42422363
8.9202175 -5.3417726 0.31112885
8.2987165 -4.5682597 0.19479208
8.2429972 -4.1560421 0.10070351
9.0247326 -5.8629274 0.03061663
8.9589252 -5.3694148 -0.071278609
8.3369694 -4.593679 -0.15318863
8.254427 -4.1655998 -0.2371081
2.4455717 -1.5905899 -0.09881667
0 -0 -0
1.4032991 -0.77433723 -0.084726527
1.478924 -0.74679303 -0.1033648
8.9310579 -5.8171563 -0.75241709
8.8719215 -5.3280096 -0.82901293
1.4065038 -0.77639377 -0.14397535
1.4636658 -0.73963338 -0.16287756
8.8961058 -5.7979293 -1.1426846
8.8086605 -5.2952495 -1.2037213
1.3816544 -0.76314884 -0.19979087
1.4686532 -0.7426042 -0.22476296
4.1243253 -2.692802 -0.71364701
0 -0 -0
1.441294 -0.79681283 -0.27078035
1.5234225 -0.77059805 -0.29774457
3.6659663 -2.3975534 -0.80102324
1.1699227 -0.70492989 -0.26312712
3.423034 -1.8951398 -0.79205304
1.5262337 -0.77262229 -0.36423472
2.8554592 -1.8713952 -0.7571277
1.1945997 -0.72053802 -0.32307959
1.4668254 -0.81229872 -0.40523973
1.5037245 -0.7605682 -0.42543256
2.4162605 -1.586813 -0.75621086
1.210848 -0.73157823 -0.38444343
1.3535799 -0.75004876 -0.43693542
1.3091844 -0.6621145 -0.43067598
5.1287737 -3.3768446 1.8970865
5.4283209 -3.2834141 1.8842647
5.7674851 -3.1960974 1.8886403
6.1282825 -3.103056 1.8960699
5.9860196 -3.9358761 1.9127673
6.3915925 -3.8683517 1.9126812
6.805799 -3.7781665 1.9138505
7.2978621 -3.7061613 1.9279176
7.1183143 -4.6801944 1.9347043
7.6486731 -4.6277089 1.9364207
8.2274075 -4.5714903 1.944882
8.7402134 -4.4465179 1.9280013
8.702776 -5.7191291 1.9620568
8.9012089 -5.3887205 1.8530878
8.8132286 -4.9028368 1.6972717
8.7596788 -4.4606557 1.5597373
8.9559393 -5.8866167 1.6128083
8.9235191 -5.4084005 1.4657385
8.8331108 -4.9199553 1.3225056
8.768054 -4.4747534 1.1936823
8.8697119 -5.8321581 1.2002721
0 -0 0
8.316083 -4.6363506 0.89331102
8.2157736 -4.1979609 0.77928203
8.9852581 -5.9101562 0.82035881
8.9032278 -5.4001403 0.69363362
8.3142862 -4.6380129 0.54477656
8.2521162 -4.2199817 0.44065967
8.9924679 -5.9189467 0.42505211
8.9581871 -5.4394646 0.31361142
8.3508348 -4.6639442 0.19668347
8.2689667 -4.2329698 0.10133618
9.0144796 -5.9352393 0.030704821
8.9830656 -5.4590783 -0.071735829
8.3671007 -4.6774364 -0.15426674
8.2749758 -4.2398739 -0.23844117
0 -0 -0
0 -0 -0
1.3645388 -0.76390862 -0.082667761
1.4547749 -0.74583614 -0.1019949
2.4442017 -1.6134527 -0.20674746
8.8382111 -5.3818278 -0.82893306
1.3973684 -0.78257591 -0.14352906
1.4520169 -0.74496639 -0.16208689
2.4706142 -1.6318787 -0.31862497
8.8896475 -5.418467 -1.2193087
1.3726184 -0.76918721 -0.19916299
1.470239 -0.75476921 -0.22571018
2.4157746 -1.5985039 -0.41969958
0 -0 -0
1.438099 -0.80660695 -0.27110484
1.5055207 -0.77318037 -0.29516745
2.480314 -1.6439495 -0.54414892
0 -0 -0
3.4506502 -1.9381869 -0.80117989
1.5179846 -0.78018415 -0.36340171
2.4251008 -1.610707 -0.64562619
1.1876628 -0.72632957 -0.32240275
1.4457124 -0.81223774 -0.40077624
1.4852294 -0.762694 -0.42151606
2.386344 -1.5882086 -0.74988377
1.2178565 -0.74605125 -0.38811478
1.3061682 -0.73428822 -0.4230774
1.3161935 -0.67583269 -0.43433771
5.1103411 -3.4098413 1.897972
5.4097061 -3.3176622 1.8848341
5.7921791 -3.2563953 1.903234
6.1399899 -3.156466 1.9056486
5.9553251 -3.9682457 1.9107035
6.3652596 -3.905977 1.9119372
6.7807956 -3.8189015 1.9133729
7.2723885 -3.749532 1.9272298
7.0894628 -4.7237835 1.9347043
7.6084709 -4.6673989 1.9334569
8.1906719 -4.6170783 1.9428586
8.7607145 -4.5248289 1.9386117
8.653616 -5.7631607 1.9589093
8.9233551 -5.4772267 1.8646597
8.8456717 -4.9922028 1.7093867
8.761096 -4.5292878 1.5649087
8.9254112 -5.9452963 1.61385
8.9289761 -5.4869013 1.4721373
8.8450556 -4.9979634 1.3288608
8.8083029 -4.5636334 1.2029514
8.7767029 -5.8484516 1.1925197
0 -0 0
8.300477 -4.6946421 0.89471221
8.2473555 -4.2781162 0.78475273
8.9629297 -5.9745793 0.82165182
8.8826742 -5.4625077 0.69463056
8.3742981 -4.7390952 0.55060369
8.2579823 -4.2871051 0.44236931
9.0017004 -6.0045085 0.42722198
8.9612436 -5.5168614 0.31489757
8.3664227 -4.7402315 0.19773194
8.277442 -4.30161 0.10176159
9.0278025 -6.0237412 0.030875515
8.9860077 -5.5366507 -0.07202927
8.3843393 -4.7548294 -0.15511957
8.2621069 -4.2974877 -0.23882569
0 -0 -0
0 -0 -0
1.375456 -0.78114349 -0.083617963
1.4501711 -0.75474846 -0.1019949
2.4334269 -1.6278651 -0.20667705
8.8287716 -5.4506187 -0.83116889
1.3847463 -0.78670734 -0.14272572
1.4456534 -0.75294244 -0.16188923
2.4208949 -1.6204605 -0.31348929
8.869751 -5.4812651 -1.2211698
1.3713228 -0.7795561 -0.19966529
1.4497645 -0.75553399 -0.22327447
2.4609933 -1.6502258 -0.42930666
0 -0 -0
4.261632 -2.4247761 -0.80617595
1.4824038 -0.77283978 -0.29155946
2.4179187 -1.6240351 -0.5326364
0 -0 -0
3.4131455 -1.9447666 -0.79522765
1.5036303 -0.78450698 -0.36111093
2.4402797 -1.6424557 -0.65233797
1.1740761 -0.72795624 -0.31992102
1.4432349 -0.82253706 -0.401481
1.4916986 -0.77761942 -0.42469823
2.3805645 -1.6055259 -0.75114924
1.2066978 -0.74943691 -0.38601688
1.2974582 -0.73990518 -0.42171878
1.298408 -0.67679977 -0.42983097
5.0624118 -3.4229379 1.8879361
5.4030871 -3.3593976 1.8896742
5.759563 -3.2847304 1.8991038
6.105979 -3.1864994 1.9011253
5.9308643 -4.0047121 1.9107035
6.3296571 -3.9377954 1.9084649
6.7521772 -3.8575456 1.9119405
7.239759 -3.7891192 1.9247079
7.051455 -4.7611923 1.9322683
7.5780292 -4.7129636 1.9330336
8.1647377 -4.6687064 1.9434656
8.7484283 -4.586699 1.9420841
8.6360111 -5.8282433 1.9629825
8.932209 -5.5584049 1.8736018
8.8465395 -5.0645132 1.7155273
8.7882366 -4.6118731 1.5747817
8.9715452 -6.0558271 1.6288798
8.9338055 -5.5656729 1.4785361
8.8916454 -5.0965195 1.3405334
8.8108883 -4.6337676 1.2071649
14.036594 -9.4783211 1.9150647
0 -0 0
8.8060808 -5.0521722 0.95253503
8.2729702 -4.3560314 0.78971845
9.0120325 -6.0875077 0.82956183
8.930275 -5.567585 0.7010113
8.9061317 -5.1124663 0.58762288
8.2898455 -4.3684282 0.44550365
9.1103878 -6.158114 0.43416545
8.9713173 -5.5992627 0.31645292
8.9248915 -5.1292424 0.21167064
8.281847 -4.3686471 0.10214337
9.0594292 -6.1255116 0.031111641
8.9985132 -5.620821 -0.072404601
8.923563 -5.133245 -0.16567543
8.2903929 -4.3770399 -0.24041514
0 -0 -0
0 -0 -0
1.3888084 -0.80003619 -0.084726527
1.4463952 -0.76409847 -0.10205717
2.4242182 -1.6433253 -0.20674746
8.8712072 -5.5522838 -0.83835548
1.3540039 -0.78027004 -0.14004795
1.4374872 -0.7599383 -0.16149388
2.4265404 -1.6458887 -0.31552216
8.837636 -5.5366406 -1.2214026
1.3587788 -0.78349555 -0.19853511
1.4363432 -0.75978255 -0.22192129
2.4360869 -1.6552832 -0.42672563
0 -0 -0
4.2415457 -2.4479198 -0.80520248
1.4828582 -0.78468573 -0.29259029
2.407095 -1.6382871 -0.53245646
0 -0 -0
3.370599 -1.9480169 -0.78808486
1.4927379 -0.79051411 -0.35965315
2.4293492 -1.656848 -0.65212142
2.9701576 -1.8668988 -0.81243688
2.919239 -1.6875641 -0.81494296
1.4723301 -0.77904874 -0.42053691
2.3706682 -1.6201024 -0.75114924
2.4057865 -1.5146821 -0.77255821
1.279565 -0.74014246 -0.41737115
1.287446 -0.68116415 -0.42757761
5.0413136 -3.4539359 1.8879361
5.3896713 -3.3970876 1.8922367
5.7234888 -3.3108625 1.893872
6.0760899 -3.2184904 1.8979324
5.9133563 -4.045938 1.9130251
6.3012791 -3.9739757 1.9072249
6.7174578 -3.8925743 1.9088367
7.2077765 -3.8289037 1.9224151
7.0068164 -4.7939072 1.9280604
7.5423541 -4.7552023 1.9313399
8.1215363 -4.7103643 1.9400256
8.725318 -4.6430583 1.9432417
8.5871086 -5.8722477 1.9600202
8.9395685 -5.6393709 1.8823682
8.8775511 -5.1548476 1.7276424
8.8007431 -4.6875319 1.582147
8.9840078 -6.1448164 1.6379573
8.9664688 -5.6626868 1.4896644
8.9004965 -5.1744041 1.346629
8.8033085 -4.6989617 1.2100538
14.036399 -9.6041098 1.9230419
8.9702568 -5.6652975 1.0965704
0 -0 0
8.2891483 -4.4297237 0.79384249
0 -0 0
8.9845076 -5.6782475 0.70799017
8.8996162 -5.1815848 0.58927959
8.2840242 -4.4305177 0.44664341
9.1152992 -6.2432599 0.43621695
8.9942303 -5.6905451 0.31848684
8.9139814 -5.195992 0.21216404
8.2972002 -4.4420352 0.10266697
0 -0 0
9.0069427 -5.7032118 -0.072752632
8.907443 -5.1969719 -0.16596507
8.3091993 -4.4523783 -0.24174823
0 -0 -0
0 -0 -0
1.3881845 -0.81106156 -0.084990479
1.429365 -0.76635659 -0.10118542
2.4206674 -1.6626874 -0.20731081
8.9598598 -5.6845779 -0.85001367
1.3767077 -0.80464619 -0.14290424
1.421398 -0.76262814 -0.16020904
2.4114792 -1.6573677 -0.31488019
3.1566825 -2.0046878 -0.43796006
1.3436692 -0.78580815 -0.1970282
1.4403838 -0.77326792 -0.22327447
2.3981693 -1.651118 -0.42185041
0 -0 -0
1.3574359 -0.79455888 -0.25861228
1.4702046 -0.78957474 -0.29104403
2.4018562 -1.6563766 -0.53353578
3.4443858 -2.1923776 -0.78654391
3.3780308 -1.9800614 -0.79264826
1.4835516 -0.79734337 -0.35861188
2.3829949 -1.6467471 -0.64237863
2.9742575 -1.8950346 -0.81672359
2.9029598 -1.7020031 -0.81329852
1.4658139 -0.78715074 -0.42004734
2.3614781 -1.6351688 -0.75140226
2.459897 -1.569909 -0.79301292
1.2044429 -0.70658773 -0.39427444
1.2680259 -0.68088043 -0.42250752
5.0294447 -3.4913421 1.8914782
5.3800349 -3.4373198 1.8962228
5.6823368 -3.3337572 1.8869882
6.0579252 -3.2566247 1.8984644
5.8796854 -4.0760903 1.9101876
6.2882037 -4.0198698 1.9106971
6.7185631 -3.9484792 1.9159993
7.1807203 -3.8712101 1.9214981
6.970057 -4.83181 1.9260672
7.5187993 -4.8050761 1.9328218
8.1085196 -4.7695422 1.9438704
8.7044344 -4.7007046 1.9449779
8.5509157 -5.9248271 1.9600202
8.8707914 -5.6723714 1.8751796
8.8703966 -5.2237334 1.7324551
8.7935362 -4.7531848 1.5860647
9.0517941 -6.2730489 1.6573026
8.9657497 -5.7394876 1.4953678
8.8976202 -5.2460418 1.3510387
8.8371592 -4.7869334 1.2187213
14.082548 -9.7630863 1.9375355
9.0056963 -5.7652812 1.1052065
0 -0 0
8.3012295 -4.5018783 0.79762995
0 -0 0
9.006629 -5.7698679 0.71250981
8.914938 -5.2640138 0.59242171
8.3049679 -4.5074701 0.44925535
9.1416721 -6.3440785 0.43933365
9.0079451 -5.7769222 0.32022163
8.9215212 -5.2739925 0.21310973
8.3269005 -4.5238905 0.10337599
0 -0 0
9.0466776 -5.8064423 -0.073359989
8.9425077 -5.291244 -0.16722018
8.3273916 -4.528111 -0.2430813
0 -0 -0
0 -0 -0
1.7062105 -1.0109652 -0.10483918
1.4334029 -0.77988249 -0.1018081
2.4046884 -1.6735202 -0.20681787
8.9046888 -5.7265077 -0.84809726
1.3571789 -0.80444485 -0.14138684
1.4219358 -0.77419037 -0.16080205
2.4012644 -1.672133 -0.31488019
3.1576848 -2.0326204 -0.43982124
3.1273317 -1.8547795 -0.46023479
1.4269114 -0.7773515 -0.22192129
2.3839345 -1.6629708 -0.42113346
0 -0 -0
1.3270795 -0.78776246 -0.25374505
1.4385167 -0.7839669 -0.28571796
2.3811648 -1.6637585 -0.53119731
3.4242678 -2.2092121 -0.7850306
1.1247476 -0.66858649 -0.26487747
1.4751966 -0.80455798 -0.35777888
2.3760448 -1.6635776 -0.64324462
2.965029 -1.9148341 -0.8174004
1.1889005 -0.70688957 -0.33429343
1.4498885 -0.79009867 -0.41686517
2.326849 -1.6324037 -0.74355674
2.4259102 -1.5692492 -0.78514576
1.2133179 -0.72183758 -0.3986221
1.2377051 -0.67441601 -0.41377571
5.0188684 -3.5298314 1.8956106
5.3532104 -3.4666188 1.8942298
5.66921 -3.3729846 1.8894664
6.0488296 -3.2997353 1.9019235
5.8474488 -4.1070929 1.907866
6.256916 -4.0541635 1.908713
6.6925411 -3.9886351 1.9155219
7.1542702 -3.9137957 1.9208102
6.945066 -4.8778491 1.9273959
7.4801517 -4.8452754 1.9304931
8.0732145 -4.8156934 1.9424539
8.7098475 -4.7728868 1.9526945
8.5071621 -5.9721012 1.9583539
8.868866 -5.7481132 1.882193
8.8974428 -5.3134561 1.7440724
8.8083696 -4.8312745 1.5940571
9.1005373 -6.389842 1.6733743
8.9802084 -5.8267331 1.503714
8.9205809 -5.333612 1.3594688
8.8302393 -4.8534994 1.2218511
14.058156 -9.8744421 1.9424791
8.9893436 -5.8328838 1.1075711
8.8303461 -5.2844739 0.96551949
8.3005133 -4.5676212 0.80023909
0 -0 0
9.0103874 -5.8505621 0.71563363
8.9244413 -5.3437467 0.59522098
8.3261528 -4.5853276 0.45191482
9.165513 -6.4443045 0.4423714
9.0050135 -5.8533306 0.32138816
8.937871 -5.3579359 0.21428156
8.3331375 -4.5937252 0.10380141
0 -0 0
9.0351868 -5.877655 -0.073557884
8.9544563 -5.3727655 -0.16805692
8.3055782 -4.5825024 -0.24326076
0 -0 -0
2.0362082 -1.3256757 -0.10519183
8.8491154 -5.3169141 -0.54573387
1.4111155 -0.77901578 -0.10056274
2.3902984 -1.6853696 -0.20646578
8.956233 -5.8376455 -0.85640174
8.8764877 -5.3352585 -0.92811888
1.4154166 -0.78193825 -0.16060439
2.3738985 -1.674799 -0.31263337
3.1617901 -2.0628114 -0.44214773
3.149049 -1.8938744 -0.46513224
1.4099747 -0.77938163 -0.22002684
2.3833845 -1.6844213 -0.42285413
4.0658584 -2.6558812 -0.74999249
0 -0 -0
3.9751625 -2.1981375 -0.79221016
2.3548539 -1.6669708 -0.52759963
3.3629808 -2.1990125 -0.77405906
1.1483248 -0.69217235 -0.27142498
3.3110175 -1.8322451 -0.80573136
2.3554406 -1.6707826 -0.64043003
2.9018707 -1.8993785 -0.80318671
1.175384 -0.70865053 -0.33170927
1.4501044 -0.80179513 -0.41833389
2.3152118 -1.6455293 -0.74305058
2.3565159 -1.5449517 -0.76573998
1.1412947 -0.68850523 -0.37634054
1.2142302 -0.67131972 -0.40729725
5.0087872 -3.5688765 1.9000381
5.3166118 -3.4894063 1.8888201
5.6870947 -3.4310472 1.902408
6.0217223 -3.3330536 1.8997949
5.8095427 -4.1339321 1.9037386
6.2238245 -4.0871611 1.9062328
6.6571364 -4.0230951 1.912418
7.1377802 -3.9618714 1.9228736
6.9173894 -4.9220676 1.9280604
7.4274049 -4.8760638 1.9245656
8.02005 -4.8509474 1.9367877
8.6821117 -4.8271928 1.9530803
8.4831705 -6.0333004 1.9613162
8.9914179 -5.9062018 1.9158567
8.9228764 -5.403194 1.7555236
8.8242989 -4.9106841 1.6023626
10.296442 -7.3242669 1.9015008
8.9600077 -5.8920631 1.506357
8.931777 -5.4149776 1.3662131
8.8349743 -4.92693 1.2266662
14.049926 -9.997962 1.9497819
8.9558783 -5.8895712 1.1078795
8.8241415 -5.354568 0.96841532
8.3106127 -4.6398392 0.80394226
0 -0 0
8.9551497 -5.8931231 0.71410495
8.9324484 -5.4232759 0.59796315
8.3379717 -4.6587415 0.45409933
9.1925354 -6.5479584 0.44560644
8.9806147 -5.9161725 0.32180691
8.9483995 -5.4391613 0.21533006
8.3414488 -4.6652699 0.10425954
0 -0 0
9.0014572 -5.9346347 -0.073578358
8.9657402 -5.4546313 -0.16889367
8.3619175 -4.6807423 -0.24574745
0 -0 -0
0 -0 -0
2.1448112 -1.3066691 -0.13276462
1.4080505 -0.78863496 -0.10068727
2.3709834 -1.6936266 -0.20569119
2.4436066 -1.6141852 -0.23460218
8.9150267 -5.4331627 -0.93561661
1.3888906 -0.77844512 -0.15813354
2.3668129 -1.691646 -0.31306133
