# .PCD v0.7 - Point Cloud Data file format
VERSION 0.7
FIELDS x y z
SIZE 4 4 4
TYPE F F F
COUNT 1 1 1
WIDTH 1495
HEIGHT 1
VIEWPOINT 0 0 0 1 0 0 0
POINTS 1495
DATA ascii
1.5951806 -0.66524923 -0.3160561
3.9847019 -1.4917167 -0.81964761
3.8013585 -1.2663078 -0.81110042
2.9166884 -0.85306174 -0.64704245
1.590641 -0.66514921 -0.38235274
1.6118999 -0.60426646 -0.39866036
1.5981045 -0.53254616 -0.4071191
1.5253961 -0.44556397 -0.40119907
1.5113842 -0.633681 -0.42872196
1.497741 -0.56275314 -0.43479347
1.4314833 -0.47743839 -0.4260664
1.3833919 -0.40403253 -0.42307085
5.6795979 -2.3891747 1.9035803
6.0031028 -2.2589893 1.9050491
6.3179841 -2.1074102 1.9076397
6.6269617 -1.9389265 1.9059147
6.6160011 -2.7781899 1.9158628
6.9998317 -2.6361542 1.9149133
7.4026341 -2.4753783 1.919103
7.8464065 -2.3058264 1.9263127
7.8709006 -3.3049855 1.9386908
8.4159002 -3.1681073 1.9478525
8.440424 -2.8260102 1.8392503
8.3635826 -2.4643123 1.7142506
8.5586796 -3.5914993 1.7487617
8.5100126 -3.2060792 1.6195451
8.4444809 -2.8321228 1.4989496
8.3946962 -2.4769835 1.3887665
8.570034 -3.5971437 1.39867
8.5072823 -3.2099688 1.2772527
8.4461765 -2.8376119 1.1654443
7.8750191 -2.3312666 0.99589896
8.0659075 -3.3872001 0.98915994
8.0073099 -3.0214787 0.88457638
7.9371266 -2.6701357 0.78569895
7.8671122 -2.3331082 0.69309729
8.0647602 -3.3882084 0.66725463
8.0106783 -3.025625 0.57040668
7.9526339 -2.677516 0.48016435
7.8959742 -2.3445165 0.39160249
8.099246 -3.4056907 0.34689841
8.0233574 -3.0348949 0.25669178
7.9332328 -2.6754553 0.17215714
0 -0 0
8.1050472 -3.4094622 0.025015056
8.0200367 -3.0369995 -0.058524206
7.9621749 -2.688776 -0.13524689
0 -0 -0
8.0958862 -3.4105985 -0.29756716
1.5881213 -0.60204989 -0.073530465
1.5900922 -0.53804636 -0.088738509
1.1296034 -0.33667427 -0.073538452
1.551301 -0.65473694 -0.11886571
1.5590572 -0.59196562 -0.1335907
1.5754946 -0.53338277 -0.14906314
7.8487821 -2.3418374 -0.8134982
1.5378093 -0.64954859 -0.17964114
1.5745289 -0.59862632 -0.19728559
1.6067322 -0.54442716 -0.21473436
1.5996922 -0.47772512 -0.22801058
1.5465782 -0.65474802 -0.2433311
1.597787 -0.60849053 -0.26403889
2.9901984 -1.0144826 -0.51917142
2.9572175 -0.88363647 -0.53827685
1.5820131 -0.67118263 -0.31425726
1.6303755 -0.62178117 -0.33614445
3.7369113 -1.2703656 -0.79899746
3.5916941 -1.0744516 -0.79823422
1.5937169 -0.67795396 -0.38408479
1.6017911 -0.61171257 -0.39708108
1.5892853 -0.54046428 -0.40570959
1.5086985 -0.4507519 -0.39752734
1.5074676 -0.64294279 -0.42872196
1.4960623 -0.57262242 -0.43531793
1.4777235 -0.5029574 -0.4407396
1.3965158 -0.41718218 -0.42785928
5.6525335 -2.4187169 1.8994479
5.988234 -2.2954381 1.9047644
6.2840028 -2.1390119 1.9013065
6.6121697 -1.9787233 1.9051164
6.6041608 -2.8210096 1.9174105
7.0016146 -2.6859944 1.9198736
7.3900633 -2.5216944 1.9198194
7.8209243 -2.3505657 1.9235615
7.8540602 -3.3547504 1.9395765
8.3953905 -3.219337 1.9476409
8.4470196 -2.8859787 1.8445116
8.3755493 -2.5237935 1.7198449
8.594326 -3.6686387 1.7606114
8.5039673 -3.2635264 1.6221751
8.4428062 -2.889312 1.501771
8.4162159 -2.539573 1.3948781
8.578722 -3.662863 1.4037296
8.5142326 -3.2724111 1.2812867
8.4558077 -2.8987081 1.1692054
7.8843193 -2.3867335 0.9989084
8.0605059 -3.4432635 0.99106985
8.0239019 -3.084115 0.88848317
7.9394279 -2.7252519 0.78756726
7.8898373 -2.3926136 0.69637966
8.0878286 -3.4564373 0.67090535
8.0254869 -3.0876184 0.57279938
7.9728789 -2.7389119 0.48239234
7.9120259 -2.4022076 0.3931222
8.096571 -3.4631822 0.34768745
8.0372295 -3.0966458 0.25773865
7.9809537 -2.7462029 0.17355512
7.895566 -2.4008226 0.090024479
8.1106367 -3.4705381 0.025097558
8.0385704 -3.1005468 -0.058797173
7.9729409 -2.7470257 -0.13571353
0 -0 -0
8.0977726 -3.4700513 -0.29841349
1.5769414 -0.60890412 -0.073184438
1.597144 -0.55137742 -0.089319184
7.8534708 -2.3932648 -0.51221615
1.5536708 -0.66699773 -0.11935863
1.5684115 -0.60655433 -0.1347086
1.5834893 -0.54694188 -0.15013425
7.8742414 -2.4021478 -0.8176493
1.5456703 -0.66407436 -0.18103205
1.5680475 -0.60720021 -0.19693662
1.5939851 -0.55103421 -0.21347861
1.5967308 -0.48753163 -0.22801058
1.5370778 -0.66187686 -0.24247079
1.5986303 -0.6200698 -0.26480201
2.9643354 -1.0260333 -0.51576442
3.0026155 -0.91730767 -0.54755449
1.5715429 -0.67814887 -0.31299809
1.616461 -0.62786245 -0.33406362
3.8512797 -1.3356627 -0.82518756
3.5738099 -1.0930369 -0.79573518
1.585047 -0.68578172 -0.38300225
1.6061791 -0.62470776 -0.3991116
1.6125703 -0.55944484 -0.41252229
1.5355773 -0.46906468 -0.4053604
1.5061567 -0.65333527 -0.42948118
1.4979151 -0.58389413 -0.43689138
1.4737004 -0.51169938 -0.44046786
1.3829179 -0.42237985 -0.42447922
5.6104279 -2.4415357 1.8902974
5.9642138 -2.3283031 1.9016324
6.2525969 -2.1712224 1.8957995
6.6091223 -2.0220778 1.9077773
6.5849543 -2.860709 1.9168946
7.0012436 -2.7352505 1.9243379
7.3606944 -2.5622027 1.916238
7.8063545 -2.3985097 1.9235615
7.8485336 -3.4094841 1.9433415
8.3672848 -3.2675896 1.9457355
8.4652176 -2.9503238 1.8524036
8.3739719 -2.5794704 1.7227387
8.5968933 -3.7322609 1.7657957
8.5195436 -3.3296206 1.6290131
8.4491253 -2.949512 1.506086
8.4165192 -2.5961149 1.3975422
8.6068802 -3.7374892 1.412063
8.5207357 -3.3350589 1.2853208
8.4528379 -2.9557741 1.1712806
7.9084096 -2.4470975 1.003844
8.0838852 -3.5120587 0.9965753
8.0298367 -3.14308 0.89125907
7.950747 -2.7837863 0.79036963
7.9007063 -2.4489453 0.69865215
8.1204214 -3.5294483 0.67539275
8.0286875 -3.1455393 0.57439452
7.9615769 -2.7897623 0.48273513
7.9143085 -2.4560385 0.39397702
8.1228151 -3.5335233 0.34973893
8.0385475 -3.1539347 0.25839666
7.9950843 -2.8060474 0.17423356
7.9198365 -2.4613914 0.090471715
8.1304512 -3.5381951 0.025225578
8.0417328 -3.158586 -0.058960956
8.0087614 -2.8144596 -0.13661465
7.924438 -2.4660068 -0.21283072
8.1074791 -3.5332482 -0.29956448
1.5722457 -0.61820298 -0.073141187
1.6003243 -0.5634886 -0.089688711
7.9177294 -2.4660411 -0.51738435
1.5458921 -0.67492187 -0.11907696
1.5470381 -0.60922688 -0.13319144
1.5772854 -0.55565488 -0.14986648
7.8536534 -2.4486408 -0.81705624
1.5397444 -0.67274976 -0.18081807
1.5559766 -0.61353123 -0.19588971
1.5961878 -0.56278372 -0.21423207
1.6078966 -0.50174701 -0.23004036
1.5338942 -0.67169273 -0.24261416
1.5947955 -0.62986714 -0.26480201
2.9765935 -1.0507722 -0.51900923
2.9696603 -0.92719966 -0.54257208
1.5673522 -0.68777889 -0.31299809
1.6226225 -0.64174157 -0.33614445
3.7275088 -1.3184153 -0.80038631
3.5829062 -1.1199054 -0.79927552
1.5763412 -0.69352871 -0.38191971
1.6032215 -0.63491005 -0.39933723
1.6072745 -0.56868047 -0.41205245
1.5363723 -0.47963372 -0.40633953
1.5056603 -0.66412634 -0.43049353
1.4925103 -0.59236217 -0.43636689
1.4868622 -0.52651453 -0.44535893
1.3912913 -0.43428814 -0.42785928
5.6136894 -2.4840338 1.8964961
5.9417977 -2.3616686 1.89907
6.2681551 -2.2198162 1.9046108
6.6214314 -2.0703597 1.9149613
6.5566721 -2.8963747 1.913799
6.9555235 -2.7666998 1.9164014
7.3365989 -2.6043952 1.9140892
7.8063488 -2.4510288 1.9272298
7.822113 -3.4552133 1.9420125
8.3398123 -3.3159802 1.944042
8.4718704 -3.011065 1.8578674
8.3748341 -2.6361063 1.7262112
8.6286697 -3.8091493 1.77709
8.5181627 -3.3894768 1.632695
8.4633846 -3.0128746 1.5118946
8.417387 -2.653053 1.4003631
8.6371565 -3.8137963 1.4208428
8.5654268 -3.4133062 1.2951971
8.4747028 -3.0219045 1.1768575
7.9169087 -2.503058 1.0068535
8.1230812 -3.5884969 1.0041029
8.044589 -3.2059159 0.89506298
7.9597707 -2.8418922 0.79298514
7.9140296 -2.5064025 0.70117706
8.1241484 -3.5904937 0.67752236
8.030551 -3.2032456 0.57592326
7.9715734 -2.8483026 0.48439181
7.9333677 -2.5154219 0.39568666
8.1539822 -3.6067414 0.35202712
8.0663843 -3.2221091 0.25992212
7.9946594 -2.8611155 0.1746036
7.935082 -2.519624 0.090820774
8.1415091 -3.6025834 0.025327994
8.0593405 -3.2227209 -0.059233923
7.9885178 -2.8625355 -0.13656637
7.9482179 -2.5270023 -0.21388181
1.5405585 -0.68265539 -0.057076022
1.5572928 -0.6233831 -0.07262215
1.5921373 -0.57161021 -0.089424767
7.924324 -2.5215378 -0.51881659
1.5471921 -0.68682289 -0.11949946
1.5497473 -0.62130433 -0.13375039
1.5794704 -0.56734264 -0.15040202
1.6005027 -0.50980657 -0.1668309
1.5155976 -0.67330432 -0.17846422
1.5660086 -0.62861681 -0.19763458
1.5927045 -0.57256711 -0.21423207
1.5972357 -0.50919586 -0.2289578
1.5360727 -0.68390965 -0.24361791
1.5578907 -0.6263687 -0.25930756
2.9478076 -1.0609963 -0.51511544
2.9920714 -0.95438474 -0.54772633
1.5613058 -0.69658142 -0.31263831
1.604991 -0.64618474 -0.33330697
3.859493 -1.3918004 -0.83054465
3.6178946 -1.1552567 -0.80864686
1.5684913 -0.7015934 -0.38105372
1.5992956 -0.64473528 -0.39933723
1.5872968 -0.57259476 -0.40782386
1.5712736 -0.50113064 -0.41637561
1.5042052 -0.67453992 -0.43125278
1.4915318 -0.60259336 -0.43715361
1.4845088 -0.53595465 -0.44563067
1.4205958 -0.45301992 -0.43771777
5.5722017 -2.5066729 1.887641
5.9245291 -2.3970037 1.8982158
6.2507992 -2.2569292 1.9035093
6.6150308 -2.1130021 1.9168239
6.5634551 -2.9476342 1.9210219
6.9330287 -2.8071446 1.9149133
7.3551788 -2.6619205 1.9231619
7.7828212 -2.496206 1.9251664
7.8016548 -3.5035434 1.9422342
8.3030014 -3.3604896 1.9402312
8.4688883 -3.0686624 1.8613075
8.3977346 -2.7000582 1.7343137
8.6302385 -3.8732886 1.7822741
8.5419178 -3.4597895 1.6412863
8.488306 -3.0805597 1.5196947
8.4225721 -2.7116127 1.4039674
8.628027 -3.8732007 1.4232237
8.5645103 -3.4739873 1.2982574
8.4792976 -3.0823159 1.1800998
7.9184055 -2.5570793 1.0090202
8.135354 -3.6537414 1.0083723
8.0597925 -3.2694247 0.89896977
7.9777355 -2.9036188 0.7965349
7.9440098 -2.5696354 0.705217
8.151988 -3.662751 0.68170553
8.0625181 -3.2734802 0.57964534
7.9905319 -2.9104874 0.48661986
7.9567451 -2.5766697 0.39763373
8.1481018 -3.6640818 0.35273722
8.0631294 -3.2783191 0.26046047
7.9985566 -2.9179969 0.17507645
7.9698853 -2.584614 0.091398902
8.1520815 -3.6672399 0.025430407
8.0616436 -3.2811589 -0.059397705
8.0196409 -2.929337 -0.13740312
7.9601364 -2.5846772 -0.21462525
0 -0 -0
1.5645411 -0.63745034 -0.073141187
1.5810978 -0.57862312 -0.089002453
1.610786 -0.52346152 -0.10566871
1.5493133 -0.6991756 -0.1199924
1.5495977 -0.63230813 -0.1340698
1.5834419 -0.579763 -0.1511161
1.585989 -0.51592356 -0.1656449
1.5223114 -0.68750191 -0.17974813
1.5731552 -0.64272153 -0.19903046
1.5835723 -0.58028096 -0.21347861
1.598792 -0.52052039 -0.22963439
1.5327489 -0.69373 -0.24376129
1.586946 -0.64939034 -0.26480201
1.6276416 -0.59713858 -0.28505757
2.9833488 -0.9718104 -0.54721087
1.558794 -0.70696092 -0.31299809
1.6019045 -0.65639293 -0.33349615
3.6024957 -1.3241577 -0.7769739
3.6339853 -1.1850147 -0.8138532
1.5606019 -0.70958787 -0.38018766
1.6061251 -0.65897375 -0.40204459
1.5992627 -0.58802593 -0.41181755
1.5552623 -0.50655854 -0.41294864
1.4929955 -0.68054676 -0.42922813
1.4895912 -0.61246783 -0.43767807
1.4820954 -0.54538566 -0.44590238
1.4041041 -0.45727116 -0.43349269
5.6097202 -2.565052 1.9056466
5.9097099 -2.4333107 1.8982158
6.2070613 -2.2842844 1.8944227
6.6001077 -2.1529534 1.9162917
6.5399718 -2.9854441 1.9194742
6.9076128 -2.8463104 1.9126812
7.3551064 -2.7130501 1.9274594
7.7590332 -2.541187 1.923103
7.7950916 -3.5582316 1.945999
8.2786112 -3.409884 1.9393845
8.4728661 -3.1290503 1.8663665
8.4220285 -2.7650015 1.742802
8.6259794 -3.935143 1.7863475
8.5733213 -3.5338976 1.6514556
8.4905167 -3.1404531 1.5235116
8.4320469 -2.7718775 1.4083554
8.6706724 -3.9564457 1.4342357
8.5668325 -3.5362968 1.301874
8.4918394 -3.145998 1.1845095
7.9251938 -2.6130784 1.0119094
8.1408043 -3.7163827 1.0118554
8.0781965 -3.3347583 0.90328777
7.9840398 -2.9615173 0.79896361
7.9489088 -2.625205 0.70706856
8.1529417 -3.7234714 0.68368304
8.0690231 -3.3339386 0.58157283
7.99405 -2.9674528 0.48793378
7.9625983 -2.6326549 0.39872602
8.15273 -3.7264707 0.35392082
8.0733414 -3.3403428 0.26144752
8.0142374 -2.9795625 0.17581655
7.9662161 -2.6375532 0.091540709
8.1512527 -3.7271712 0.025498686
8.1115732 -3.3596437 -0.059916344
8.020256 -2.9854655 -0.13772494
7.9498205 -2.6353583 -0.21477906
0 -0 -0
1.5522943 -0.64359444 -0.072751909
1.5775176 -0.58831364 -0.089002453
1.6028073 -0.53176385 -0.10535736
1.5313938 -0.70243055 -0.11893613
1.5392445 -0.63912857 -0.13351084
1.5770551 -0.58842337 -0.15084833
1.5856267 -0.52658617 -0.1659414
1.502703 -0.68977845 -0.17792925
1.5517567 -0.64511788 -0.19682029
1.5781231 -0.58929253 -0.21322747
1.6143726 -0.53657073 -0.23234077
1.5122797 -0.69567686 -0.24118029
1.5719832 -0.65455669 -0.26297051
1.6091585 -0.60158569 -0.2824617
2.9969606 -0.99662566 -0.55081886
1.5526401 -0.71568859 -0.31263831
1.5951278 -0.66507602 -0.33292866
1.6236777 -0.60814446 -0.35098743
3.6396377 -1.2116151 -0.81676877
1.5491288 -0.7158739 -0.37845558
1.5822731 -0.66055936 -0.39708108
1.6120086 -0.6039663 -0.41604611
1.5668458 -0.52098674 -0.41686517
1.4949365 -0.69254142 -0.4309997
1.4840248 -0.6208514 -0.43715361
1.4877322 -0.55784822 -0.44861963
1.4222136 -0.47284043 -0.43997115
5.598208 -2.6014376 1.9071224
5.901741 -2.4724894 1.9004935
6.1632237 -2.311188 1.885336
6.5739694 -2.1891468 1.9125665
6.5145187 -3.0222635 1.9174105
6.8944855 -2.8905141 1.9139212
7.3383207 -2.7581291 1.9274594
7.745141 -2.589365 1.9235615
7.7695732 -3.6043527 1.9451131
8.2737579 -3.467416 1.9431952
8.5039186 -3.1999493 1.8774964
8.4300251 -2.8250444 1.7480109
8.6640797 -4.0169315 1.7993082
8.574173 -3.5959551 1.6558388
8.4904652 -3.1997938 1.5269969
8.4504604 -2.8355024 1.4143103
8.6812191 -4.0257978 1.4400393
8.582407 -3.6045175 1.3075774
8.530818 -3.2201037 1.1926804
7.9391198 -2.6717896 1.0157616
8.1692266 -3.7901011 1.0182595
8.0905981 -3.3981292 0.90698898
7.9890008 -3.0192499 0.80129892
7.9354844 -2.6748841 0.70732111
8.1597881 -3.7872796 0.68619299
8.0760098 -3.3949869 0.58356678
8.0055733 -3.0277488 0.48976189
7.9737411 -2.6907246 0.40010321
8.1559916 -3.7886322 0.35506487
8.0858583 -3.4037781 0.26252431
8.0303984 -3.0417848 0.17657723
7.9640927 -2.6911852 0.091704331
8.1880827 -3.8049295 0.025686448
8.1073923 -3.4163415 -0.060039178
8.0214205 -3.0420666 -0.13806286
7.9789543 -2.699466 -0.2160096
0 -0 -0
1.5372698 -0.64844751 -0.072232872
1.5710776 -0.59691799 -0.088844083
1.607077 -0.54414922 -0.10585551
1.5071642 -0.70254207 -0.11738692
1.5380486 -0.64972484 -0.13375039
1.5734149 -0.59808892 -0.15084833
1.5823658 -0.53630549 -0.1659414
1.5002444 -0.69982648 -0.17814323
1.5276445 -0.64611542 -0.19426116
1.5772594 -0.60002285 -0.2136042
1.6063584 -0.54487491 -0.23166418
1.5026034 -0.70242834 -0.24031995
1.5761274 -0.66765922 -0.26434413
1.6072812 -0.61215037 -0.28278619
2.9823933 -1.0121466 -0.5492726
1.5597999 -0.73062634 -0.31497678
1.5819771 -0.67101663 -0.33103701
1.6400616 -0.62578261 -0.35535246
3.5969436 -1.2219692 -0.80885518
1.5411724 -0.72370583 -0.37758958
1.5952275 -0.67749125 -0.40136772
1.5991912 -0.61037993 -0.41369691
1.5682102 -0.53214872 -0.41808909
1.4976615 -0.70499742 -0.43302435
1.4792994 -0.62956762 -0.43689138
1.4860793 -0.56765312 -0.44916311
1.4147424 -0.48001659 -0.43856278
5.5847321 -2.6369624 1.9080079
5.9164424 -2.5214334 1.9101739
6.168684 -2.356509 1.8913939
6.5430722 -2.2235494 1.9075111
6.4836168 -3.0564113 1.913799
6.8855305 -2.9365637 1.9164014
7.2867985 -2.7899101 1.9183869
7.7291069 -2.6368394 1.9235615
7.7508397 -3.6536214 1.945999
8.2334461 -3.5100684 1.9387493
8.5069847 -3.2608309 1.8825552
8.4329567 -2.8837013 1.7522548
8.6774969 -4.0880265 1.8072697
8.5917921 -3.6654963 1.6635536
8.5222273 -3.2716217 1.5362905
8.4506569 -2.8933787 1.4172878
8.6921349 -4.0958495 1.4459918
8.5947332 -3.6718943 1.3128633
8.5386648 -3.2830629 1.1965714
7.951683 -2.7304475 1.0194933
8.1646919 -3.8490531 1.0206189
8.0796566 -3.4520071 0.90811986
8.0186415 -3.0868123 0.8061564
7.948133 -2.7335715 0.70993024
8.1769791 -3.8564155 0.68961555
8.1036491 -3.4652686 0.58708948
8.0194521 -3.0893748 0.49176142
7.9636922 -2.7418761 0.40043563
8.173254 -3.8577981 0.35684019
8.0988188 -3.4678855 0.26363099
8.0507593 -3.1061158 0.17744069
7.987134 -2.7536898 0.092162468
8.1935186 -3.868762 0.025777485
8.1166086 -3.4790237 -0.060264375
8.0380459 -3.1049182 -0.13867432
7.9915342 -2.7584846 -0.21680433
1.4962356 -0.70744103 -0.056060437
1.5323439 -0.65747386 -0.072189614
1.5999811 -0.61916059 -0.090691701
1.6027646 -0.55367398 -0.10579325
1.5190525 -0.71946228 -0.11865445
1.5386122 -0.66111755 -0.13414966
1.5678579 -0.60701275 -0.1506698
1.5828071 -0.54730535 -0.16633673
1.4959221 -0.70901865 -0.17814323
1.5382491 -0.66175675 -0.19612236
1.5790985 -0.61184007 -0.21435764
1.5983033 -0.55310094 -0.23098759
1.4929014 -0.70908725 -0.23945962
1.5592943 -0.67184275 -0.26220739
1.6136146 -0.62592638 -0.28457084
2.9742649 -1.0297825 -0.54892898
1.5535111 -0.73933792 -0.31461704
1.5805349 -0.68187779 -0.33160451
1.6334504 -0.63476902 -0.35475725
3.5533364 -1.2315253 -0.80073327
1.5367028 -0.73314863 -0.37758958
1.5847801 -0.68456239 -0.39978844
1.5954158 -0.62018085 -0.41369691
1.5814077 -0.54747045 -0.42249519
1.4967985 -0.7158432 -0.43403667
1.4798367 -0.64054924 -0.43820259
1.4834652 -0.57710975 -0.44943482
1.4462259 -0.50061512 -0.44926631
5.562417 -2.6682873 1.9059417
5.8480873 -2.5348146 1.8930908
6.1630678 -2.3978004 1.8941474
6.5411453 -2.26776 1.9109701
6.4656129 -3.0965538 1.914057
6.870049 -2.9799139 1.9171455
7.2641139 -2.8324518 1.9169543
7.7293291 -2.6899734 1.9276882
7.7309136 -3.7023742 1.9466633
8.2413435 -3.5733519 1.9457355
8.5205698 -3.3261437 1.8900425
8.4549427 -2.9492872 1.7605503
8.6947966 -4.1615577 1.8161569
8.6052656 -3.7338207 1.6705669
8.5378122 -3.3378551 1.5427631
8.4775 -2.9608073 1.4248098
8.7034092 -4.1666136 1.452093
8.6092787 -3.7407413 1.3185666
8.5525217 -3.3487697 1.20137
7.9535174 -2.7857499 1.0219009
8.1597404 -3.9080918 1.0229783
8.0856934 -3.5134106 0.91120422
8.0134544 -3.1414065 0.80755764
7.9406133 -2.7855873 0.71077192
8.1882324 -3.9233193 0.69258183
8.0904694 -3.5185077 0.58768761
8.0254383 -3.1483672 0.49330387
7.9759345 -2.8009489 0.40190783
8.1899738 -3.9273179 0.35861555
8.1323738 -3.5414588 0.26542562
8.0399237 -3.1587462 0.1776257
8.0040464 -2.8145878 0.092555165
8.2111006 -3.938859 0.025908349
8.1354418 -3.5463426 -0.060564637
8.0421057 -3.1633306 -0.13907661
8.0065174 -2.8187547 -0.21767594
0 -0 -0
1.5356064 -0.67006028 -0.072535641
1.5589888 -0.61432207 -0.088580139
1.5918064 -0.5608446 -0.1052951
1.5065194 -0.72487694 -0.11802069
1.5299597 -0.66855019 -0.13375039
1.5511314 -0.6115073 -0.14942017
1.5822345 -0.55799985 -0.16663323
1.4915434 -0.71818411 -0.17814323
1.5223305 -0.66600764 -0.19461015
1.5623945 -0.61642027 -0.21259959
1.5986167 -0.56421655 -0.23152885
1.4903051 -0.71909434 -0.23974639
1.5605739 -0.68377751 -0.26312312
1.6088258 -0.6354531 -0.28440863
2.9781082 -1.0516211 -0.55081886
1.5436317 -0.74628717 -0.31353772
1.562833 -0.68564534 -0.32876703
1.627702 -0.64405853 -0.35436043
3.5641561 -1.2598242 -0.80489832
1.5295397 -0.74128652 -0.37694004
1.5743061 -0.69153094 -0.39820915
1.5942918 -0.63103169 -0.41440168
1.572533 -0.55522662 -0.42102647
1.4845463 -0.72120923 -0.43175894
1.4794114 -0.65117234 -0.43925151
1.4781067 -0.58549243 -0.44889137
1.4105548 -0.49798036 -0.43912613
5.5373511 -2.6981823 1.90299
5.8157573 -2.5633042 1.8876811
6.1848836 -2.4500878 1.9054369
6.5180197 -2.3046398 1.9083095
6.4612603 -3.143353 1.9184422
6.8356805 -3.0149746 1.9126812
7.2520132 -2.8791203 1.9183869
7.7282724 -2.7428837 1.9315859
7.6922665 -3.7420621 1.942677
8.2246294 -3.6262186 1.9470057
8.5154715 -3.3845115 1.8934827
8.4542513 -3.0073586 1.7642157
8.6920767 -4.2260017 1.8209709
8.6380377 -3.8111906 1.6814374
8.5565681 -3.4058611 1.5498993
8.4787121 -3.0197277 1.4281008
8.7052479 -4.2333446 1.4567062
8.6405125 -3.8175085 1.3269128
8.5870771 -3.4232149 1.2091517
7.9615173 -2.8435147 1.0251511
8.2070894 -3.9928627 1.0319666
8.1067457 -3.5818515 0.91603625
8.0541334 -3.2145057 0.81362945
7.9402599 -2.8402987 0.71228683
8.2034531 -3.9926872 0.69592839
8.1161804 -3.5890677 0.59114385
8.0291491 -3.2068088 0.49473211
7.9915118 -2.8616214 0.40356997
8.1953669 -3.9919364 0.35991743
8.1360817 -3.602623 0.26626313
8.0603075 -3.2239847 0.17850973
8.0063925 -2.8707342 0.092784233
8.2236347 -4.0071268 0.02602499
8.1281567 -3.6026776 -0.060673829
8.0708113 -3.2319448 -0.13991335
7.9937758 -2.8695173 -0.21780412
0 -0 -0
1.5278132 -0.67784929 -0.072362632
1.5375806 -0.61681211 -0.087577142
1.591153 -0.57161349 -0.10548191
1.483223 -0.72490889 -0.11654191
1.5285616 -0.67913944 -0.13398995
1.5538205 -0.62361026 -0.15004499
1.5731623 -0.56567746 -0.16604023
1.4871087 -0.72732252 -0.17814323
1.5272901 -0.67937261 -0.19577338
1.5677888 -0.62969291 -0.21385534
1.603515 -0.57703424 -0.23274671
1.4938629 -0.73214507 -0.24103691
1.5491269 -0.69012278 -0.26190215
1.6039809 -0.64494455 -0.28424639
3.0049675 -1.0818882 -0.55700397
1.5310768 -0.75184238 -0.31191877
1.5684611 -0.69962198 -0.33084783
1.6219012 -0.65330136 -0.35396358
3.5213933 -1.2690685 -0.79698473
1.5293421 -0.75281346 -0.37802258
1.5558007 -0.69482136 -0.39459932
1.5894884 -0.64043897 -0.41416678
1.5718335 -0.56585032 -0.42176083
1.4870338 -0.7337293 -0.43378362
1.4745071 -0.65984339 -0.43898928
1.4762714 -0.59527069 -0.44943482
1.4453906 -0.52027464 -0.45095634
5.5164094 -2.7299891 1.9015141
5.8139167 -2.6052129 1.8922367
6.1305041 -2.4721718 1.8933214
6.4584146 -2.3282447 1.8950055
6.4340558 -3.1790876 1.9161208
6.8170524 -3.0568607 1.9126812
7.2414131 -2.9264743 1.9202968
7.6792622 -2.7786603 1.9235615
7.6656642 -3.7874627 1.9417912
8.1754694 -3.6646228 1.9406548
8.5399361 -3.4550619 1.9036007
8.4872961 -3.0779092 1.7750189
8.7065153 -4.2992706 1.8294879
8.6396418 -3.8754029 1.6863467
8.5684109 -3.4716301 1.5558739
8.5055122 -3.0882113 1.4357796
8.7119131 -4.3028817 1.4622121
8.6449299 -3.8830321 1.331225
8.5815296 -3.4821775 1.2113565
8.0045528 -2.9143882 1.0329758
8.2082701 -4.0559111 1.0352248
8.1354275 -3.6543503 0.92179358
8.0693092 -3.2781041 0.8171792
7.9423418 -2.8961341 0.71405429
8.2047224 -4.0557613 0.69813406
8.1249475 -3.6527107 0.5934037
8.0426159 -3.2695494 0.49678868
8.0028906 -2.9212201 0.40504217
8.2190819 -4.0660729 0.36204782
8.1284065 -3.6590419 0.26674169
8.0690794 -3.2850678 0.17914705
8.0027151 -2.9249556 0.092947856
8.2159224 -4.065938 0.026079044
8.16607 -3.6795964 -0.061124224
8.0702724 -3.2893307 -0.14025126
8.0107536 -2.9312222 -0.21875265
0 -0 -0
1.5354645 -0.69255096 -0.072924927
1.566125 -0.63944668 -0.089424767
1.5894901 -0.58205223 -0.10560644
1.4912561 -0.74020511 -0.11752776
1.5289079 -0.6905573 -0.13438921
1.5425885 -0.63011944 -0.14933091
1.5836767 -0.58045638 -0.16752273
1.4763848 -0.73333746 -0.17739429
1.5013731 -0.6789096 -0.1929816
1.5565491 -0.63629764 -0.21285073
1.5962235 -0.58549756 -0.23220544
1.4742806 -0.73380065 -0.23859927
1.5322593 -0.6939072 -0.25976542
1.6072993 -0.65776414 -0.28554431
2.9770017 -1.0925 -0.55305237
1.5290756 -0.76253974 -0.31245843
1.5641388 -0.70923269 -0.33084783
1.6142346 -0.66175377 -0.35316995
3.5493457 -1.3038042 -0.80510658
1.5203278 -0.76000053 -0.37694004
1.5550565 -0.7059654 -0.39550179
1.5936228 -0.65349889 -0.41628104
1.5747036 -0.57782227 -0.42347434
1.4764491 -0.739806 -0.43201205
1.4783362 -0.6724745 -0.44134945
1.4574556 -0.5981065 -0.44481549
1.4565837 -0.53442168 -0.45546311
5.495286 -2.7616405 1.9000381
5.7986941 -2.6412346 1.8925214
6.1419005 -2.5206912 1.9015819
6.4530554 -2.3711536 1.8976663
6.4066558 -3.2146065 1.913799
6.816679 -3.1070695 1.9178895
7.2394862 -2.9775004 1.9245945
7.6501961 -2.8213489 1.9205811
7.6300778 -3.8283048 1.9386908
8.1572771 -3.7167437 1.9417133
8.5520811 -3.5211923 1.911088
8.5013838 -3.1421745 1.7819639
8.6957836 -4.3605409 1.8328207
8.6345129 -3.9369195 1.6900288
8.5697403 -3.5335374 1.560023
8.5160437 -3.1513102 1.4407943
8.7268906 -4.3770928 1.4692062
8.6632805 -3.9553337 1.337763
8.5874977 -3.5461211 1.2152475
7.99862 -2.9679379 1.0345408
8.2036562 -4.1164494 1.0378089
8.1517611 -3.7219646 0.92621446
8.0794067 -3.3401072 0.82026184
7.9729924 -2.9628623 0.71843088
8.2081976 -4.1203423 0.7005679
8.1395903 -3.7194986 0.59612882
8.077755 -3.3417356 0.50021642
8.0129013 -2.9807177 0.40646684
8.2404079 -4.1397529 0.36409932
8.1576109 -3.7325535 0.26844659
8.0857172 -3.3498235 0.17996939
8.0267839 -2.9897099 0.093438715
8.2337074 -4.1378264 0.026215596
8.1606131 -3.7375448 -0.061253883
8.1201296 -3.3678999 -0.1414742
8.0160341 -2.9890521 -0.21939357
8.2625656 -4.1577492 -0.31330878
1.5239208 -0.6986286 -0.0725789
1.5584832 -0.6475116 -0.08921361
1.5793433 -0.58935165 -0.10517057
1.4929216 -0.75248426 -0.11802069
1.5219243 -0.69867784 -0.13414966
1.5423719 -0.64110184 -0.14968795
1.5772886 -0.58911812 -0.16722623
1.446113 -0.72939759 -0.17429149
1.5170332 -0.69723409 -0.19554074
1.5434556 -0.64202625 -0.21159498
1.5972414 -0.59701526 -0.23288202
1.4768164 -0.74640417 -0.23974639
1.5163021 -0.69792414 -0.25778133
1.5913911 -0.66268271 -0.28343517
1.629527 -0.6093747 -0.30341426
1.5033058 -0.76124221 -0.3081412
1.5570821 -0.71758372 -0.33028033
1.6092391 -0.6712687 -0.35297152
1.6185825 -0.6058616 -0.36798328
1.5138948 -0.76843101 -0.37650704
1.5436187 -0.71222854 -0.39369687
1.5886859 -0.66289055 -0.41604611
1.5702202 -0.587134 -0.42322955
1.4779178 -0.75192225 -0.43378362
1.4803137 -0.68436736 -0.44318512
1.4573106 -0.60852128 -0.44590238
1.4245172 -0.53259629 -0.44644961
5.4841948 -2.7983468 1.9021044
5.7867284 -2.6787786 1.8939451
6.1209955 -2.556107 1.8999298
6.4383845 -2.4107041 1.8976663
6.3945589 -3.2578039 1.9161208
6.7711158 -3.1366215 1.9104491
7.2300377 -3.0256135 1.9269819
7.6445851 -2.8726873 1.9235615
7.6029682 -3.8732789 1.9378047
8.1201277 -3.7601547 1.938326
8.5583153 -3.5853312 1.9173611
8.5104094 -3.2049992 1.7879443
8.708272 -4.4338799 1.8411524
8.6664686 -4.015903 1.7010747
8.5842714 -3.6013136 1.5666612
8.515954 -3.2108214 1.4440852
8.7474527 -4.4547906 1.4772419
8.6738806 -4.0246716 1.3431879
8.5994005 -3.6129568 1.2200462
7.9914007 -3.021173 1.0359852
8.2331371 -4.1946764 1.0447749
8.1531315 -3.7832172 0.92899024
8.0807867 -3.3988831 0.82250375
7.9928703 -3.0261939 0.72188163
8.2431707 -4.2014189 0.7057398
8.1519079 -3.7857625 0.59872091
8.0755024 -3.3989828 0.50135893
8.019681 -3.0393856 0.40774912
8.2495661 -4.2079444 0.36563796
8.163558 -3.7960236 0.2694037
8.098177 -3.4133527 0.18070948
8.0354004 -3.0491931 0.093755051
8.2500277 -4.2096314 0.026349304
8.1683493 -3.8018935 -0.061485901
8.1278687 -3.4297109 -0.14197302
8.0423994 -3.0552216 -0.22062409
0 -0 -0
1.520511 -0.70838797 -0.07262215
1.5498817 -0.65511811 -0.088949658
1.5719656 -0.59761256 -0.10492149
1.4740684 -0.75435954 -0.116894
1.5130919 -0.7058959 -0.13375039
1.5301529 -0.6470623 -0.14888462
1.5652738 -0.59560013 -0.16633673
1.4522299 -0.74369538 -0.17557541
1.4992281 -0.70022476 -0.19379587
1.5458826 -0.65419108 -0.212474
1.5907702 -0.60574675 -0.23247607
1.4634037 -0.75093341 -0.2383125
1.5218383 -0.71182072 -0.25946015
1.5872949 -0.67243481 -0.28343517
1.6211544 -0.61760825 -0.3025552
1.5073551 -0.77494967 -0.30994004
1.5517606 -0.72670788 -0.33009121
1.6014811 -0.67959869 -0.35217792
1.6303705 -0.62170595 -0.37152356
1.5152261 -0.78083611 -0.37802258
1.533927 -0.71920514 -0.39234316
1.5774307 -0.66958773 -0.41416678
1.5856155 -0.60400575 -0.42836997
1.4586638 -0.75342876 -0.42948118
1.4734663 -0.69220656 -0.4423984
1.4615213 -0.62083811 -0.44834793
1.4454325 -0.55054832 -0.45405474
5.4711633 -2.834142 1.9035803
5.7710505 -2.714643 1.8942298
6.0813065 -2.5834677 1.8924953
6.4486899 -2.4597833 1.9051164
6.3821726 -3.3009737 1.9184422
6.7990737 -3.2003887 1.9238418
7.1890001 -3.0604103 1.9210131
7.6568131 -2.9310229 1.9311273
7.598115 -3.9297128 1.942677
8.0915966 -3.8074117 1.9370558
8.5739927 -3.6539016 1.9258603
8.5226479 -3.2694581 1.7946965
8.742012 -4.5188174 1.8541132
8.6844187 -4.0891347 1.7094905
8.5982924 -3.6694007 1.5732996
8.5320501 -3.2768238 1.450197
8.7568474 -4.5274549 1.483492
8.6857471 -4.0951324 1.3488913
8.6171875 -3.6827991 1.2257527
8.0162544 -3.0869179 1.0416431
8.249608 -4.2670274 1.0501678
8.1657524 -3.850141 0.93310267
8.1137857 -3.4715087 0.82801515
7.9964647 -3.0837853 0.72390163
8.243803 -4.265666 0.70802152
8.1691322 -3.854872 0.60171187
8.114151 -3.4740107 0.50507236
8.0372219 -3.1025651 0.40960118
8.2510986 -4.2727275 0.36686096
8.1789742 -3.8644042 0.27068987
8.1083231 -3.476373 0.18140848
8.0445204 -3.1092548 0.094082288
8.2542324 -4.2758121 0.026446031
8.1837387 -3.8703253 -0.061779346
8.1360741 -3.4921381 -0.14248794
8.057065 -3.1174979 -0.22154699
8.259717 -4.2841401 -0.31517068
1.5134269 -0.71642196 -0.072492391
1.5513374 -0.66698229 -0.089266397
1.5766457 -0.61049014 -0.10548191
1.4570193 -0.75695175 -0.11590814
1.5204417 -0.72071731 -0.13478845
1.5288987 -0.6576196 -0.1491524
1.5717963 -0.60914874 -0.1674239
1.4317603 -0.74433696 -0.17364953
1.4958006 -0.70983648 -0.19391219
1.5363719 -0.66131073 -0.21172056
1.5842522 -0.61442137 -0.23207012
1.4570131 -0.75898415 -0.23802572
1.4995898 -0.71266109 -0.25640771
1.5813267 -0.68138069 -0.28311068
1.6127422 -0.6257621 -0.30169615
1.5051879 -0.78554946 -0.3104797
1.5499324 -0.7374813 -0.33065867
1.5981809 -0.68980086 -0.35237631
1.6128492 -0.62638664 -0.36839977
1.5121366 -0.79102373 -0.37845558
1.5268466 -0.72734666 -0.39166632
1.5732925 -0.67925406 -0.41416678
1.5692245 -0.6088137 -0.424943
1.4540133 -0.7623648 -0.42948118
1.4665786 -0.69998759 -0.44161171
1.464752 -0.63284773 -0.45052174
1.4518673 -0.5632242 -0.45715311
5.4469051 -2.8641016 1.9012189
5.7516899 -2.7487621 1.8933755
6.0582805 -2.6176827 1.8902924
6.4379683 -2.5010507 1.9064468
6.3540993 -3.3360298 1.9161208
6.7653246 -3.2353594 1.9198736
7.1656303 -3.1025343 1.9198194
7.6250811 -2.9726458 1.9276882
7.5842209 -3.9816995 1.9453346
8.0760183 -3.8607829 1.9389611
8.585556 -3.7212412 1.93355
8.5316725 -3.3331163 1.8008696
8.7819948 -4.6079865 1.8685549
8.6858082 -4.1550899 1.7147506
8.6226549 -3.7425063 1.5819296
8.532939 -3.337388 1.4538013
8.7709312 -4.603158 1.4906349
8.685463 -4.1603284 1.3527862
8.6298943 -3.7510192 1.2308109
8.0267372 -3.147644 1.0454953
8.261982 -4.3378901 1.0551114
8.175168 -3.9160726 0.9369067
8.1032877 -3.5259957 0.82913613
8.0172739 -3.1484544 0.72752064
8.2819138 -4.3500152 0.71357369
8.1867132 -3.9247656 0.60476923
8.0954285 -3.5249286 0.50524372
8.0617275 -3.1689975 0.41183326
8.256567 -4.3400116 0.36828119
8.1911526 -3.9318182 0.27188629
8.1152506 -3.5384469 0.18204579
8.0708847 -3.176501 0.094616793
8.2765217 -4.3519759 0.026602501
8.2049046 -3.9421198 -0.062120557
8.1374025 -3.5519941 -0.14289023
8.0703373 -3.1797023 -0.22244425
8.2960634 -4.3677979 -0.31757423
1.5090024 -0.72569466 -0.072492391
1.5417258 -0.67408818 -0.088949658
1.5737985 -0.62051886 -0.10554417
1.4655827 -0.77285713 -0.11696442
1.4962326 -0.72051841 -0.13303174
1.5284849 -0.66858494 -0.14950943
1.5652521 -0.61768579 -0.1671274
1.4385976 -0.75914037 -0.17504044
1.4788916 -0.71296281 -0.19228366
1.5259236 -0.66794056 -0.21084154
1.5786092 -0.62340271 -0.23179948
1.4523286 -0.76790994 -0.23802572
1.5076487 -0.72786438 -0.25854445
1.5753084 -0.69027859 -0.28278619
1.6125371 -0.6370939 -0.30238342
1.4994702 -0.79430979 -0.31029981
1.5391895 -0.74398631 -0.32933453
1.5858409 -0.69604886 -0.35059062
1.61989 -0.64058727 -0.37089884
1.4934582 -0.7929619 -0.37499148
1.5267396 -0.73882335 -0.3927944
1.5637549 -0.68655026 -0.41275722
1.5834945 -0.62555557 -0.42983866
1.4552866 -0.77445358 -0.43125278
1.4665976 -0.71107823 -0.44292289
1.4573169 -0.64027488 -0.44943482
1.4635551 -0.57811475 -0.46194154
5.4309144 -2.8983691 1.9018092
5.7252297 -2.7793972 1.8902438
6.0368237 -2.6524861 1.8886403
6.4189153 -2.539088 1.9053825
6.3462996 -3.3817701 1.9199901
6.7279181 -3.2683437 1.9149133
7.157124 -3.151139 1.9226844
7.6094117 -3.0204537 1.9283761
7.5562048 -4.0263262 1.9444488
8.0891018 -3.9281948 1.9478525
8.5957184 -3.7884645 1.9410372
8.5320301 -3.3937442 1.8053068
8.7648315 -4.6677904 1.870962
8.692028 -4.2237978 1.7210627
8.6311054 -3.8092792 1.5877382
8.5462503 -3.4032016 1.4595995
8.7931433 -4.6838531 1.499266
8.7105293 -4.2382393 1.360715
8.6457129 -3.8211362 1.2363877
8.0561371 -3.2163446 1.0518754
8.2632704 -4.4034572 1.0587066
8.1939173 -3.987051 0.94184148
8.1042624 -3.585721 0.83147138
8.0496187 -3.2183039 0.73223394
8.2797041 -4.4138846 0.71570343
8.2046404 -3.9954569 0.60789317
8.1302462 -3.5995934 0.50878567
8.0569687 -3.2243419 0.4125931
8.2817965 -4.4183412 0.37060884
8.2126951 -4.0043459 0.27341175
8.1198921 -3.5999258 0.182642
8.0874414 -3.2404678 0.095042206
8.2937727 -4.426219 0.026744744
8.2210016 -4.012126 -0.062427644
8.1584082 -3.6209214 -0.14364651
8.0868607 -3.2436752 -0.22344407
0 -0 -0
1.4901583 -0.72792393 -0.071800336
1.5302606 -0.6802901 -0.088527344
1.5727402 -0.63127917 -0.10573097
1.4458617 -0.77383327 -0.11576731
1.5016332 -0.73450333 -0.13391009
1.5134331 -0.67309403 -0.14843832
1.5605091 -0.62690741 -0.16702856
1.4304066 -0.76607549 -0.17461248
1.4718131 -0.72071332 -0.19193469
1.5154518 -0.67446709 -0.20996249
1.5692388 -0.63085973 -0.23098759
1.4475895 -0.77680677 -0.23802572
1.5004922 -0.73579609 -0.25808656
1.5638326 -0.69671899 -0.28148827
1.6085976 -0.64697623 -0.30238342
1.4746406 -0.79278219 -0.30616248
1.5319512 -0.75211829 -0.32876703
1.5824353 -0.70616573 -0.35078904
1.6213727 -0.65270615 -0.37214833
1.487705 -0.80164748 -0.37477496
1.5186803 -0.74645841 -0.39189196
1.5515244 -0.69256651 -0.41064292
1.5733296 -0.63272762 -0.42812517
1.4394412 -0.77739203 -0.42796272
1.4552811 -0.71665311 -0.44082499
1.4700561 -0.6566624 -0.45459762
1.4581999 -0.58636814 -0.46137822
5.3995862 -2.9243579 1.8970865
5.7132268 -2.8170178 1.891952
6.0186791 -2.6886933 1.8880897
6.4103684 -2.5813062 1.9075111
6.304184 -3.4091573 1.9135411
6.6999183 -3.305706 1.9126812
7.1518354 -3.2013428 1.9265044
7.5835161 -3.0641704 1.926542
7.5090547 -4.060554 1.9386908
8.0473166 -3.9691083 1.9436187
8.5964413 -3.851948 1.946501
8.5501537 -3.4618661 1.8136021
8.7913551 -4.7513862 1.8828118
8.704792 -4.2962232 1.7287772
8.6507559 -3.8815446 1.5957043
8.5746346 -3.4756107 1.4680618
8.8042526 -4.7593493 1.5061111
8.7207594 -4.3095942 1.3664184
8.6429071 -3.8834605 1.2393708
8.050045 -3.2713215 1.053681
8.2850418 -4.4805465 1.0649984
8.2094278 -4.0570846 0.94646794
8.1356802 -3.6594775 0.83698279
8.0629463 -3.2811561 0.73526382
8.2910528 -4.4854803 0.71904993
8.2184277 -4.0647454 0.61075115
8.1480646 -3.6674421 0.51129931
8.0518341 -3.2797465 0.41335294
8.2975864 -4.4923859 0.37254199
8.2291737 -4.0750666 0.2747876
8.1377554 -3.6677566 0.18354657
8.0988874 -3.3028688 0.095413081
8.2902002 -4.4898834 0.026821557
8.2213154 -4.0749278 -0.062618718
8.1460629 -3.6754358 -0.14382352
8.0964212 -3.3053248 -0.22426441
0 -0 -0
1.4632894 -0.72595346 -0.070719011
1.5306076 -0.69172305 -0.088791296
1.5632936 -0.63865268 -0.10535736
1.4410864 -0.78269035 -0.11576731
1.4979908 -0.74414688 -0.13398995
1.51472 -0.68482953 -0.14897387
1.5630807 -0.63910699 -0.16772039
1.4195641 -0.77151448 -0.17386353
1.4762563 -0.73415321 -0.19309793
1.5076693 -0.68211728 -0.2094602
1.5625873 -0.63935089 -0.23058163
1.4401883 -0.78425449 -0.23759556
1.4897566 -0.74190515 -0.25701821
1.5559326 -0.70467299 -0.28083929
1.6055093 -0.65720737 -0.3025552
1.4093006 -0.76883835 -0.29357061
1.5255499 -0.76062775 -0.32838872
1.5780725 -0.71586204 -0.35078904
1.6100968 -0.65967596 -0.3704823
1.4776186 -0.8079505 -0.37347591
1.5166866 -0.7570681 -0.3925688
1.54282 -0.70006526 -0.40946832
1.5649309 -0.64053309 -0.42690128
1.4329473 -0.78527981 -0.42745656
1.4525826 -0.72643226 -0.44134945
1.4668754 -0.66606802 -0.45486933
1.4634547 -0.59893876 -0.46419492
5.4133592 -2.9749198 1.908303
5.6941195 -2.851162 1.8913825
6.0090709 -2.7287524 1.8902924
6.3854899 -2.6169357 1.9048504
6.2865353 -3.4496341 1.914573
6.6725802 -3.3432822 1.9106971
7.1117287 -3.2359154 1.9210131
7.5519681 -3.1054614 1.9233321
7.4720297 -4.0999851 1.9355903
8.0123243 -4.0131588 1.9410782
8.567297 -3.9021869 1.945287
8.5478039 -3.5221143 1.8176534
8.8059788 -4.8293386 1.8922545
8.6914692 -4.3561707 1.731407
8.6465149 -3.9435539 1.5993553
8.5860157 -3.5417166 1.4737035
8.8104315 -4.8327804 1.5122125
8.7348652 -4.3834538 1.3728172
8.6567974 -3.9537203 1.244818
8.0655994 -3.3354497 1.0583758
8.298337 -4.5537658 1.070279
8.2261639 -4.1283498 0.95130002
8.1375208 -3.720506 0.83950496
8.0647573 -3.3397174 0.73728377
8.3000851 -4.5564218 0.72224432
8.2227564 -4.1298742 0.61294448
8.1481047 -3.7277522 0.5127275
8.0998411 -3.3573935 0.4168672
8.3224115 -4.5720811 0.37490907
8.2290182 -4.1380568 0.27562508
8.180541 -3.7476003 0.18502676
8.1043291 -3.3632321 0.09571851
8.3177061 -4.5710082 0.027000783
8.2309923 -4.1428294 -0.06288486
8.1615295 -3.7428553 -0.14449935
8.0981445 -3.3641455 -0.22487968
8.293067 -4.5631232 -0.32062101
1.4766521 -0.74390817 -0.071584076
1.5245196 -0.70026803 -0.088685714
1.5740911 -0.65436274 -0.10635366
1.395196 -0.76888943 -0.11245766
1.468477 -0.74075401 -0.13175412
1.5095844 -0.69369495 -0.14888462
1.5554549 -0.64715683 -0.16732506
1.418286 -0.78213072 -0.17429149
1.4619714 -0.73827273 -0.19181836
1.5007515 -0.69011188 -0.20908347
1.5577201 -0.64854592 -0.23044631
1.4058971 -0.77680343 -0.23272033
1.4710654 -0.74389642 -0.25457621
1.5444088 -0.71090597 -0.27954137
1.5950807 -0.66439474 -0.30135256
3.8754401 -2.1451917 -0.81001747
1.519978 -0.76953053 -0.32819957
1.5709802 -0.72430032 -0.3501938
1.6078244 -0.67029566 -0.37089884
1.4308021 -0.79379427 -0.36286706
1.5085368 -0.76459825 -0.39166632
1.5429088 -0.71155393 -0.41064292
1.5699217 -0.65385103 -0.42934909
1.4374027 -0.79922885 -0.43024042
1.4489584 -0.73576844 -0.44161171
1.4645085 -0.67586261 -0.45541281
1.4553233 -0.60606271 -0.46278659
5.4116936 -3.0173852 1.9142065
5.6944633 -2.8951702 1.8973618
6.0236378 -2.7800748 1.9002053
6.3657532 -2.654583 1.9037861
6.2483673 -3.4787431 1.9094138
6.6640286 -3.3903112 1.9141693
7.1137743 -3.289681 1.9269819
7.5588117 -3.1626363 1.929981
7.4586601 -4.1523962 1.9386908
7.9797091 -4.0582585 1.9391729
8.5378599 -3.9522128 1.9440727
8.5758009 -3.5953617 1.8282638
8.8165407 -4.9057374 1.9009566
8.7426682 -4.4491591 1.7470118
8.6561527 -4.0122924 1.6056617
8.5941753 -3.6069458 1.4788749
8.8238153 -4.9107938 1.5196531
8.7466269 -4.4567494 1.3789376
8.679143 -4.028471 1.2515622
8.0614519 -3.3918064 1.0605427
8.3067036 -4.6248999 1.074998
8.2414465 -4.1995211 0.9560293
8.1660051 -3.7942803 0.84482956
8.0689068 -3.3995852 0.73955625
8.329463 -4.639286 0.72726417
8.24615 -4.2051816 0.61660016
8.1676273 -3.7974608 0.51541257
8.0984163 -3.4151807 0.4178645
8.3238764 -4.6396012 0.37625045
8.2408628 -4.207561 0.27688134
8.1854906 -3.8108058 0.18566409
8.1065693 -3.4226193 0.095991209
8.324439 -4.641438 0.027114579
8.2535009 -4.2178283 -0.063253365
8.1683178 -3.8068013 -0.14503036
8.1178656 -3.4308946 -0.22600766
0 -0 -0
1.4302551 -0.73157173 -0.06955117
1.5183843 -0.70876431 -0.088580139
1.5663694 -0.66245383 -0.10610458
1.3965465 -0.78084338 -0.11295059
1.467453 -0.75156802 -0.13207352
1.5052996 -0.70294452 -0.14888462
1.5468726 -0.65474933 -0.1668309
1.4160633 -0.79227483 -0.17461248
1.4662521 -0.75176072 -0.1929816
1.49559 -0.69888729 -0.20895788
1.5509744 -0.65693235 -0.23004036
1.4054207 -0.78783482 -0.23343727
1.4735067 -0.75651979 -0.25579721
1.5355487 -0.71827847 -0.27873015
1.5864388 -0.67224765 -0.30049351
0 -0 -0
1.5073676 -0.77480233 -0.32649708
1.5629561 -0.73226273 -0.34940016
1.6036813 -0.68014842 -0.37089884
3.1768062 -1.7880392 -0.80844009
1.5081482 -0.77606887 -0.3927944
1.5305923 -0.71729541 -0.40852863
1.5578456 -0.66006726 -0.42714608
1.4156191 -0.7985273 -0.4251788
1.4272618 -0.7358014 -0.43636689
1.4612052 -0.6852445 -0.45568451
1.4498101 -0.61423236 -0.4622232
5.3830981 -3.0448895 1.9106646
5.6706285 -2.9269786 1.8953687
5.9934101 -2.8108597 1.8960748
6.3493452 -2.6935925 1.9037861
6.2361584 -3.5222435 1.9122514
6.6413794 -3.430248 1.9136733
7.0829086 -3.3283124 1.9241168
7.5356817 -3.207432 1.9290639
7.4304938 -4.1966448 1.9380263
7.9642105 -4.1120768 1.9415015
8.508132 -4.0020247 1.9428586
8.5887794 -3.6629264 1.8357875
8.8153706 -4.9761672 1.9072518
8.7615604 -4.52667 1.7563043
8.696497 -4.096004 1.6177769
8.6000395 -3.6716323 1.4837329
8.8425989 -4.9925547 1.5281351
8.7428646 -4.5226188 1.3826935
8.6730947 -4.0905318 1.2542858
8.0915966 -3.4630802 1.0672839
8.3326759 -4.7065692 1.0820762
8.2437954 -4.264636 0.95931917
8.1776829 -3.8608921 0.84847265
8.0826988 -3.4639466 0.74275452
8.3399057 -4.7123804 0.73068672
8.2582941 -4.2754254 0.61945814
8.1721563 -3.8607252 0.51718354
8.1204538 -3.4833148 0.42009652
8.3370018 -4.7141957 0.37814409
8.2530499 -4.2778263 0.27816749
8.1935854 -3.8759227 0.18638363
8.1047106 -3.480582 0.096220277
8.3367119 -4.7155681 0.027248288
8.2700729 -4.2904959 -0.06358093
8.1673965 -3.8675473 -0.14543264
8.1370716 -3.4980123 -0.22713566
0 -0 -0
1.4354925 -0.74539834 -0.070026956
1.5167137 -0.71935141 -0.088738509
1.5567741 -0.66968602 -0.10573097
1.3908614 -0.78890556 -0.11288016
1.461045 -0.75963831 -0.13191383
1.48836 -0.70619017 -0.14763498
1.5437402 -0.66462195 -0.16692974
1.3860993 -0.78671616 -0.17150967
1.4501585 -0.75478208 -0.19146939
1.4903773 -0.70762545 -0.20883232
1.5441844 -0.66526055 -0.22963439
1.4108838 -0.80231416 -0.23515795
1.4627022 -0.76234943 -0.25472882
1.5239828 -0.72429836 -0.27743223
1.5831888 -0.68235916 -0.30066532
3.8077967 -2.1692159 -0.80138302
1.4999735 -0.78267401 -0.32592958
1.5540088 -0.7397328 -0.3484081
1.5976815 -0.68920082 -0.3704823
3.1098189 -1.7755498 -0.79415053
1.5016309 -0.78440601 -0.39234316
1.5287951 -0.72792709 -0.40923342
1.555547 -0.67038101 -0.42763564
1.4115325 -0.80767882 -0.42543188
1.4321252 -0.74946696 -0.43925151
1.465661 -0.6983369 -0.45840177
1.440727 -0.6208384 -0.4605332
5.3021593 -3.0422001 1.8885263
5.67379 -2.9728403 1.9024866
5.9699755 -2.844687 1.8941474
6.3282733 -2.7305913 1.9024557
6.2228122 -3.5652444 1.9148309
6.6167746 -3.4691348 1.9126812
7.0395684 -3.3608317 1.9179093
7.4962072 -3.2451024 1.9240201
7.3995271 -4.2392502 1.9366976
7.9483509 -4.1658573 1.9438301
8.4913683 -4.0579548 1.9446799
8.5949478 -3.7280517 1.8419608
8.8537483 -5.0697174 1.9222492
8.7833176 -4.6064086 1.7662983
8.6978874 -4.1620574 1.6227558
8.6262693 -3.7455735 1.4921952
8.868433 -5.079154 1.5379566
8.7780762 -4.6093259 1.3927089
8.7175798 -4.1770921 1.264402
8.1157074 -3.532474 1.0733029
8.8830242 -5.0895696 1.1575778
8.2553415 -4.3350239 0.96374005
8.1870546 -3.9269285 0.85192901
8.1115322 -3.5353727 0.74738353
8.5867949 -4.9216352 0.75494915
8.2584019 -4.339942 0.62145209
8.1762161 -3.9241874 0.51895452
8.1337185 -3.5482523 0.42190114
8.9016514 -5.1058154 0.4051685
8.2558374 -4.3437443 0.27915454
8.2074966 -3.9443133 0.18724711
8.1299362 -3.5506568 0.096776597
8.8852854 -5.0980773 0.029142981
8.2780981 -4.3593311 -0.063847072
8.2002783 -3.9448969 -0.14644639
8.1475134 -3.5618899 -0.22803292
8.829896 -5.0724435 -0.3449274
1.3840498 -0.72950286 -0.06773454
1.5095724 -0.72734386 -0.088580139
1.5581222 -0.68162572 -0.10610458
1.3911823 -0.80040962 -0.11330268
1.4537117 -0.76719308 -0.13167426
1.4974571 -0.72179633 -0.14897387
1.5305173 -0.67009062 -0.1659414
1.381246 -0.79520631 -0.17150967
1.4296925 -0.75531471 -0.18937555
1.4761781 -0.71201587 -0.20745099
1.5328133 -0.67154223 -0.22855186
1.405077 -0.81046158 -0.23501456
1.4553764 -0.76992363 -0.25427097
1.5177326 -0.73277766 -0.27710775
1.571754 -0.68889683 -0.29929087
0 -0 -0
1.4925395 -0.79048419 -0.32536209
1.5512054 -0.75010747 -0.34880495
1.592527 -0.69859815 -0.37027407
3.1723666 -1.8371632 -0.81298673
1.4873217 -0.78858513 -0.3898614
1.5172997 -0.73390788 -0.40735403
1.5389717 -0.6744644 -0.42420864
1.384795 -0.80369854 -0.41885173
1.4121593 -0.75009191 -0.43453121
1.4379601 -0.69599652 -0.45106518
1.4351329 -0.62889659 -0.45996985
5.2858706 -3.0761182 1.8894119
5.6486712 -3.0039971 1.9002088
5.9532738 -2.8816833 1.8944227
6.297276 -2.7631721 1.8981984
6.1824412 -3.5926805 1.9091558
6.6030602 -3.5137649 1.9149133
7.0196881 -3.4043865 1.918148
7.469028 -3.2879002 1.922186
7.3691607 -4.2821231 1.9355903
7.9183259 -4.212254 1.9427717
8.4777622 -4.11554 1.9473104
8.627573 -3.8052692 1.8539217
8.8853588 -5.1604695 1.9359504
8.785305 -4.6764059 1.7724348
8.7005663 -4.2291436 1.6280664
8.6401682 -3.8147883 1.4986205
8.8781452 -5.1573162 1.5450995
8.7907028 -4.6849909 1.3992468
8.7078333 -4.2383142 1.2667365
8.1764889 -3.6187656 1.0842574
8.895443 -5.1694412 1.1633077
8.2584314 -4.4015026 0.96723551
8.1932364 -3.9919162 0.85510498
8.1224833 -3.5996118 0.75041348
0 -0 0
8.2897234 -4.421525 0.62583882
8.197751 -3.9965944 0.52186805
8.1565342 -3.6179385 0.42422813
8.9142036 -5.1859646 0.40718052
8.3004484 -4.432457 0.28157729
8.1993122 -4.0024939 0.18761715
8.1491222 -3.6187365 0.097267464
8.9160671 -5.188715 0.029347815
8.2829418 -4.427011 -0.06409274
8.2307177 -4.0219159 -0.14742796
8.1538229 -3.6244025 -0.22882764
8.8676891 -5.166779 -0.34763563
1.4473798 -0.77426797 -0.071065038
1.4611305 -0.71508318 -0.085993469
1.5529984 -0.69076771 -0.10604232
1.3664291 -0.79736733 -0.11168306
1.4366752 -0.76950938 -0.13055636
1.4938947 -0.73140895 -0.14906314
1.5209223 -0.67704099 -0.1653484
1.354017 -0.79063135 -0.16872786
1.4259064 -0.76454228 -0.18949188
1.4824723 -0.7262978 -0.20895788
1.5286639 -0.68093473 -0.22855186
1.3795763 -0.80707407 -0.23157322
1.4393053 -0.77276182 -0.25228685
1.5220674 -0.74642122 -0.27873015
1.5701969 -0.69973093 -0.29980627
0 -0 -0
1.4772822 -0.79404855 -0.3230921
1.5412953 -0.7570188 -0.34761447
1.5837442 -0.70636451 -0.3692328
3.1812382 -1.8684603 -0.81818295
1.4807392 -0.79677302 -0.3894102
1.51713 -0.74534708 -0.40852863
1.542775 -0.68744636 -0.42641172
1.2481068 -0.73464286 -0.37886468
1.3964875 -0.75278991 -0.43112209
1.4440264 -0.70990151 -0.45432588
1.4365056 -0.6400336 -0.46165988
5.2841754 -3.1186919 1.8956106
5.6065121 -3.0258522 1.8922367
5.9587736 -2.9296098 1.9018574
6.2758012 -2.7997956 1.896868
6.1602807 -3.6305475 1.9091558
6.5788193 -3.5528336 1.9141693
7.0178323 -3.4568348 1.9234008
7.4211717 -3.321341 1.9150786
7.324264 -4.3163662 1.9307179
7.870831 -4.2491536 1.9374793
8.4409313 -4.1618514 1.9446799
8.640769 -3.8745954 1.8618311
8.8763895 -5.2283583 1.9409496
8.7867632 -4.7466006 1.7785715
8.6956749 -4.2929268 1.6320494
8.6562443 -3.8855271 1.5055157
8.8770056 -5.2297645 1.5504568
8.7914066 -4.754859 1.4039764
8.7296629 -4.3153925 1.2737401
8.4845695 -3.8175452 1.1281959
8.9037914 -5.2476382 1.1685883
8.2916393 -4.4847455 0.97432941
8.1908979 -4.053153 0.85744035
8.1438522 -3.6690295 0.75445342
0 -0 0
8.2913942 -4.4879804 0.62803221
8.201705 -4.0609961 0.52369618
8.1724253 -3.6851633 0.42622271
8.9131966 -5.2588425 0.40860078
8.3056107 -4.5009251 0.28268397
8.2050552 -4.0678277 0.18831615
8.1677761 -3.6871846 0.097758323
8.9219542 -5.2656889 0.029472988
8.2819939 -4.4920545 -0.064297475
8.2255878 -4.0821214 -0.14778195
8.169692 -3.6916544 -0.22990435
8.982954 -5.3080349 -0.35342449
1.4338214 -0.77836788 -0.070632502
1.4728117 -0.73203546 -0.086943679
1.5332708 -0.69329321 -0.10498376
1.3589355 -0.80421251 -0.11147181
1.4249202 -0.77450192 -0.12991755
1.4867032 -0.73923123 -0.14879535
1.5185527 -0.68718094 -0.16554606
1.3499959 -0.7994312 -0.16883485
1.3950156 -0.7590363 -0.18600217
1.465553 -0.72919333 -0.20719983
1.5280672 -0.69193643 -0.22909313
1.3448081 -0.79784983 -0.2265546
1.4362724 -0.78252429 -0.25259212
1.5121592 -0.75310701 -0.27775672
1.5649765 -0.70894581 -0.29963446
0 -0 -0
1.4723822 -0.80309802 -0.3230921
1.5313588 -0.76383692 -0.34642401
1.5775986 -0.7152611 -0.36881629
1.2397027 -0.73839176 -0.3199985
1.4715471 -0.80350924 -0.38828212
1.5055699 -0.7511704 -0.40664926
1.5349951 -0.69529945 -0.42543256
1.2277921 -0.73286611 -0.3740561
1.3977685 -0.76458615 -0.43295777
1.4318941 -0.71487969 -0.45188037
1.4246851 -0.64527291 -0.45912483
5.2616606 -3.1490934 1.8944298
5.5970893 -3.0652611 1.8953687
5.9415455 -2.9665465 1.9021326
6.2699165 -2.8434262 1.900327
6.1428642 -3.6712518 1.9107035
6.5534968 -3.5912712 1.9131771
6.9817252 -3.4924448 1.9193419
7.3953362 -3.3643954 1.9137028
7.3076863 -4.367229 1.9333756
7.8514681 -4.301125 1.9391729
8.3793335 -4.1955886 1.936383
