# .PCD v0.7 - Point Cloud Data file format
VERSION 0.7
FIELDS x y z
SIZE 4 4 4
TYPE F F F
COUNT 1 1 1
WIDTH 1602
HEIGHT 1
VIEWPOINT 0 0 0 1 0 0 0
POINTS 1602
DATA ascii
-1.0635661 2.1719978 0.5492292
-0 0 0
-0.92993802 1.5878533 0.38023448
-0 0 0
-1.0549924 2.1532519 0.45177111
-0 0 0
-0.94905013 1.6223694 0.31631956
-1.28801 2.0274129 0.3811194
-0.83694953 1.7086011 0.28631145
-0.87773466 1.6373327 0.26095906
-0.93590569 1.6018232 0.24266039
-1.3039882 2.0566058 0.29529071
-0.92548519 1.8901783 0.23796463
-0.87974674 1.6411549 0.19246013
-0.97022438 1.6620919 0.18056783
-1.2769469 2.016135 0.20157474
-0.85869193 1.7544599 0.14899713
-0.88196033 1.6465263 0.12442335
-0.94884104 1.6263727 0.10774419
-1.0560875 1.6686503 0.093887724
-0.87708384 1.7934645 0.078824408
-0.87658334 1.6384112 0.05560359
-0.95087796 1.6317611 0.038835064
-1.0709466 1.6936978 0.021859817
-0.86082357 1.7608384 0.0055759703
-0.89615375 1.6764671 -0.012972776
-0.94476694 1.6227713 -0.030219354
-1.0534852 1.6674352 -0.050579984
-0.86423534 1.7701657 -0.066724107
-0.89189804 1.6699775 -0.081964843
-0.95161593 1.6368341 -0.10008817
-1.045518 1.6557207 -0.12216972
-0.84961224 1.7431455 -0.13689274
-0.90402257 1.6948143 -0.15387283
-0.94387972 1.6241145 -0.16834316
-0.92881715 1.4718761 -0.17285973
-0.85418886 1.7537786 -0.20992014
-0.88741422 1.6654274 -0.22101571
-0.90137047 1.5519047 -0.22716637
-0.89220196 1.4146186 -0.22841655
-0.81939179 1.6858464 -0.27157876
-0.79619902 1.4962552 -0.26174951
-0.90880924 1.5660965 -0.29771239
-0.68669647 1.0891614 -0.22455403
-0.72814709 1.5010471 -0.30508319
-0.79407853 1.4939673 -0.32592958
-0.80838138 1.3949975 -0.3263846
-0.59853989 0.94999862 -0.23907457
-0.65999705 1.363891 -0.33602008
-0.73918629 1.3922179 -0.36504385
-0.72651297 1.2540225 -0.3502681
-0.65313905 1.0358561 -0.30916071
-0.61868197 1.281592 -0.37228453
-0.6986239 1.3182085 -0.40542263
-0.52079242 0.89947438 -0.29346409
-0.49132037 0.77915698 -0.27040482
-1.0872638 2.2590539 0.77453786
-0.88529152 1.6724393 0.56203359
-0 0 0
-0.58209956 0.92410356 0.30146605
-1.1000503 2.2819507 0.67636895
-0.90056026 1.7023618 0.49305111
-0.59865779 1.0358146 0.29414469
-0.65191877 1.0376729 0.28864887
-1.066311 2.211863 0.55764484
-0 0 0
-0.71057892 1.2305542 0.2936244
-0 0 0
-1.0473109 2.1711912 0.45417809
-0 0 0
-0.65232879 1.1310004 0.2197309
-1.220475 1.9474059 0.36466482
-0 0 0
-0.87090927 1.6488171 0.26193279
-0.94734251 1.6444806 0.2482373
-1.2960825 2.0721431 0.29637411
-1.0782629 2.2368546 0.28077132
-0.87709326 1.6605948 0.1941051
-0.94858497 1.6481667 0.17841932
-1.2603279 2.0171716 0.20090142
-0.97299796 2.0192935 0.17097782
-0.88115537 1.6695555 0.12575266
-0.93287039 1.6217791 0.10705865
-1.0601119 1.6979759 0.095169954
-1.0099732 2.0977142 0.091922358
-0.87770057 1.6649802 0.056321442
-0.96226466 1.6748413 0.039719082
-1.0203142 1.635757 0.021030802
-1.0390854 2.1589515 0.0068163397
-0.88025838 1.671317 -0.012890885
-0.94076514 1.6389437 -0.030412447
-1.008865 1.6187227 -0.048913639
-1.0369312 2.1573656 -0.081077747
-0.89652216 1.7037107 -0.083348945
-0.94503081 1.6487069 -0.10045769
-1.0321728 1.6570219 -0.12179611
-0.83976352 1.7501243 -0.13703357
-0.89638877 1.7056236 -0.15435195
-0.93686759 1.6350607 -0.16887872
-0.94080371 1.5113394 -0.17681307
-0.90101486 1.8791215 -0.2242572
-0.87717867 1.6708411 -0.22101571
-0.85781437 1.4980026 -0.21850164
-0.8159861 1.3115424 -0.21096054
-0.85302919 1.7827942 -0.28634781
-0.82050252 1.5650082 -0.27289104
-0.87223178 1.524537 -0.28878912
-0.65866929 1.0590563 -0.21750988
-0.78081155 1.6350864 -0.33134624
-0.76758623 1.4657559 -0.31874135
-0.81536514 1.427164 -0.33273372
-0.64794248 1.0425392 -0.26135769
-0.63944018 1.3423548 -0.32974136
-0.74056429 1.4157187 -0.37000737
-0.7226615 1.265209 -0.35214746
-0.67493594 1.0851265 -0.32262379
-0.66354108 1.396337 -0.40442601
-0.55831367 1.0692676 -0.32779962
-0.57156092 1.0012761 -0.32552779
-0.45460173 0.73082793 -0.25265947
-1.0553833 2.2276912 0.76155019
-0.87634277 1.6803899 0.56288773
-0 0 0
-0.57285714 0.92192656 0.29960352
-1.0586908 2.2310483 0.65934366
-0.88517278 1.6984057 0.49032298
-0.57306063 1.0057194 0.28459454
-0 0 0
-1.0523012 2.217483 0.55742341
-0 0 0
-0.5673539 0.99659359 0.23696357
-0.83688843 1.352578 0.31271663
-1.0550445 2.2219625 0.46343571
-0 0 0
-0.67267376 1.182987 0.22902465
-1.2209671 1.9750198 0.36842588
-0 0 0
-0.86489004 1.6620359 0.26318473
-0.92744088 1.6330184 0.24564339
-1.2802161 2.0749874 0.29565185
-1.0589797 2.2317579 0.2793107
-0.86183673 1.656239 0.19297418
-0.93403214 1.6461626 0.17757861
-1.1893734 1.9298584 0.19147496
-1.0169942 2.1441445 0.18101743
-0.86537099 1.6643076 0.12495508
-0.9253642 1.6318148 0.10734429
-1.0371025 1.684036 0.094030194
-1.0723989 2.2627909 0.098865844
-0.86746794 1.6703343 0.056321442
-0.95295542 1.682454 0.039760198
-0.99873036 1.6232504 0.020790825
-1.0378066 2.1905904 0.0068959962
-0.88656676 1.7086405 -0.013136555
-0.95137304 1.6812338 -0.03108828
-1.0161905 1.6529858 -0.04975963
-1.035642 2.188983 -0.082025625
-0.88375247 1.7047448 -0.083132677
-0.9309665 1.6475192 -0.10003538
-1.0089239 1.6420647 -0.12023941
-1.0616089 2.2477226 -0.17548183
-0.87719852 1.6942729 -0.15283477
-0.92436814 1.6364423 -0.16843241
-0.94452983 1.5382838 -0.17928392
-0.86697644 1.8369596 -0.21858655
-0.86645377 1.6753097 -0.22089937
-0.85982388 1.5231082 -0.22138989
-0.86700177 1.4127938 -0.22638677
-0.85894096 1.8238086 -0.29208338
-0.78049886 1.5111816 -0.26266527
-0.8696475 1.5418928 -0.29106048
-0.72479242 1.1814777 -0.24173492
-0.75821096 1.6131389 -0.32594973
-0.74597263 1.4460037 -0.31344476
-0.8152504 1.4475119 -0.33630508
-0.63079858 1.0289842 -0.25698435
-0 0 -0
-0.66224736 1.2851404 -0.33481154
-0.76257551 1.3543171 -0.37563962
-0.63885731 1.041314 -0.30842638
-0.61807317 1.321512 -0.38164857
-0.52878976 1.0280501 -0.31416318
-0.48186973 0.85631418 -0.27743226
-0 0 -0
-1.0332156 2.21594 0.75535148
-0.85988295 1.673798 0.55890167
-0 0 0
-0.60144252 0.9813112 0.31769678
-0.99592119 2.1324553 0.62838852
-0.8645584 1.6839833 0.48461866
-0.55118507 0.98127699 0.27671567
-0.71122265 1.1635252 0.32120496
-1.0225812 2.1894398 0.54878634
-0 0 0
-0.55451846 0.98809987 0.23413055
-0.78308111 1.2831446 0.29554713
-1.0326538 2.2096982 0.45954752
-0 0 0
-0.7883572 1.4064461 0.27134442
-1.1826026 1.9394689 0.36043367
-0.97865224 2.0946209 0.34791899
-0.85151362 1.6611428 0.26221099
-0.89705974 1.6023402 0.24019618
-1.2597193 2.0700831 0.29384616
-1.03055 2.2067025 0.27537835
-0.85165805 1.6614959 0.19297418
-0.91662359 1.6388285 0.17617741
-1.0962485 1.8034374 0.17826107
-0.98230839 2.1042655 0.17713848
-0.86924344 1.6971165 0.12701552
-0.92312837 1.6514053 0.10825834
-1.006526 1.6570728 0.092178084
-1.0394872 2.2285783 0.097090527
-0.84900844 1.6596079 0.055783052
-0.93384111 1.6725566 0.039390147
-0.98563892 1.6242188 0.020725375
-0.98927134 2.1216927 0.006659871
-0.87333548 1.7087057 -0.013095611
-0.91376281 1.63814 -0.030187169
-0.97959536 1.6155945 -0.048452191
-1.0112226 2.1717398 -0.08114545
-0.87554753 1.7145841 -0.083348945
-0.92035407 1.6523281 -0.099982589
-0.98744965 1.629446 -0.11886951
-1.0389674 2.2351983 -0.17400306
-0.87674922 1.7191592 -0.1545915
-0.92254674 1.6568768 -0.16994983
-0.92424834 1.5261755 -0.17720841
-0.89631617 1.9297131 -0.22896488
-0.86337149 1.6947545 -0.22276056
-0.85962754 1.5448265 -0.22377582
-0.87678617 1.4486017 -0.23125821
-0.72912621 1.5731399 -0.25121751
-0.82319349 1.6181208 -0.28036961
-0.85153985 1.5316761 -0.28814018
-0.64511353 1.0662167 -0.21733809
-0.67231244 1.4534849 -0.29285106
-0.77489674 1.5249635 -0.32952371
-0.7868486 1.417353 -0.32817027
-0.66900587 1.1064897 -0.27531064
-0.62087423 1.3456682 -0.32865882
-0.7500326 1.4776918 -0.38376984
-0.71274143 1.2841805 -0.35496652
-0.76798213 1.2691888 -0.37451774
-0 0 -0
-0.55038351 1.0863686 -0.33094653
-0.5816372 1.0486106 -0.33857062
-0 0 -0
-1.0203964 2.2239749 0.75594187
-0.85219336 1.6841747 0.56061
-0.91251081 1.6452352 0.53886414
-0.56648725 0.93713641 0.30226427
-1.001377 2.1789086 0.64025468
-0.8485263 1.6780179 0.48139447
-0 0 0
-0.66587633 1.104514 0.30378056
-1.0070916 2.1912425 0.54767901
-0.91406709 1.8070025 0.43864256
-0.6015358 1.0874614 0.25679487
-0.77367514 1.2854033 0.29496837
-1.0264665 2.2320638 0.46288022
-0.86611313 1.7133167 0.34189811
-0.87699777 1.5873402 0.30520022
-1.1579553 1.9255289 0.35651588
-1.0128726 2.2030101 0.36488339
-0.84933871 1.6822482 0.26471487
-0.90349895 1.6373312 0.24460582
-1.1642354 1.9398794 0.27434468
-1.0227995 2.2256246 0.27695128
-0.86386192 1.7110881 0.19811468
-0.91904825 1.6670916 0.17860615
-0.95707405 1.5964696 0.15721987
-0.98685968 2.1483085 0.18033291
-0.86465603 1.7139992 0.12787956
-0.8965975 1.6273079 0.10631598
-0.97529358 1.6280851 0.090230994
-0.96827233 2.1095922 0.091646194
-0.85410124 1.695136 0.056800008
-0.89849555 1.6327075 0.0383211
-0.97719491 1.6328101 0.0207581
-0.96122164 2.0950024 0.0065574553
-0.86373383 1.7158186 -0.013109259
-0.9027307 1.6419635 -0.030154986
-0.96248114 1.6095631 -0.048093282
-1.0153627 2.2160647 -0.082567275
-0.86590838 1.7217093 -0.083435453
-0.9111594 1.659695 -0.10008817
-0.97999299 1.6397579 -0.11918085
-1.0185944 2.2270172 -0.17287637
-0.8684212 1.7289604 -0.15499076
-0.90805036 1.6546478 -0.16914649
-0.95670646 1.601873 -0.18531275
-0.8794992 1.924325 -0.22768095
-0.85830134 1.710673 -0.22415644
-0.90881169 1.6570636 -0.23922162
-0.86331069 1.4462974 -0.23004036
-0.82499707 1.8089991 -0.28806847
-0.816791 1.6302099 -0.28159058
-0.80608869 1.4711051 -0.27580982
-0.71276325 1.1945128 -0.24259396
-0.6829406 1.5005583 -0.30148551
-0.76200956 1.5226644 -0.32801038
-0.83553296 1.5270535 -0.35237631
-0.70377958 1.1802996 -0.29259565
-0 0 -0
-0.7135089 1.4273674 -0.36955616
-0.704382 1.2876769 -0.35473162
-0.747262 1.2522296 -0.36815339
-0.46971482 1.0372876 -0.29787824
-0.5488773 1.100087 -0.33409339
-0.57519209 1.0521598 -0.33857062
-0 0 -0
-1.0287448 2.2789605 0.77247161
-0.83329248 1.6722122 0.55491567
-0.90332085 1.6524904 0.53941488
-0.65747142 1.1028804 0.35441551
-0 0 0
-0.85591996 1.718747 0.49156305
-0 0 0
-0.61630821 1.036626 0.28406349
-1.0028687 2.2178173 0.55277264
-0.89773285 1.8020797 0.43610221
-0.56532025 1.0369623 0.2440462
-0.78680849 1.3255647 0.30307084
-1.0172076 2.2481687 0.46491694
-0.86435938 1.7362255 0.34540477
-0.88374692 1.6230037 0.31100881
-0.99598968 1.6794487 0.30981624
-0.9972983 2.2046785 0.36413932
-0.83018297 1.6696937 0.26193279
-0.89959383 1.6541682 0.24629186
-1.0274221 1.7359705 0.24461097
-0.99807078 2.2074122 0.27391776
-0.85068965 1.7110124 0.19749783
-0.90072149 1.6578271 0.17701814
-0.95486683 1.6151787 0.15848236
-0.97858721 2.1652267 0.18124561
-0.85723037 1.7255275 0.12834482
-0.88469005 1.6292692 0.10608747
-0.95512462 1.6168383 0.089281194
-0.9610672 2.1282432 0.092198521
-0.8423512 1.6976587 0.056710277
-0.89513355 1.6504939 0.038608924
-0.95953435 1.6258579 0.020594478
-0.93518305 2.0716949 0.0064664185
-0.8598516 1.7345251 -0.013211622
-0.89025718 1.6430761 -0.030074531
-0.95817244 1.6249107 -0.048375282
-0.99065673 2.1976526 -0.081653245
-0.86286575 1.7422097 -0.084170759
-0.89525622 1.6547148 -0.099454693
-0.97041994 1.6466 -0.11924312
-1.0118692 2.2486894 -0.17407347
-0.85868001 1.7360432 -0.15515046
-0.90925211 1.6812146 -0.17128873
-0.94332457 1.6017109 -0.18462092
-0.94473851 2.1010718 -0.24790263
-0.8403095 1.7007694 -0.22217894
-0.87598449 1.6207162 -0.23319399
-0.86396956 1.4677908 -0.2326114
-0.87505454 1.9503726 -0.30972022
-0.75342524 1.5270646 -0.26297051
-0.81298792 1.5055439 -0.28132603
-0.78485519 1.3338634 -0.26991156
-0.93460625 2.0873954 -0.41823018
-0.70751053 1.4357079 -0.30833733
-0.79591113 1.476076 -0.33947966
-0.72230291 1.2284384 -0.30342481
-0 0 -0
-0.64579403 1.3119715 -0.33864698
-0.7430526 1.3783915 -0.37845868
-0.75333285 1.2801888 -0.3750073
-0.41728273 0.93675381 -0.26826757
-0.50467092 1.0272158 -0.31101632
-0.64768964 1.2022429 -0.3855792
-0.45015576 0.76491863 -0.2605463
-1.0147419 2.2852299 0.77247161
-1.0480895 2.1359892 0.7066704
-0.89772367 1.6664654 0.54216838
-0.56471461 0.96063751 0.30758584
-1.1909144 2.677439 0.78239018
-1.0586165 2.1588721 0.61556983
-0 0 0
-0.60649002 1.0345101 0.28245863
-1.0288746 2.3130288 0.57491904
-1.0829287 2.2076728 0.53263742
-0.81431985 1.515757 0.35554656
-0.89563262 1.530219 0.34859899
-1.0041931 2.2561634 0.46528721
-1.0135942 2.0676956 0.41010243
-0.86584532 1.6136237 0.30818751
-0.7882337 1.3479111 0.24775895
-0.98656613 2.2170808 0.36518103
-0.96100283 1.9629244 0.30700245
-0.89270568 1.6657747 0.24719974
-0.94619894 1.6213481 0.22763747
-0.98652661 2.2180343 0.27447951
-0.88172454 1.8010718 0.20726475
-0.87972373 1.6431346 0.17486963
-0.96450949 1.6545808 0.16176477
-0.9863469 2.2185686 0.18520062
-0.9207229 1.8822296 0.13957748
-0.87985754 1.6443499 0.10671588
-0.9436776 1.620079 0.089138724
-0.94271708 2.1222286 0.091685645
-0.95653093 1.9578552 0.065204851
-0.87085223 1.6295022 0.037992164
-0.94752842 1.6282579 0.020550845
-0.94193369 2.1212635 0.0066029732
-0.88647634 1.8161528 -0.013791678
-0.88204247 1.6520358 -0.030138897
-0.95320898 1.6394014 -0.048631642
-0.99011737 2.2329259 -0.082736529
-0.94674659 1.9414352 -0.093513459
-0.89777064 1.6839693 -0.10088
-0.96531296 1.6611527 -0.1198658
-1.0012823 2.2621529 -0.17463681
-0.94708461 1.9447124 -0.17327663
-0.91390902 1.7148893 -0.17414501
-0.9549669 1.6444718 -0.18887076
-0.95676339 2.1632054 -0.25453621
-0.85114747 1.7496573 -0.22787882
-0.89120668 1.6733452 -0.23997508
-0.88976169 1.5330495 -0.24208364
-0.78075945 1.7691889 -0.28018209
-0.79974711 1.6463332 -0.28265896
-0.82830107 1.5566728 -0.2899248
-0.83647478 1.4417584 -0.29070041
-0.65178812 1.4800178 -0.29572922
-0.71540493 1.4744766 -0.31571472
-0.80615371 1.5172844 -0.34781289
-0.7343744 1.2666935 -0.31175494
-0.52022368 1.1843549 -0.2868728
-0.47160712 0.97312421 -0.25043181
-0.69992661 1.3176844 -0.36060464
-0.73913783 1.2738848 -0.37182513
-0.50004423 1.1413341 -0.32597041
-0.49457666 1.0224746 -0.30865616
-0.49184471 0.92653412 -0.29618135
-0.43726712 0.75355786 -0.25575787
-0.9636097 2.2064815 0.74383974
-1.0770793 2.2295599 0.73542696
-0.88838297 1.6736406 0.54271907
-0 0 0
-0 0 0
-1.0840979 2.245589 0.63838708
-0.90065813 1.6998454 0.47297129
-0.64494598 1.1157409 0.30355132
-1.0025462 2.2916024 0.5680536
-1.0468359 2.1676319 0.52141732
-0 0 0
-0.70378256 1.2195401 0.27683428
-1.0123993 2.3126955 0.47565573
-1.0428233 2.1607676 0.42728496
-0.86099809 1.6284957 0.31001306
-0.6230706 1.0806377 0.19792508
-0.98483795 2.2502697 0.36964533
-1.0207453 2.1177588 0.33023283
-0.87737495 1.6615758 0.24577309
-0.93375725 1.6228211 0.22703558
-0.99161565 2.2668333 0.27976012
-1.0680228 2.2159452 0.25424889
-0.87891597 1.6661136 0.17673789
-0.92504346 1.6094961 0.15679905
-0.97631061 2.232801 0.18588512
-0.94898611 1.9705491 0.1456923
-0.87906361 1.6673807 0.10785845
-0.93421668 1.6267051 0.089186214
-0.93847835 2.1481175 0.092553586
-1.044582 2.1717663 0.07211417
-0.8780728 1.6675466 0.038752832
-0.94299364 1.6435817 0.020670835
-0.98292923 2.2507193 0.0069870325
-1.0286369 2.1406233 -0.016207438
-0.88771623 1.6875033 -0.030685998
-0.94014883 1.6400156 -0.048477825
-0.99597365 2.2838483 -0.084395327
-1.0191314 2.1228347 -0.10194783
-0.89438671 1.7027072 -0.10167184
-0.95410985 1.6653125 -0.11974127
-0.98021668 2.251791 -0.17336929
-1.0428686 2.1751974 -0.19323938
-0.89549798 1.7054734 -0.17262761
-0.94337535 1.6477096 -0.18857425
-0.94109267 2.1635647 -0.25389424
-0.84296978 1.7602216 -0.22857678
-0.87677366 1.6708757 -0.23884489
-0.83900326 1.4662429 -0.23071694
-0.88651514 2.0426707 -0.32262522
-0.73889273 1.5451111 -0.26449674
-0.79124427 1.5092896 -0.28019035
-0.85647142 1.4973159 -0.30083713
-0 0 -0
-0.64074606 1.3414987 -0.2863943
-0.73364598 1.4015028 -0.32023388
-0.81055605 1.4180784 -0.34778273
-0 0 -0
-0.50086391 1.049859 -0.2693834
-0.66613823 1.2728654 -0.3472141
-0.74334353 1.2994362 -0.37794471
-0 0 -0
-0.60569978 1.2720608 -0.38286999
-0.46474192 0.88860095 -0.28313851
-0.44692925 0.78121215 -0.26420802
-0.96852601 2.2553701 0.75830323
-1.0415596 2.1902442 0.72033691
-0.88032448 1.6833196 0.54409581
-0 0 0
-0.977 2.2711663 0.66011751
-1.054498 2.2189493 0.62896258
-0.88391989 1.6932878 0.46962875
-0.5865202 1.0291896 0.27901956
-0.9838419 2.2869613 0.56539613
-1.0565948 2.2225611 0.53306085
-0 0 0
-0.61088818 1.0737344 0.24288109
-0.98497909 2.2881744 0.46936059
-1.0291231 2.1662364 0.42710966
-0 0 0
-0.64766443 1.1393923 0.20795454
-0.96632111 2.2453701 0.3678596
-1.0242867 2.1588748 0.33565789
-0.86899358 1.6704465 0.24629186
-0.93406826 1.6466531 0.22956355
-0.96198213 2.2363629 0.27526599
-1.049716 2.2125714 0.25311798
-0.87234938 1.6785427 0.1774852
-0.9372555 1.6541549 0.16058648
-0.96889383 2.2534058 0.18710205
-0.98218232 2.0719059 0.15273765
-0 0 0
-0.92963123 1.6419681 0.089708604
-0.9363234 2.1795418 0.093658231
-1.0590386 2.2368569 0.074058354
-0.88209629 1.700415 0.039390147
-0.94864434 1.6771885 0.021019893
-0.9608143 2.2374122 0.0069272905
-1.0360065 2.1902847 -0.016534999
-0.87228453 1.6831534 -0.030508995
-0.93793762 1.6596783 -0.048888002
-0.97288221 2.26879 -0.083616711
-1.0321246 2.1841488 -0.10458628
-0.88392228 1.7081629 -0.10167184
-0.93552959 1.6563621 -0.11868271
-0.96284884 2.2495098 -0.17273553
-1.0418392 2.2076981 -0.19555506
-0.88410127 1.7091665 -0.17244908
-0.94547552 1.675132 -0.19104509
-0.9301455 2.1747832 -0.25453621
-0.90626371 1.9225813 -0.24893348
-0.8624047 1.6682923 -0.23771472
-0.88889337 1.5757828 -0.2470904
-0.84483278 1.979803 -0.31187108
-0.77611679 1.6488699 -0.28143796
-0.81185269 1.5719806 -0.29089826
-0.78097683 1.3849825 -0.27729931
-0 0 -0
-0 0 -0
-0.72907561 1.413818 -0.32201955
-0.73461956 1.3037297 -0.3186273
-0.39612484 0.93275046 -0.2247351
-0.60952723 1.298063 -0.33210418
-0.69572997 1.3495013 -0.3669475
-0 0 -0
-0.39242288 0.92645943 -0.26320592
-0.44718382 0.95419353 -0.28636575
-0.4777931 0.92736709 -0.29455101
-0.42845821 0.7597028 -0.25603956
-0 0 0
-1.0382599 2.2182992 0.72745484
-0.86381549 1.6767251 0.54024094
-0 0 0
-0.96982014 2.2931359 0.66476077
-1.0363481 2.2157252 0.62623441
-0.86774039 1.687453 0.46652493
-0.57733375 1.0276774 0.27764398
-0.9762485 2.3082235 0.569161
-1.0205711 2.1812003 0.52162904
-0 0 0
-0.58988911 1.0517883 0.23709361
-0.9705376 2.2932701 0.46917543
-1.0237349 2.189455 0.43044096
-0 0 0
-0.80915451 1.4440438 0.26264644
-0.9532963 2.2530787 0.36815724
-1.0219146 2.1884482 0.33927459
-0.85646653 1.671335 0.24564339
-0.91958648 1.6445552 0.22848013
-0.95559573 2.2596121 0.2774007
-1.0352784 2.2171681 0.25291234
-0.86566323 1.6909539 0.17823251
-0.92951763 1.6642245 0.1610073
-0.96475476 2.282269 0.1890035
-0.98759115 2.1167748 0.15559566
-0.87035912 1.7011511 0.10934378
-0.93803662 1.680786 0.091513216
-0.91671211 2.1705182 0.093027003
-1.0216521 2.1925757 0.072383367
-0.85299402 1.6692935 0.038547248
-0.91544926 1.6419295 0.020507213
-0.97818285 2.3169663 0.0071548806
-0.95924497 2.0606158 -0.015511371
-0.86739576 1.6991605 -0.03070209
-0.91849309 1.6488093 -0.04840092
-0.96243703 2.2830055 -0.083921388
-1.0271295 2.2085583 -0.10545135
-0.87478501 1.7162236 -0.10183021
-0.92729068 1.6655593 -0.11893178
-0.94941491 2.256295 -0.17280595
-1.0278536 2.213145 -0.19547521
-0.88580608 1.7385204 -0.17485909
-0.95162839 1.7104676 -0.19440544
-0.91716909 2.1813662 -0.25464317
-0.91158652 1.965046 -0.25370276
-0.85440278 1.6779729 -0.2383426
-0.94854295 1.7059027 -0.26657617
-0.79170549 1.8872991 -0.29652843
-0.72693795 1.5693069 -0.26709136
-0.77221596 1.5180063 -0.2800281
-0.80165881 1.4422729 -0.28777966
-0.87284219 2.0852034 -0.41337332
-0.60650629 1.3109396 -0.27826026
-0.65913403 1.297673 -0.29463896
-0.7460773 1.3432693 -0.32716566
-0 0 -0
-0.50347203 1.0895321 -0.27795675
-0.5620079 1.1067426 -0.29999486
-0.75372171 1.3559173 -0.39165252
-0 0 -0
-0 0 -0
-0.48515922 0.95602703 -0.30270278
-0 0 -0
-0 0 0
-1.0182127 2.2106969 0.72289932
-0.85003084 1.6751355 0.53803807
-0 0 0
-0 0 0
-1.0259736 2.2290828 0.62821859
-0.85649246 1.691013 0.46604744
-0.53093749 0.95882058 0.25815618
-0 0 0
-1.0067595 2.1865335 0.52141732
-0.99132395 1.9590828 0.45369115
-0.58769679 1.0631166 0.23882985
-0 0 0
-1.0111043 2.197484 0.43079162
-0.8802492 1.7417616 0.32843462
-0.89482242 1.6201618 0.29367507
-0.94780773 2.2789726 0.37143102
-1.012602 2.2036755 0.34066564
-0.85110986 1.6862959 0.24707004
-0.91570771 1.6614693 0.23004507
-0.94056875 2.2626803 0.27706364
-1.0175016 2.2144401 0.25188425
-0.8503406 1.6864544 0.17720495
-0.91832757 1.6681508 0.16083896
-0.94728953 2.2798586 0.18831897
-0.97000492 2.1128199 0.15486453
-0.84777433 1.6823872 0.10780132
-0.90219039 1.6401246 0.088996254
-0.92406487 2.2259367 0.095157392
-0.98068362 2.1388359 0.070409276
-0.84588158 1.6807474 0.038691156
-0.89909691 1.6361233 0.020365408
-0.94133431 2.2684307 0.0069870325
-0.94116938 2.0546441 -0.015422657
-0.86234319 1.7151705 -0.030895185
-0.91028333 1.6579192 -0.048503462
-0.93808109 2.2639387 -0.083007358
-1.0127273 2.2130022 -0.10536484
-0.8696143 1.7322683 -0.10246368
-0.91897404 1.6747175 -0.11918085
-0.93631506 2.2639213 -0.17294678
-1.0130117 2.2166903 -0.19523565
-0.86797452 1.7296795 -0.17343093
-0.92532635 1.6874808 -0.19114393
-0.84984499 2.0564706 -0.2394502
-0.97952366 2.1458876 -0.27626961
-0.83697522 1.6689947 -0.23633339
-0.89615476 1.6352293 -0.25466821
-0.74729139 1.8125205 -0.28405359
-0.70745796 1.5521549 -0.26342839
-0.84244663 1.6815161 -0.30923149
-0.81977278 1.4964116 -0.29757276
-0 0 -0
-0.63099778 1.3861326 -0.29339337
-0.70465517 1.4086335 -0.318845
-0.79887569 1.4593539 -0.35423857
-0 0 -0
-0.43508333 0.95691252 -0.24343775
-0.60303164 1.2057997 -0.32583624
-0.66712207 1.2176623 -0.35052902
-0.42865229 1.047606 -0.29610667
-0 0 -0
-0.45863265 0.91766518 -0.28965995
-0.44676682 0.81539214 -0.27293986
-0.93334204 2.2887404 0.76361638
-1.0319307 2.2771497 0.74254489
-0.8423149 1.6854793 0.5396902
-0.9038226 1.6514473 0.5196498
-0.9229719 2.2592499 0.65160483
-0.99868917 2.2053313 0.61978608
-0.84913462 1.7023193 0.46771872
-0 0 0
-0.9426862 2.3073914 0.56606048
-1.0082463 2.2256086 0.5292502
-0.98059493 1.9677582 0.45429826
-0.6750499 1.2390294 0.27741304
-0.95273489 2.330477 0.47435966
-1.0061284 2.2224813 0.4344736
-0.86163646 1.7312388 0.32544732
-0.86786598 1.5943931 0.28803349
-0.93866992 2.2966449 0.37336558
-0.99702168 2.2053354 0.33997008
-0.8358922 1.6817193 0.24564339
-0.89649302 1.6504821 0.22775786
-0.96048754 2.3511977 0.28717548
-1.0145485 2.2442076 0.25455731
-0.85857403 1.7290936 0.18112832
-0.88811696 1.6369683 0.15730403
-0.93215191 2.2828586 0.1880908
-0.96195143 2.1296439 0.15566212
-0.84231716 1.6973948 0.10842974
-0.88449305 1.6315792 0.088236406
-0.90510511 2.218612 0.094605066
-0.96671945 2.1429906 0.070349455
-0.87195837 1.759362 0.040376954
-0.89189804 1.6468849 0.020430857
-0.93343943 2.2889793 0.0070325509
-0.936351 2.077702 -0.015552317
-0.86289406 1.7428309 -0.031297464
-0.91103536 1.6836953 -0.04909309
-0.91286498 2.241883 -0.081991777
-0.99133652 2.2018654 -0.10454302
-0.86870474 1.7572658 -0.10362504
-0.90393329 1.6715456 -0.11855817
-0.9133926 2.2474451 -0.17125675
-1.0034788 2.2319558 -0.19603416
-0.85690385 1.7340798 -0.17334169
-0.91306233 1.6896249 -0.19074859
-0.8402034 2.069016 -0.24030612
-0.87194234 1.941655 -0.24928245
-0.82891512 1.6785465 -0.23696126
-0.84843779 1.5709546 -0.24384277
-0 0 -0
-0.88594705 1.9757929 -0.33439839
-0.7936945 1.6087807 -0.29495427
-0.81572348 1.5109489 -0.29946265
-0 0 -0
-0.66903633 1.4939352 -0.31533641
-0.61544132 1.249393 -0.28194073
-0.72350025 1.3411332 -0.32445836
-0 0 -0
-0.40215465 0.89909118 -0.22809599
-0.62267584 1.2644136 -0.34063628
-0.66240191 1.2268518 -0.35199773
-0 0 -0
-0 0 -0
-0.5065366 1.0292596 -0.32389739
-0.42078441 0.77928072 -0.25998294
-0 0 0
-1.0155972 2.2781854 0.74083662
-1.0446156 2.1227582 0.67764163
-0.89138454 1.6527199 0.51831937
-0 0 0
-0.99302298 2.2291162 0.62474632
-1.0805573 2.1999609 0.60261464
-0 0 0
-0 0 0
-0.99496913 2.232646 0.52946192
-1.068157 2.1768262 0.50104338
-0.82524258 1.5370774 0.34300444
-0.94574308 2.354517 0.47806272
-1.0309218 2.3149514 0.45130551
-0.93952566 1.9171381 0.35930315
-0.84686232 1.5788001 0.28427246
-0.91755885 2.2849262 0.37053818
-0.98950726 2.2249842 0.34205666
-1.0705224 2.1873398 0.31853229
-0.89009672 1.6629536 0.22872089
-0.91902351 2.2897289 0.27897364
-0.98701698 2.2194886 0.2510618
-0.970833 1.9856682 0.20737743
-0.88463324 1.6546893 0.15848236
-0.91849834 2.2894609 0.18816687
-0.96628767 2.174715 0.15852015
-1.0036985 2.0541606 0.13082407
-0.87728912 1.6422619 0.088521354
-0.91006291 2.2704985 0.096577652
-0.95233589 2.1461411 0.070259728
-0.94182438 1.9300054 0.044159722
-0.88977945 1.6673236 0.020616295
-0.92458379 2.3076591 0.0070723789
-0.91304809 2.0596397 -0.015374888
-1.0164869 2.0851285 -0.037331682
-0.89504325 1.6786683 -0.048785459
-0 0 -0
-0.98953956 2.2343981 -0.10579737
-0.9029209 1.8550459 -0.10906231
-0.90163904 1.6920344 -0.11961673
-0.90920264 2.2770939 -0.17308763
-0.98492682 2.2271314 -0.19507594
-0.94603676 1.9444033 -0.19378206
-0.92653096 1.7399908 -0.1957891
-0.81164986 2.0344229 -0.23570544
-0.87205154 1.9742243 -0.25277218
-0.81209296 1.6702179 -0.23507763
-0.88579541 1.6644713 -0.25750989
-0.54164016 1.3608786 -0.21221571
-0.79005557 1.791301 -0.30234739
-0.79760468 1.6420231 -0.30014601
-0.81198919 1.5263623 -0.30152437
-0.52062845 1.3110156 -0.25795358
-0.63294035 1.4369056 -0.30247325
-0.62872088 1.2963575 -0.29166281
-0.68863058 1.2954564 -0.31237969
-0 0 -0
-0.60338032 1.371485 -0.34699473
-0.62805212 1.295324 -0.34791887
-0.50412506 0.94756514 -0.27097458
-0 0 -0
-0.47910768 1.091234 -0.32386604
-0.42425668 0.87559068 -0.27471501
-0.3921079 0.73695308 -0.24505436
-0 0 0
-0.98196769 2.2395995 0.72631598
-1.0546252 2.1767108 0.69278598
-0.88756013 1.6700752 0.52204448
-0 0 0
-0.98865736 2.2564631 0.63069874
-1.0750706 2.22316 0.60715097
-0 0 0
-0.88532567 2.2453032 0.54812193
-0.99184436 2.2628775 0.53517783
-1.0611701 2.1965666 0.50407881
-0 0 0
-0.9024238 2.2871456 0.46325055
-1.0036635 2.2914741 0.44551954
-1.0117344 2.0969462 0.39183128
-0.86854094 1.6433436 0.29492876
-0.92747039 2.3512256 0.38035968
-0.97345531 2.22557 0.34122205
-1.0540682 2.1876144 0.31762442
-0.88033938 1.6692621 0.22884127
-0.89548069 2.2712901 0.27605245
-0.97178549 2.2218578 0.25065055
-1.0644258 2.2113802 0.2302637
-0.87167716 1.6547965 0.15797736
-0.91393805 2.3191729 0.19014435
-0.9609167 2.198889 0.15984945
-0.99280661 2.063879 0.13105258
-0.87603533 1.6644083 0.089423664
-0.94150561 2.3913293 0.10146965
-0.9431476 2.1611054 0.070558831
-1.0286757 2.1412187 0.048847072
-0.89256227 1.6975332 0.02092172
-0.89246237 2.267693 0.0069329794
-0.96753305 2.2191999 -0.01652135
-1.0499637 2.1877797 -0.039053444
-0.89867365 1.7106781 -0.049554542
-0.87797457 2.2343128 -0.081314713
-0.98658234 2.2651584 -0.1069652
-1.0537734 2.1991608 -0.12891102
-0.89355963 1.7019533 -0.11992807
-0.87408966 2.2287676 -0.16900337
-0.96766478 2.224906 -0.19435728
-0.96377611 2.0121529 -0.19994096
-0.89041007 1.6971776 -0.19035326
-0.78500414 2.0032616 -0.23153271
-0.8674404 1.9968464 -0.25498232
-0.83138406 1.7369144 -0.24374235
-0.8829273 1.683915 -0.25967497
-0.64353901 1.6462291 -0.25609276
-0.79202712 1.8260353 -0.30738401
-0.82284611 1.7207735 -0.31361201
-0.79894972 1.5243355 -0.30014989
-0.49970645 1.2811935 -0.25147778
-0.47618279 1.0992682 -0.23078008
-0.62033254 1.2993065 -0.29146442
-0.70608044 1.3481779 -0.32404187
-0 0 -0
-0 0 -0
-0.42832842 0.89738941 -0.24032477
-0.61803776 1.1790692 -0.33608684
-0 0 -0
-0.39169285 0.90721697 -0.26853347
-0 0 -0
-0.34436586 0.65691245 -0.21773221
-0.90793306 2.3492012 0.77807999
-0.9769367 2.2658291 0.7328645
-1.055734 2.2135105 0.70242333
-0.87729603 1.6754897 0.52204448
-0 0 0
-0.97632664 2.2660456 0.63169074
-1.056818 2.2200699 0.60452461
-0.87574434 1.6773676 0.4456977
-0 0 0
-0.97678041 2.266228 0.53454274
-1.0493546 2.206574 0.50488824
-0 0 0
-0.8887282 2.293556 0.46343571
-0.97439599 2.2623253 0.43868157
-1.0128098 2.1325099 0.39730793
-1.0071404 1.9342196 0.34601632
-0.88945019 2.2960138 0.37053818
-0.96604151 2.2460563 0.34344772
-1.0435998 2.2003119 0.31853229
-0.87694585 1.6878461 0.23064697
-0 0 0
-0.96442217 2.2423992 0.25229552
-1.050837 2.2178698 0.2302637
-0.86196613 1.6609983 0.15806153
-0 0 0
-0.94858825 2.207494 0.16004886
-0.97200632 2.0527878 0.12996714
-0.87500226 1.6874872 0.090373464
-0 0 0
-0.94366574 2.1990006 0.071605697
-1.0356061 2.1899698 0.049813319
-0.88764864 1.7136327 0.021052618
-0.88718325 2.2955127 0.007001257
-0.94995797 2.215904 -0.016453108
-1.0382284 2.1977975 -0.039117809
-0.87759233 1.6957401 -0.04896491
-0 0 -0
-0.96597868 2.2555568 -0.1062299
-1.0462235 2.2182298 -0.12965007
-0.88493389 1.71095 -0.12017714
-0.84928429 2.2052321 -0.16682042
-0.94929153 2.2198033 -0.19339909
-1.0006812 2.1225338 -0.21029507
-0.88272095 1.7079132 -0.19094625
-0.76912689 1.9987613 -0.23046277
-0.89028358 2.0843356 -0.26545149
-0.89893425 1.9080144 -0.26697385
-0.81210268 1.5722206 -0.2416777
-0.7174806 1.8691192 -0.29007593
-0.80833381 1.8954043 -0.31822026
-0.98371911 2.0900538 -0.37980637
-0.80494833 1.5589705 -0.30599141
-0 0 -0
-0.50251979 1.1798633 -0.2470482
-0.6156832 1.3101848 -0.29305172
-0.62962985 1.2203655 -0.2923874
-0.42526141 1.1136022 -0.26435602
-0.40193492 0.94488978 -0.23779741
-0.43480003 0.92551392 -0.2471375
-0.55829817 1.0811822 -0.30720249
-0 0 -0
-0 0 -0
-0 0 -0
-0 0 -0
-0 0 0
-0.96825325 2.2841368 0.7368505
-1.0323279 2.1990614 0.69581491
-0.866557 1.6799845 0.5217784
-0 0 0
-0.96542692 2.2791297 0.63367486
-1.0312282 2.2010114 0.59760076
-0.87834597 1.7078115 0.45234644
-0.86602277 2.2778747 0.55343705
-0.97315258 2.2964754 0.54025865
-1.0220957 2.1837013 0.49821037
-1.0302962 2.0067852 0.44351357
-0 0 0
-0.96279967 2.273701 0.43973359
-1.0013762 2.1422577 0.39797178
-0.99930996 1.9482719 0.34742668
-0 0 0
-0.95764124 2.2647107 0.34539515
-1.0279824 2.2021818 0.31788385
-0.86612064 1.6923114 0.23052658
-0.91097111 2.3963528 0.28987193
-0.95219439 2.2519391 0.25270674
-1.0271101 2.2026196 0.22802179
-0.8680858 1.6981969 0.16109145
-0 0 0
-0.96880752 2.2932374 0.16583134
-0.98385161 2.1111991 0.13328059
-0.85827059 1.6803706 0.089708604
-0.88123727 2.3214295 0.098037362
-0.93054378 2.2056706 0.071635611
-1.0386015 2.2316339 0.050615102
-0.87439054 1.7137028 0.02098717
-0.87166238 2.2971733 0.0069898772
-0.96663588 2.2935667 -0.016985396
-1.0226157 2.1995931 -0.039037354
-0.87307316 1.7126712 -0.049298178
-0.87846196 2.3187523 -0.083989099
-0.96220011 2.2853818 -0.10735448
-1.033434 2.2264192 -0.12975565
-0.88030887 1.7279085 -0.12098663
-0.84385121 2.2318621 -0.16844003
-0.93449426 2.2228296 -0.19315952
-1.0165637 2.1909752 -0.21645397
-0.86635584 1.701769 -0.18966143
-0.72522509 1.9197338 -0.22083342
-0 0 -0
-0.89096576 1.9215945 -0.26810402
-0.80154181 1.5754077 -0.24140705
-0 0 -0
-0.81464761 1.9431658 -0.32539359
-0.7141602 1.5418193 -0.27937913
-0.80027992 1.5735391 -0.3078813
-0.46213782 1.2292209 -0.24014507
-0.4596234 1.0977829 -0.22926676
-0.56690419 1.2258675 -0.2734091
-0.66422564 1.3070403 -0.31217143
-0.37318584 0.99552137 -0.23577699
-0.43935061 1.0507005 -0.26374304
-0.42666557 0.92287064 -0.24572797
-0.50813675 0.99903035 -0.28296897
-0 0 -0
-0.38276008 0.91729885 -0.27010691
-0 0 -0
-0.37456131 0.73634863 -0.24251932
-0 0 0
-0 0 0
-1.0043011 2.1739364 0.68590224
-0.85623246 1.6852698 0.5217784
-0 0 0
-0.9715327 2.3333044 0.64706761
-1.0177035 2.2072973 0.59760076
-0.85553432 1.6888562 0.44592693
-0.87794179 2.352581 0.57026827
-0.96693522 2.3213494 0.54470438
-1.016052 2.2059424 0.50185281
-1.000252 1.978044 0.43579695
-0.88870692 2.3797793 0.47861817
-0.95564014 2.2959261 0.44288954
-1.0075814 2.190469 0.40577191
-0.83369172 1.6502367 0.29336163
-0 0 0
-0.95474941 2.2970626 0.34942919
-1.0111394 2.2012393 0.31684625
-0.86287016 1.7117776 0.23245266
-0.88096529 2.3609345 0.28492838
-0.95362914 2.2944803 0.25681913
-1.0148213 2.2115948 0.228302
-0.86257857 1.7132816 0.16201727
-0.86099023 2.3085096 0.18793869
-0.9608407 2.3138826 0.16689479
-0.95839453 2.0899713 0.13156675
-0.86320597 1.7159443 0.091323264
-0.87709433 2.3539467 0.099181466
-0.91737539 2.2122619 0.071665518
-0.98076296 2.1416104 0.0484359
-0.87059385 1.7324377 0.02115079
-0.8435899 2.2649941 0.0068760822
-0.93876737 2.2661963 -0.016739724
-1.0082681 2.2040079 -0.039005168
-0.87151879 1.7358638 -0.049810901
-0.87989283 2.3662529 -0.085512474
-0.94090086 2.2737031 -0.10653267
-1.0230724 2.239985 -0.13017796
-0.8746137 1.7430902 -0.12167157
-0.83152908 2.2407386 -0.16872171
-0.91855359 2.2229941 -0.19268042
-0.99896443 2.1881108 -0.21556138
-0.85188353 1.6990467 -0.18877192
-0.74799764 2.0173717 -0.23153271
-0.84190488 2.0400178 -0.25847206
-0.90510076 1.9838884 -0.27601531
-0.84423655 1.6848226 -0.25737455
-0.63818896 1.7255555 -0.26656014
-0.87575126 2.1253965 -0.35500258
-0.82786316 1.8164381 -0.32821369
-0.7129606 1.4233966 -0.27764294
-0.39022955 1.0576108 -0.206147
-0.45362625 1.1023985 -0.22964512
-0.53663969 1.1793649 -0.26229814
-0.65575552 1.3102167 -0.31196317
-0.35392463 0.96205878 -0.22733317
-0 0 -0
-0 0 -0
-0.50026023 0.99866188 -0.28198984
-0 0 -0
-0 0 -0
-0 0 -0
-0 0 -0
-0.82550925 2.2587261 0.74295419
-0.94596285 2.3100407 0.74140602
-1.0168008 2.236944 0.70380014
-0.84932655 1.6973884 0.52390701
-0 0 0
-0.91977543 2.2477689 0.6217702
-1.0137689 2.2347248 0.60333091
-0.84385204 1.691461 0.44523916
-0 0 0
-0.93527132 2.2847278 0.5347544
-0.99602979 2.1978636 0.49861512
-1.0134655 2.0350873 0.44698608
-0.86732537 2.3667336 0.47491515
-0.93818003 2.2935457 0.4413116
-1.0002208 2.2100863 0.4082613
-0.84686667 1.7021865 0.30166727
-0.83172953 2.2702138 0.36384171
-0.93951356 2.3001275 0.34901187
-0.99761385 2.2074022 0.31684625
-0.84926081 1.7108154 0.23161
-0.89106214 2.4334776 0.29301783
-0.93727577 2.2947633 0.25620228
-1.0000032 2.2150578 0.22802179
-0.86311537 1.7408607 0.16412139
-0.87456781 2.3895943 0.19409935
-0.95755762 2.3465259 0.16882229
-0.9459632 2.0967226 0.13162386
-0.86862338 1.7534308 0.093032904
-0.84959519 2.3236227 0.097682297
-0.9105736 2.2345109 0.072203904
-0.99676329 2.212307 0.049895555
-0.86793047 1.7538787 0.021347137
-0.83688492 2.2898517 0.0069358251
-0.93276221 2.2913635 -0.016883034
-0.94548178 2.1007395 -0.037074223
-0.86572492 1.7510362 -0.050092898
-0 0 -0
-0.94160938 2.315527 -0.10821955
-1.0056252 2.2380223 -0.12970285
-0.86743879 1.7555822 -0.12216972
-0.80957323 2.2233031 -0.16703168
-0.90939641 2.2396715 -0.19363864
-0.98919231 2.2023761 -0.21636468
-0.89298624 1.8086379 -0.20033544
-0.70841092 1.9471757 -0.22297327
-0.7875672 1.9420596 -0.24544376
-0.92297232 2.0563817 -0.28530788
-0.84528184 1.7130727 -0.26089284
-0.6441313 1.7750239 -0.27358621
-0.54854846 1.3548363 -0.22573034
-0.82154661 1.8322883 -0.33016059
-0.84976244 1.7228351 -0.33502707
-0.4684487 1.2939959 -0.25165763
-0 0 -0
-0.43448681 0.97061992 -0.21527494
-0.64813626 1.315093 -0.31217143
-0 0 -0
-0 0 -0
-0.45660105 1.0203085 -0.27015984
-0.6352399 1.287792 -0.36252338
-0 0 -0
-0.37039262 0.91924155 -0.26932019
-0 0 -0
-0.37441149 0.75896007 -0.24843441
-0 0 0
-0.92175192 2.2909005 0.73343396
-1.00855 2.2554274 0.70765501
-1.0284885 2.0873532 0.64231157
-0 0 0
-0.96306324 2.3953855 0.66095638
-0.99251878 2.2240541 0.59879458
-1.0699328 2.1779819 0.57156599
-0 0 0
-0.93035245 2.3130922 0.54004693
-0.99050027 2.221823 0.5026623
-1.0255837 2.0914843 0.45798227
-0 0 0
-0.9321664 2.319356 0.44516888
-0.99145406 2.2269926 0.41025284
-1.0093361 2.0603511 0.36403799
-0.83383876 2.3199425 0.37098458
-0.92169428 2.2966585 0.34762082
-0.98646754 2.2189183 0.31762442
-1.0820016 2.2136681 0.29878172
-0.82068485 2.2845976 0.27447951
-0.94614607 2.3577061 0.26257649
-0.99407077 2.2384408 0.22979662
-0.97437871 1.995954 0.18760337
-0.82653135 2.3020093 0.18656965
-0 0 0
-0.93996483 2.1180005 0.13259505
-1.0014797 2.0531955 0.10860962
-0.8612991 2.4012141 0.10072008
-0.9195084 2.2966607 0.074028447
-0.99005669 2.2339201 0.050245047
-1.0476795 2.150198 0.026092157
-0.82113135 2.2902369 0.0069216001
-0.93910849 2.3481095 -0.017258363
-0.93824077 2.1193011 -0.037299499
-1.0649865 2.1877537 -0.062398214
-0.87975496 2.4577954 -0.088423833
-0.9214533 2.3064167 -0.10752749
-0.99429619 2.2496309 -0.13001959
-1.0264959 2.1099944 -0.14639194
-0.79893589 2.2366831 -0.16766542
-0.89637554 2.2470608 -0.19379833
-0.97646523 2.2102265 -0.21654321
-0.9423455 1.9384824 -0.21407329
-0.73922616 2.0713468 -0.23666838
-0.81055814 2.0345101 -0.25649455
-0.88269055 1.9993837 -0.27664316
-0.77803642 1.6014801 -0.24316618
-0 0 -0
-0.77801168 1.9559948 -0.32508832
-0.92615777 2.1000235 -0.37737277
-0.81679738 1.6819364 -0.32609302
-0.4677417 1.3172395 -0.25561512
-0 0 -0
-0.79029918 1.7949388 -0.39701858
-0.56661284 1.1676937 -0.2763519
-0 0 -0
-0 0 -0
-0.42331204 0.96170545 -0.25395024
-0.51041734 1.0509501 -0.29496333
-0 0 -0
-0 0 -0
-0 0 -0
-0 0 -0
-0.8164283 2.3218656 0.76036954
-0.90415424 2.2875981 0.73058677
-0.99778825 2.2686129 0.70985782
-1.0585766 2.1820877 0.66945153
-0 0 0
-0 0 0
-0.95465541 2.1749721 0.58399183
-1.0709584 2.2142987 0.57936114
-0.83935082 2.3821387 0.57359022
-0.89962208 2.2769449 0.53030872
-0.9713431 2.2153022 0.49982923
-1.0647757 2.2055407 0.481518
-0.79606068 2.2576437 0.45103052
-0 0 0
-0.98409945 2.2474875 0.4129082
-0.99967831 2.0727327 0.36513495
-0.8320809 2.3604546 0.37663943
-0.91557485 2.3225389 0.35068113
-0.97124505 2.2212954 0.31710565
-1.0671071 2.2175817 0.29842058
-0.79872686 2.2670975 0.27178302
-0.91743499 2.3273766 0.25856692
-0.9723472 2.2262502 0.22792836
-0.96901959 2.0162649 0.18895002
-0.82431346 2.3408954 0.18930772
-0.92137754 2.3395321 0.16749299
-0.93773448 2.1484332 0.13413751
-0.98713309 2.0557001 0.10841966
-0.94105238 2.6750941 0.11196379
-0 0 0
-0.97912741 2.2463686 0.050388962
-1.0478729 2.184535 0.026430307
-0.81369758 2.3140996 0.0069784978
-0.88592613 2.2551699 -0.016534999
-0.97431427 2.2377782 -0.039278723
-1.059319 2.2104743 -0.062859669
-0.81268549 2.3150942 -0.083108917
-0.88100713 2.2450659 -0.10441326
-0.98644525 2.2694271 -0.13081144
-1.0725915 2.239574 -0.15492266
-0.7931115 2.2641375 -0.16935547
-0.88693476 2.2636559 -0.19475655
-0.96129757 2.2125225 -0.21618618
-0.93086296 1.9451256 -0.21417212
-0.72518897 2.0720899 -0.23624042
-0.76078033 1.9441787 -0.24451315
-0.88304919 2.0338826 -0.28066158
-0.80239427 1.6777309 -0.2539916
-0.50162381 1.4370745 -0.22053227
-0.73291004 1.876043 -0.31104696
-0.84729308 1.9535805 -0.35011622
-0.70066148 1.4656086 -0.28331262
-0.45318106 1.301505 -0.25201741
-0.4336147 1.1114763 -0.22983426
-0.54599577 1.2609972 -0.27817094
-0.65471458 1.3706055 -0.3234171
-0 0 -0
-0 0 -0
-0.56258684 1.299688 -0.34228075
-0.43537056 0.91060466 -0.25481892
-0 0 -0
-0 0 -0
-0.43631977 1.0087101 -0.31031111
-0 0 -0
-0.83299482 2.4162555 0.78959179
-0.90466982 2.330636 0.74254489
-0.97354549 2.2508693 0.70242333
-1.0351979 2.1676655 0.66306567
-0 0 0
-0 0 0
-0.97592664 2.2610302 0.6054796
-1.0611172 2.2287378 0.58142453
-0.78682607 2.27756 0.54723608
-0.90472555 2.3316238 0.54174054
-0.97246635 2.2553933 0.50751895
-1.052065 2.213805 0.48190385
-0.79439479 2.2977791 0.45806631
-0.88904226 2.2929854 0.43798026
-0.97068053 2.254389 0.41307414
-1.0174392 2.1430659 0.37641811
-0.79852313 2.3103733 0.3678596
-0.90237939 2.3308835 0.35109845
-0.96895516 2.2536299 0.32086682
-1.05518 2.2276764 0.29890209
-0.81756884 2.3668163 0.28313074
-0.89739162 2.31812 0.25692195
-0.96809846 2.2541304 0.23017028
-1.0277911 2.1725974 0.20300554
-0.81514102 2.3609893 0.19052465
-0.88756925 2.2948885 0.16390383
-0.9587909 2.233964 0.13910769
-0.9757815 2.0644274 0.10856213
-0.76953983 2.2311814 0.093184814
-0.90061831 2.3320148 0.074806117
-0.95784235 2.2348742 0.049998347
-1.0109681 2.1411915 0.02583036
-0.78742415 2.2840693 0.0068732374
-0 0 -0
-0.96292615 2.2492292 -0.039375268
-1.0418975 2.2087953 -0.06262894
-0 0 -0
-0.87475926 2.2700064 -0.10532159
-0.97132438 2.2726822 -0.13065307
-1.062234 2.2533352 -0.1554208
-0.76851231 2.237828 -0.16703168
-0.8605004 2.2364941 -0.19196175
-0.94496465 2.2119677 -0.21556138
-0.92145467 1.956202 -0.21476512
-0.69084209 2.0134907 -0.22907187
-0 0 -0
-0.87483746 2.0492992 -0.28204292
-0.91741735 1.9488661 -0.29418102
-0.55111194 1.6105434 -0.24662906
-0 0 -0
-0.79580939 1.8661608 -0.33356765
-0.8103568 1.7221398 -0.33193451
-0.40864384 1.1972018 -0.23133075
-0.411331 1.0737693 -0.22151104
-0.81313092 1.9100122 -0.42023253
-0 0 -0
-0 0 -0
-0.34947947 0.91354829 -0.22651671
-0 0 -0
-0.97184473 2.0651407 -0.57621878
-0 0 -0
-0 0 -0
-0 0 -0
-0 0 -0
-0 0 0
-0.8801105 2.3092701 0.73400331
-0.97137862 2.2842252 0.7109592
-1.0251583 2.1809554 0.66519427
-0 0 0
-0.8912273 2.3402801 0.64111525
-0.94610214 2.2294314 0.59545201
-1.0437049 2.2272744 0.57936114
-0 0 0
-0.87752783 2.3033392 0.53390759
-0.94752479 2.2351701 0.50165045
-1.0434502 2.2308843 0.48421887
-0 0 0
-0.87530625 2.2993174 0.43815559
-0.95759851 2.2621191 0.41340607
-1.0205764 2.184165 0.38252982
-0.76910216 2.2702734 0.36071667
-0.87996787 2.3150864 0.34789905
-0.94661558 2.23944 0.31801352
-1.036458 2.2233119 0.29745755
-0.79825097 2.3576703 0.28144541
-0.89764053 2.3617048 0.26113716
-0.96393102 2.2829585 0.2325056
-1.0295819 2.2113831 0.20603548
-0.79137003 2.3385563 0.18831897
-0 0 0
-0.95942581 2.2738388 0.14122145
-0.96857297 2.0821497 0.1091795
-0.78655487 2.3267343 0.096972167
-0.8721174 2.300112 0.073609702
-0.96002769 2.2784843 0.050841246
-1.0332062 2.2235274 0.026746642
-0.78395832 2.3201213 0.0069671185
-0.86526865 2.2845747 -0.016671482
-0.96384597 2.2901151 -0.039986737
-1.0308505 2.220587 -0.062782757
-0.7733537 2.2926946 -0.081957914
-0.8795507 2.3248558 -0.107614
-0.96625787 2.2997742 -0.13186722
-1.0408275 2.2435138 -0.15429997
-0.7480846 2.2226477 -0.16555288
-0.84535247 2.2380021 -0.19164236
-0.93098873 2.2168057 -0.2154721
-0.91947865 1.9834868 -0.21713711
-0.69400245 2.0638695 -0.23431453
-0.76596105 2.0304995 -0.25416806
-0.81425881 1.9402792 -0.26634595
-0 0 -0
-0.51132655 1.5247551 -0.23300712
-0.51130259 1.3577167 -0.22405149
-0.55812019 1.3313646 -0.23735869
-0.7128427 1.5393536 -0.29585469
-0.37164596 1.111063 -0.2142418
-0 0 -0
-0 0 -0
-0.47602272 1.0287985 -0.24136537
-0 0 -0
-0.43086177 1.1473303 -0.28382272
-0 0 -0
-0 0 -0
-0 0 -0
-0 0 -0
-0 0 -0
-0 0 -0
-0 0 0
-0.84442759 2.2571654 0.71578139
-0.96476018 2.3078818 0.71646631
-1.0364438 2.2405727 0.68142503
-0 0 0
-0.87210196 2.3330004 0.63764304
-0.96829528 2.3212326 0.61837238
-1.0124918 2.1956284 0.56950259
-0 0 0
-0.87296379 2.3343122 0.53983527
-0.95676982 2.2960842 0.51399446
-1.0264601 2.230114 0.48267552
-0 0 0
-0.85773534 2.2954226 0.43640226
-0.98310006 2.3626397 0.43066588
-1.0207711 2.2199981 0.38770124
-0 0 0
-0.86816931 2.3269367 0.34887278
-0.94731379 2.2800012 0.32294193
-1.0165877 2.2160947 0.29565185
-0.76843834 2.3163109 0.27594009
-0.86957252 2.330822 0.25712758
-0.9510498 2.2915888 0.23278585
-1.0056179 2.1950111 0.20393135
-0.82407826 2.4853332 0.19972764
-0.87467355 2.3467457 0.16682833
-0.96496147 2.3267152 0.14413498
-0.95702612 2.0907784 0.10932197
-0.78263152 2.3628187 0.098274074
-0.8614741 2.3147876 0.073908806
-0.94449896 2.2806373 0.050759014
-0.9679842 2.1170607 0.025394037
-0.76907891 2.322989 0.0069614286
-0 0 -0
-0.94366068 2.281203 -0.039729275
-1.0118062 2.2150495 -0.062449489
-0.75362629 2.2803156 -0.081348568
-0.86144358 2.3199065 -0.10713822
-0.94450545 2.2871997 -0.13081144
-1.0291142 2.2543976 -0.1546113
-0.74255478 2.251827 -0.16738376
-0.81774437 2.2057612 -0.18844832
-0.91318899 2.2123492 -0.21449025
-0.96138972 2.1076944 -0.2300843
-0.67448139 2.0473139 -0.2319607
-0 0 -0
-0 0 -0
-0.93165225 2.0438221 -0.30676559
-1.1568274 3.5211384 -0.53699178
-0.48994276 1.3256027 -0.21825179
-0 0 -0
-0.69725698 1.5302517 -0.29327756
-0.32071218 0.97871417 -0.1883385
-0 0 -0
-0.45744911 1.112206 -0.24344918
-0.91589701 2.0117702 -0.47065204
-0 0 -0
-0.34295902 0.93056566 -0.22967529
-0 0 -0
-0.44788533 0.98287135 -0.27268809
-0 0 -0
-0 0 -0
-0 0 -0
-0 0 -0
-0 0 0
-0.85203636 2.3207967 0.7342881
-0.93304539 2.2710752 0.70324939
-1.0162872 2.2328522 0.67716777
-0 0 0
-0 0 0
-0.94077355 2.2947841 0.60977721
-1.0074463 2.2204137 0.57431722
-0.7498942 2.3074231 0.55100095
-0.87377644 2.3809118 0.54936171
-0.94860131 2.3164117 0.51723224
-1.022067 2.2569284 0.48711258
-0 0 0
-0 0 0
-0.93536538 2.2873912 0.41589546
-0.99980265 2.2100222 0.38488045
-0.77145565 2.3726406 0.37544891
-0.83991623 2.2940934 0.34316948
-0.95017314 2.32708 0.32877824
-1.0029708 2.2222908 0.29565185
-0.7695657 2.3682334 0.28155777
-0.83029109 2.2679265 0.24962245
-0.93396312 2.2900062 0.23203854
-0.9929496 2.2029572 0.20409968
-0.76908082 2.3680069 0.18991619
-0.84826207 2.3192706 0.16450202
-0.95933324 2.3538566 0.14544894
-0.94869113 2.1066298 0.10984436
-0.74776721 2.3048465 0.095670268
-0.8547979 2.3406856 0.074566834
-0.94405472 2.3197272 0.051499121
-0.9652313 2.1457584 0.025666742
-0.74093002 2.2848589 0.006833409
-0.83511215 2.2893844 -0.016630538
-0.93341094 2.2962129 -0.039890189
-0.94820416 2.109973 -0.059321888
-0.74577618 2.3039138 -0.082025625
-0.85334903 2.3420451 -0.10791677
-0.93420851 2.3022053 -0.13133933
-1.0181242 2.2670429 -0.15504718
-0.72535157 2.2458992 -0.16660917
-0.81305444 2.2350929 -0.19052444
-0.90259194 2.2252946 -0.21520431
-0.94477242 2.1053827 -0.22919481
-0.65915883 2.0428977 -0.23099776
-0.72131681 1.9856017 -0.24742126
-0.75386775 1.8600205 -0.25403953
-0.89274156 1.9907364 -0.29796994
-1.1033723 3.4292495 -0.52193594
-0 0 -0
-0.54692441 1.3509184 -0.23963009
-0.8309055 1.8536271 -0.35426965
-0.31470087 0.9806636 -0.1883385
-0.39952058 1.1033175 -0.22605099
-0.41756359 1.0332077 -0.22559227
-0 0 -0
-0.27600408 0.86292368 -0.20091923
-0.39024749 1.0792384 -0.26577359
-0.36557555 0.90484262 -0.23586127
-0 0 -0
-0 0 -0
-0 0 -0
-0 0 -0
-0.33287615 0.74245846 -0.23885758
-0 0 0
-0 0 0
-0.93096828 2.3061755 0.712336
-1.0262038 2.2918329 0.6931324
-0 0 0
-0.83520561 2.3207386 0.63144273
-0.94953376 2.3572605 0.62481868
-0.9981671 2.2363307 0.57683915
-0 0 0
-0.84226596 2.3393316 0.53856504
-0.93583244 2.3258228 0.51804167
-1.0137894 2.2757053 0.48981339
-0.74730778 2.3465462 0.46399117
-0.8308354 2.3094809 0.43710357
-0.92351848 2.2985778 0.41689122
-0.99827003 2.243185 0.38958174
-0.73858333 2.3198516 0.36637148
-0 0 0
-0.93329227 2.3264246 0.32787037
-0.98609376 2.2211444 0.29468882
-0.71976972 2.2621248 0.26841244
-0.85771567 2.3881249 0.26226807
-0.9217459 2.3003147 0.2325056
-0.98022151 2.21083 0.20426801
-0.74124068 2.3308718 0.18656965
-0.83873296 2.33758 0.16543254
-0.925574 2.3115036 0.14247827
-0.94302928 2.1288502 0.11069918
-0.73361087 2.3093913 0.095670268
-0.85019588 2.3731754 0.075434238
-0.93351513 2.3347595 0.051704705
-0.98522502 2.2266235 0.026561204
-0.73567247 2.3170025 0.0069159106
-0.82205981 2.2972898 -0.01665101
-0.9270916 2.3213968 -0.040228102
-0.98131472 2.2199848 -0.062244404
-0.72679436 2.2932029 -0.081483975
-0 0 -0
-0.91784602 2.3023283 -0.13102259
-1.0033883 2.2714214 -0.15492266
-0.72088033 2.2797916 -0.16879211
-0.78927469 2.2118747 -0.18812892
-0.89334518 2.241894 -0.21627544
-0.91656685 2.0765462 -0.22543915
-0.57922488 1.833586 -0.20692435
-0.74612606 2.0938404 -0.26033324
-0.64958978 1.6314197 -0.22226891
-0.88170946 1.9988962 -0.29837587
-1.072498 3.4048052 -0.51720411
-0 0 -0
-0 0 -0
-0.93437564 2.1191957 -0.40392238
-0.31752235 1.0107301 -0.19373502
-0.37729642 1.0622584 -0.21716027
-0.4578712 1.1532627 -0.25118718
-0.52482659 1.1913382 -0.2771849
-0.27741334 0.88602966 -0.2058989
-0 0 -0
-0 0 -0
-0.43148711 0.97853482 -0.26999548
-0 0 -0
-0 0 -0
-0 0 -0
-0 0 -0
-0.6751222 2.1724246 0.70281047
-0.84903699 2.4033871 0.75706553
-0.9121933 2.3002269 0.70875645
-0.98686755 2.2407448 0.6758374
-0 0 0
-0.80482781 2.2801437 0.61904204
-0 0 0
-0.97894877 2.2299356 0.57362944
-0 0 0
-0.79795659 2.2596719 0.51908863
