# .PCD v0.7 - Point Cloud Data file format
VERSION 0.7
FIELDS x y z
SIZE 4 4 4
TYPE F F F
COUNT 1 1 1
WIDTH 1509
HEIGHT 1
VIEWPOINT 0 0 0 1 0 0 0
POINTS 1509
DATA ascii
-0.54921114 2.3575311 0.47592345
-0 0 0
-0.36140352 2.3111074 0.41658971
-0.45366013 2.3358922 0.4004612
-0.55592543 2.3905063 0.38942504
-0.316457 2.6690421 0.40446699
-0.37408707 2.4001741 0.34122205
-0.45869491 2.3684418 0.31554928
-0.5472396 2.3626873 0.2940869
-0.29346019 2.4787841 0.2822319
-0.36943612 2.3706052 0.2479775
-0.46585876 2.4106157 0.2303571
-0.54185104 2.3446343 0.20325804
-0.30426922 2.5735476 0.19767408
-0.37397578 2.4047005 0.16210927
-0.45444158 2.3546247 0.13722245
-0.54328585 2.3544014 0.1148783
-0.29252145 2.4808674 0.098629132
-0.36917222 2.3814769 0.07211417
-0.45672968 2.3729346 0.049689967
-0.54512405 2.3668923 0.026495757
-0.2873722 2.4401264 0.0069898772
-0.36799717 2.3796582 -0.016432637
-0.4531742 2.359565 -0.038667254
-0.54321402 2.3625579 -0.062167495
-0.27382877 2.3356547 -0.079655923
-0.36572364 2.3707092 -0.10385097
-0.45285106 2.3656836 -0.12732735
-0.55740023 2.4269722 -0.15535854
-0.28123009 2.4126198 -0.171468
-0.35972077 2.3399274 -0.18964608
-0.43427581 2.2705784 -0.20717098
-0.49674776 2.1658311 -0.22069512
-0.24151257 2.0769336 -0.22500615
-0.35093498 2.2894285 -0.27126768
-0.42378357 2.2188687 -0.28593579
-0.36817652 1.6070597 -0.22516891
-0.14381075 1.2456332 -0.18167385
-0.20917082 1.3696952 -0.21397834
-0.19656575 1.0313383 -0.1726245
-0.23984815 1.0476731 -0.18744336
-0.11262912 0.98216957 -0.18078336
-0.15354364 1.0086213 -0.1965414
-0.16992563 0.89453417 -0.18432297
-0.19856928 0.86861855 -0.1897186
-0.10213207 0.89824855 -0.20048621
-0.13521649 0.89094824 -0.20869318
-0.16824628 0.88619983 -0.21800724
-0.19519712 0.85249758 -0.22079413
-0 0 -0
-0.12635936 0.83682114 -0.22998424
-0.15451725 0.81504959 -0.23422782
-0.1739227 0.75946254 -0.2287174
-0 0 0
-0.38288477 2.5442638 0.76418346
-0.45027685 2.3754799 0.69251066
-0.51384836 2.2487757 0.636724
-0 0 0
-0.36683547 2.4419608 0.63218677
-0.44006675 2.3311758 0.58327556
-0.52954346 2.3301942 0.56285381
-0.27565086 2.4566362 0.56140971
-0.38292551 2.5466487 0.55782974
-0.44470704 2.3607292 0.49638912
-0.52888286 2.3350184 0.47071472
-0.3187508 2.8349435 0.53749657
-0.35686094 2.3775392 0.42816165
-0.44186768 2.3522005 0.40278462
-0.53885126 2.383276 0.38770124
-0 0 0
-0.36198977 2.4200532 0.34372592
-0.44397125 2.3702374 0.31541961
-0.53076953 2.3572843 0.2930035
-0.27137762 2.4193146 0.27526599
-0.36459413 2.4377556 0.25476295
-0.45416823 2.4300663 0.23194513
-0.52658075 2.3440259 0.20292136
-0.2831448 2.5278025 0.19402331
-0.36348486 2.4355688 0.16403678
-0.44364879 2.3769972 0.13836503
-0.52926648 2.3596396 0.11497328
-0.27330062 2.4468663 0.09720888
-0.35587633 2.3925955 0.072383367
-0.44344157 2.3825727 0.049833879
-0.53102773 2.3721442 0.026517574
-0.26618606 2.3861892 0.0068305638
-0.35118759 2.367034 -0.016330274
-0.43868765 2.3623013 -0.038667254
-0.52805334 2.3629196 -0.062090583
-0.25706613 2.3154376 -0.078911155
-0.35424185 2.3936632 -0.10475929
-0.4366914 2.3595803 -0.12685224
-0.55597907 2.4907401 -0.15921915
-0.26839066 2.4321468 -0.17273553
-0.3497189 2.371675 -0.19204162
-0.42649305 2.3065 -0.21020579
-0.4910267 2.2028327 -0.22415431
-0.2487797 2.2602222 -0.24469285
-0.31275591 2.1274364 -0.25184157
-0.39557016 2.1424041 -0.27576414
-0.41128001 1.8472003 -0.25845709
-0.17324227 1.5859081 -0.23114306
-0.15866259 1.0834634 -0.16910698
-0.20024619 1.0868684 -0.18171
-0.21886688 0.98373502 -0.17576034
-0 0 -0
-0.14394827 0.98622489 -0.19200148
-0 0 -0
-0.19387214 0.87268496 -0.19034335
-0.097244643 0.9046824 -0.20178525
-0.12946664 0.88983297 -0.20824195
-0.16227919 0.88434732 -0.21730247
-0.19248983 0.86503637 -0.22373152
-0 0 -0
-0.12149879 0.83949083 -0.23050871
-0.14483017 0.79042375 -0.22689122
-0.17634666 0.79235959 -0.23829423
-0 0 0
-0.34236223 2.3738847 0.71236473
-0.42962936 2.3451018 0.68287331
-0.51968271 2.3403432 0.6617353
-0 0 0
-0.37310201 2.5918322 0.67038083
-0.42192057 2.312815 0.57802296
-0.51103824 2.3143902 0.55826849
-0.26303899 2.4815547 0.56672484
-0.38081315 2.6427827 0.57836467
-0.42793351 2.3508883 0.49375844
-0.50231451 2.282639 0.45952564
-0.29802811 2.8055751 0.53157169
-0.39272279 2.7304974 0.49128127
-0.42073426 2.317997 0.39647818
-0.51319927 2.3363757 0.3795523
-0.2886897 2.7199249 0.41160986
-0.35809144 2.4986892 0.35457602
-0.42835996 2.3670626 0.31464145
-0.5173561 2.3653457 0.29360539
-0.2547479 2.4041359 0.27335596
-0.40070531 2.7963877 0.29198012
-0.43199608 2.3926361 0.22811519
-0.52111059 2.3881016 0.20645629
-0.2597608 2.4551246 0.18831897
-0.3522054 2.4634347 0.16576488
-0.44322738 2.4582765 0.14293529
-0.51669174 2.3716266 0.11540069
-0.25461301 2.4137173 0.095828071
-0.34809729 2.4432225 0.073848985
-0.42739883 2.3773766 0.049669411
-0.51625007 2.3743806 0.026506662
-0.25258729 2.3977227 0.0068590124
-0.34791183 2.4483469 -0.016876208
-0.42577329 2.3738062 -0.038812079
-0.51375681 2.3670921 -0.062116221
-0.25139716 2.3984778 -0.081687093
-0.34263217 2.4175534 -0.10571086
-0.42220506 2.3622153 -0.12685224
-0.53624517 2.4736211 -0.15791151
-0.2513957 2.4139049 -0.17132716
-0.33697167 2.3866074 -0.19307968
-0.41706002 2.3355472 -0.21261582
-0.45202598 2.0881224 -0.21219546
-0.25021091 2.4090581 -0.26063478
-0.3026033 2.1499691 -0.25428438
-0.39338815 2.2063217 -0.2836754
-0.32392889 1.4981513 -0.20933673
-0.11908092 1.1557499 -0.16833867
-0.14913049 1.0638635 -0.16590188
-0.18942553 1.0647608 -0.17781623
-0.21573928 0.99854028 -0.17816567
-0 0 -0
-0 0 -0
-0.15790904 0.89076161 -0.18313251
-0.19119506 0.88628721 -0.19305065
-0.091691785 0.90526205 -0.20178525
-0.12427299 0.89254045 -0.20869318
-0.15481508 0.87384111 -0.21448341
-0.18533534 0.85767186 -0.22152847
-0.08663594 0.86346245 -0.22701509
-0.11608076 0.83830875 -0.22998424
-0.14768882 0.83488995 -0.23939063
-0.16621141 0.76904249 -0.23097077
-0 0 0
-0 0 0
-0.40970674 2.3164544 0.6737867
-0.50815737 2.3566799 0.66546041
-0 0 0
-0.40767172 2.9606786 0.76512206
-0.40805829 2.3172731 0.57850045
-0.5060094 2.3603103 0.56858552
-0.24306248 2.4355752 0.55587316
-0.3329621 2.4156108 0.52819175
-0.40858611 2.3254981 0.48788998
-0.5087986 2.3816345 0.47881719
-0.24324943 2.4318643 0.4604733
-0.34188065 2.4851236 0.44674689
-0.40395102 2.3059647 0.39398876
-0.50956422 2.389709 0.38770124
-0.23905286 2.3920174 0.36175838
-0.34113947 2.4890661 0.35290679
-0.41280439 2.3637857 0.31386325
-0.50386369 2.3733308 0.29420727
-0.24186577 2.4244401 0.2754907
-0.34491542 2.5169432 0.26257649
-0.41200948 2.3648353 0.22521937
-0.51264149 2.4204988 0.20898123
-0.24528451 2.4626255 0.18877532
-0.35303205 2.5822034 0.17360781
-0.41547269 2.388164 0.1387078
-0.49985698 2.3640025 0.1148783
-0.23851453 2.4023077 0.095315196
-0.34618595 2.5413818 0.076750301
-0.40989882 2.3632081 0.049319915
-0.50167143 2.3775036 0.026506662
-0.23609452 2.3813152 0.006807805
-0.34486252 2.5386233 -0.01748356
-0.4111999 2.376374 -0.038812079
-0.49922293 2.3701999 -0.062116221
-0.23785265 2.4119105 -0.082093336
-0.32269531 2.3819895 -0.10406724
-0.41330177 2.3972363 -0.12859429
-0.5027709 2.3899403 -0.15236966
-0.23667675 2.4163947 -0.17139758
-0.32965291 2.4429619 -0.19747147
-0.40001643 2.3223574 -0.21118766
-0.44779682 2.1317585 -0.21634646
-0.22778963 2.3323734 -0.25218233
-0 0 -0
-0.38640073 2.2468255 -0.28857285
-0.31818891 1.5165955 -0.21163714
-0.10950701 1.1308473 -0.16461055
-0.14535487 1.0853289 -0.16910698
-0.18138687 1.0571501 -0.17635605
-0.20273587 0.96706337 -0.17232418
-0 0 -0
-0.12092445 0.90615839 -0.17611168
-0.15062372 0.88108665 -0.18095
-0.18555292 0.88648635 -0.19284239
-0.086412735 0.90872335 -0.20243478
-0.11853728 0.89135474 -0.20824195
-0.15043251 0.88052332 -0.21589294
-0.18564047 0.88536328 -0.22838239
-0 0 -0
-0.1130852 0.85526878 -0.23444231
-0.13641411 0.7997309 -0.22906503
-0.16542828 0.78882951 -0.2366042
-0 0 0
-0.3480058 2.6421194 0.79151642
-0.39289963 2.3037624 0.66938108
-0.4907265 2.3456006 0.66146916
-0 0 0
-0.33849055 2.5750847 0.66492462
-0.3941572 2.3216481 0.578978
-0.48438236 2.3290637 0.56033182
-0 0 0
-0.33904535 2.5765212 0.56291056
-0.39463654 2.3298926 0.48829472
-0.49616662 2.3943195 0.48074636
-0 0 0
-0 0 0
-0.39307815 2.327847 0.39730793
-0.47668824 2.3047776 0.37344059
-0.22529417 2.4032845 0.36324647
-0.33587897 2.5677016 0.36375687
-0.39615309 2.3535626 0.31217721
-0.4898923 2.3792949 0.29456842
-0.2286514 2.4436867 0.27751306
-0.33294824 2.5456424 0.26535237
-0.38710484 2.3054602 0.21933433
-0.49236712 2.3972447 0.20670879
-0.23128234 2.4759974 0.18968803
-0.37371358 2.8643219 0.19241753
-0.39404312 2.3502986 0.13636553
-0.48474041 2.3640895 0.11473583
-0.22691882 2.4375532 0.096656553
-0.3138375 2.4146001 0.07286194
-0.39522588 2.3646924 0.049299356
-0.48907828 2.3903334 0.026615744
-0.22342218 2.4036288 0.0068675471
-0.31141445 2.4028478 -0.016534999
-0.39381564 2.3620861 -0.038538527
-0.48667055 2.383013 -0.06237258
-0.2215773 2.3974016 -0.081551686
-0.3313776 2.5642548 -0.11193932
-0.39089456 2.3534269 -0.12611321
-0.48350927 2.3704879 -0.1509375
-0.22211902 2.4207814 -0.17160884
-0.31694725 2.4627345 -0.19890881
-0.38527006 2.3218203 -0.21091987
-0.45734715 2.245626 -0.22761348
-0.22334632 2.4416509 -0.26384458
-0.25294903 1.9722545 -0.23288076
-0.36936432 2.2295792 -0.28606135
-0.30690232 1.50881 -0.21028394
-0.11257266 1.241888 -0.18067014
-0.14207238 1.1126692 -0.17322783
-0.17634501 1.0670052 -0.17781623
-0.20621632 1.0146279 -0.18057099
-0.089019865 0.9905163 -0.18186268
-0 0 -0
-0.1468069 0.89166528 -0.18293411
-0.17835952 0.87898129 -0.19096813
-0.079279102 0.89173245 -0.19853763
-0.1125758 0.88819933 -0.2073395
-0.1467628 0.89198011 -0.21847709
-0.17750046 0.87318367 -0.22495542
-0 0 -0
-0.10723214 0.85115933 -0.23313111
-0.13322043 0.81099898 -0.23205401
-0.15618804 0.76820344 -0.23012576
-0 0 0
-0 0 0
-0.37439412 2.279568 0.66167122
-0.47019368 2.3183367 0.65295476
-0.22056524 2.5236404 0.67636895
-0.32051727 2.5598106 0.66046029
-0.38178432 2.3355231 0.58184302
-0.46892834 2.3262672 0.55895627
-0 0 0
-0.3171517 2.5300658 0.55232555
-0.38238221 2.3448353 0.4909254
-0.47161257 2.3482568 0.47090769
-0.21373159 2.4385819 0.46121389
-0.2981613 2.3836269 0.42781097
-0.379262 2.3331354 0.39780584
-0.48214141 2.4054661 0.38926834
-0.21045738 2.4036365 0.36309764
-0.32256585 2.5893681 0.36653897
-0.38408318 2.3706312 0.31412265
-0.4764494 2.3880973 0.29529071
-0.21114446 2.416337 0.27425483
-0.31363383 2.5180252 0.26226807
-0.37295151 2.3077919 0.21933433
-0.47745416 2.3992436 0.20662463
-0.21435271 2.4575036 0.18816687
-0.31652021 2.5477242 0.17101565
-0.38120487 2.3625283 0.13693681
-0.4688631 2.3601613 0.1144034
-0.21602415 2.4856868 0.098510787
-0.29864764 2.4135044 0.072772205
-0.38102651 2.3690472 0.049340475
-0.4730413 2.3864236 0.026539387
-0.20875604 2.4059508 0.0068703927
-0.29446113 2.3868492 -0.016412165
-0.37915635 2.3634706 -0.038522433
-0.47009936 2.3761477 -0.062116221
-0.20505965 2.3778055 -0.080840766
-0.30173373 2.4531984 -0.10700846
-0.3772347 2.3607116 -0.12637715
-0.47050285 2.3812432 -0.15143566
-0.20241348 2.3654473 -0.16759501
-0.29710466 2.4260457 -0.19579461
-0.37054533 2.3211899 -0.2106521
-0.4400928 2.2308166 -0.22583447
-0.20658608 2.4221716 -0.26159772
-0.24757959 2.0289798 -0.2393949
-0.35926804 2.2543371 -0.28894958
-0.32502753 1.649677 -0.22963439
-0.099119879 1.1735245 -0.1706329
-0.13285936 1.0938984 -0.17017534
-0.16638637 1.0466278 -0.17424691
-0.20017709 1.0168408 -0.18074282
-0.08228419 0.98320174 -0.1804236
-0.10920572 0.90269989 -0.17516588
-0.14163956 0.89448535 -0.18333091
-0.17484902 0.88965631 -0.19305065
-0.074852362 0.90485054 -0.20135224
-0.10770662 0.89370948 -0.20846756
-0.13855237 0.87558264 -0.21424849
-0.17213936 0.87425631 -0.22495542
-0 0 -0
-0.099827372 0.83359635 -0.22814856
-0 0 -0
-0.15517947 0.78797585 -0.23575918
-0.19923812 2.472316 0.76627302
-0.28979006 2.4301171 0.72688544
-0.36504924 2.3112588 0.67020708
-0.45577395 2.3202322 0.65268862
-0.19310962 2.3776095 0.6369012
-0.30469009 2.5607672 0.66021234
-0.36654198 2.3320663 0.58041054
-0.46266457 2.3701799 0.56881481
-0.19882199 2.4474123 0.55764484
-0.30370247 2.5494328 0.55613613
-0.3717795 2.3713248 0.49598444
-0.45850617 2.3578484 0.47225809
-0.19629112 2.4094839 0.45547417
-0.28585404 2.4049642 0.43131763
-0.36402553 2.3295727 0.39681005
-0.46191624 2.3802619 0.38472375
-0.19506334 2.3969977 0.36190718
-0.29491693 2.4919734 0.35248947
-0.37059805 2.3798013 0.31503052
-0.46046957 2.3841529 0.29444805
-0.19470564 2.3977787 0.27200773
-0.29011244 2.4517434 0.25517419
-0.36779958 2.368083 0.22484572
-0.4551844 2.3629894 0.20325804
-0.20023625 2.4706984 0.18907955
-0.29129279 2.4683635 0.16556548
-0.36777237 2.3717289 0.1373367
-0.45607013 2.3718219 0.11483081
-0.19642638 2.4331825 0.09638039
-0.28616622 2.4351459 0.073370412
-0.36602503 2.3683763 0.049278799
-0.45970839 2.3961554 0.026615744
-0.19527471 2.4231348 0.0069159106
-0.28330052 2.4184067 -0.01661689
-0.3643426 2.3637762 -0.038490251
-0.45419478 2.3721147 -0.061936766
-0.19261937 2.4059176 -0.081754804
-0.27555147 2.3597407 -0.10285614
-0.36456081 2.3748264 -0.12701061
-0.46563047 2.4350607 -0.15467359
-0.18923767 2.3835495 -0.16879211
-0.27047342 2.3268287 -0.18764982
-0.35810751 2.3352339 -0.21172322
-0.42527685 2.2276101 -0.22524147
-0 0 -0
-0.23055537 1.990996 -0.23474194
-0.33867347 2.2123694 -0.28329867
-0.41547394 2.179153 -0.30297667
-0.12250504 1.564823 -0.22741494
-0.12320334 1.0691667 -0.16620713
-0.16532308 1.0827451 -0.1800876
-0.18748194 0.9841795 -0.17472951
-0.076097786 0.98172665 -0.18006384
-0 0 -0
-0 0 -0
-0.16774237 0.8820647 -0.19117637
-0.068404719 0.89361161 -0.19875415
-0.10233153 0.89532149 -0.20869318
-0.13478358 0.88698709 -0.21683262
-0.16949384 0.88958275 -0.22862716
-0 0 -0
-0.097323343 0.85720539 -0.23444231
-0.1251345 0.82494211 -0.23558646
-0.14764734 0.77477497 -0.23153411
-0.18441904 2.478256 0.76774883
-0.28122604 2.4880497 0.74368382
-0.364555 2.4037504 0.69636554
-0.43882877 2.3087802 0.6486975
-0.18133709 2.4163241 0.64696157
-0.28669211 2.5423727 0.65500402
-0.37265515 2.4696608 0.61407477
-0.44197169 2.3404546 0.56101966
-0.18029745 2.4019094 0.54701459
-0.2916722 2.5832965 0.56312221
-0.36436382 2.4210131 0.50590003
-0.44112787 2.3451886 0.46917143
-0.18305252 2.431222 0.45936239
-0.27472869 2.4389575 0.43710357
-0.35806194 2.3873503 0.40626979
-0.44712034 2.3820808 0.38456705
-0.18265085 2.4287179 0.36652029
-0.27035171 2.4110708 0.34080473
-0.35320428 2.3633978 0.31256631
-0.43981713 2.3547301 0.29047555
-0.18088162 2.4108188 0.27335596
-0.27439842 2.4475462 0.25455731
-0.35781211 2.4008226 0.22774154
-0.44213659 2.3735747 0.20393135
-0.1861148 2.485801 0.19014435
-0.27580914 2.4671295 0.16536608
-0.36085302 2.4252908 0.14030738
-0.44479495 2.3922522 0.11568563
-0.18335024 2.4592533 0.097366691
-0.27354097 2.4577177 0.073998541
-0.35295242 2.3804674 0.049484383
-0.44025543 2.3733685 0.026332133
-0.17669249 2.3744252 0.006773666
-0.26867661 2.422087 -0.016630538
-0.34836939 2.356076 -0.038329341
-0.43963119 2.3748567 -0.061936766
-0.18205108 2.4638667 -0.083684415
-0.25546819 2.3107433 -0.10065024
-0.35129145 2.3859103 -0.12748572
-0.44342309 2.3986146 -0.15218286
-0.17985375 2.4562953 -0.17386222
-0.26349536 2.39483 -0.19299982
-0.34725031 2.361037 -0.21386544
-0.40997505 2.2213707 -0.22435199
-0 0 -0
-0.21768534 1.9864494 -0.234044
-0.32970348 2.245816 -0.2873171
-0.41466618 2.2498686 -0.31244892
-0.075742014 1.0502775 -0.15256588
-0.12478095 1.1445696 -0.17780653
-0.15238652 1.0407801 -0.172949
-0.1892895 1.0279404 -0.18228909
-0 0 -0
-0 0 -0
-0.13079359 0.89712608 -0.18352933
-0.16179648 0.88019145 -0.19055161
-0.064154066 0.9115442 -0.20265129
-0.09673132 0.89496392 -0.20846756
-0.12751693 0.8752932 -0.21377864
-0.16438353 0.8925131 -0.22911674
-0 0 -0
-0.093194544 0.86834079 -0.23732695
-0.12062435 0.82950383 -0.23667337
-0.1416738 0.76906091 -0.22956242
-0.16504572 2.4183345 0.74885768
-0.25801238 2.4153798 0.72147578
-0.39060196 2.6865878 0.77759445
-0.42935699 2.3370275 0.65588158
-0.16670656 2.4202828 0.64773548
-0.276014 2.5903225 0.66690868
-0.40308487 2.7871356 0.69238603
-0.42795211 2.3450375 0.5614782
-0.16783515 2.4360478 0.55454439
-0.26264727 2.4616168 0.53623635
-0.37061182 2.5695646 0.53645641
-0.42795801 2.3546088 0.47052184
-0.16819915 2.4332795 0.45954752
-0.25882062 2.4317868 0.43552563
-0.37356699 2.5993645 0.44195116
-0.4294996 2.3682587 0.38190293
-0.1655657 2.3982246 0.36175838
-0.25596982 2.4166236 0.34136117
-0.3447392 2.407727 0.31814322
-0.42606559 2.3612924 0.29095703
-0.16540307 2.4019701 0.27223244
-0.25769931 2.433357 0.25291234
-0.34814009 2.4384558 0.23110442
-0.4226234 2.3487833 0.20157474
-0.17031197 2.4789381 0.1895359
-0.261085 2.4727445 0.16563194
-0.34413368 2.4146104 0.13956472
-0.42745954 2.3801892 0.11497328
-0.17009783 2.4872482 0.098431878
-0.25135165 2.3917525 0.071964622
-0.34452435 2.4261422 0.050388962
-0.43168002 2.4094903 0.026703009
-0.16620532 2.4353254 0.0069443597
-0.25016472 2.3888812 -0.016391693
-0.3399339 2.4007392 -0.039021265
-0.42698631 2.3883343 -0.062218763
-0.1663219 2.4559629 -0.083379738
-0.25186124 2.4136217 -0.10506206
-0.33720276 2.3919761 -0.12769687
-0.93036401 5.2113113 -0.33026922
-0.1649123 2.4593432 -0.17400306
-0.25054589 2.4132566 -0.19435728
-0.44858274 3.1856794 -0.28830776
-0.40262276 2.2591121 -0.22790997
-0.16905494 2.531713 -0.27304596
-0 0 -0
-0.26551959 1.8892102 -0.24148199
-0.41196415 2.314801 -0.32110927
-0.093328446 1.4151179 -0.20547643
-0.12644835 1.2298605 -0.19093215
-0.1516128 1.0817606 -0.17960086
-0 0 -0
-0 0 -0
-0.098169744 0.95926034 -0.18575905
-0.12379656 0.88723379 -0.18134682
-0.15741821 0.88694584 -0.19180113
-0.056745376 0.88366675 -0.19637257
-0.090250678 0.88584858 -0.20621142
-0.12268072 0.87990993 -0.21471833
-0.16009246 0.90018713 -0.23083021
-0 0 -0
-0.087379314 0.86409575 -0.23601575
-0.11632819 0.83594745 -0.23830372
-0.1388007 0.78030723 -0.2326608
-0 0 0
-0 0 0
-0.3453629 2.4823124 0.71784306
-0.40810639 2.3007033 0.64497238
-0.15094571 2.4067962 0.64386606
-0 0 0
-0.33273771 2.4047899 0.59688449
-0.41068447 2.3313229 0.55758065
-0.15257938 2.4321654 0.55343705
-0.24802674 2.468044 0.53729481
-0.355106 2.5737307 0.53686112
-0.41265464 2.3523581 0.46955723
-0.15406843 2.4470158 0.4619545
-0.24104717 2.4049206 0.43044096
-0.33733296 2.4540889 0.41689122
-0.40746808 2.3280439 0.37500772
-0.15413609 2.4515018 0.36964533
-0.23936813 2.4004114 0.33885729
-0.33507067 2.4471278 0.32307166
-0.41344208 2.3746204 0.29228124
-0.15414383 2.4584763 0.27852422
-0.25026366 2.5101168 0.26072592
-0.33505681 2.4543567 0.2324122
-0.40718094 2.3454416 0.20106974
-0.15404023 2.4630189 0.18824291
-0.24501951 2.4653637 0.16503374
-0.33510771 2.459213 0.14202124
-0.41318801 2.3847358 0.11506826
-0.15048915 2.4184346 0.095670268
-0.23509754 2.3773346 0.071486056
-0.32573119 2.3994801 0.049792763
-0.41211921 2.3845043 0.026397582
-0.15460548 2.4901953 0.0070979833
-0.24314953 2.4679935 -0.016923977
-0.32600147 2.4087248 -0.039117809
-0.40994528 2.3771176 -0.061859857
-0.14952983 2.4290063 -0.08243186
-0.23529015 2.3972244 -0.1042835
-0.33251908 2.468225 -0.13165607
-0.41141438 2.389122 -0.15124884
-0.15964116 2.6216078 -0.18541078
-0.23602426 2.4177248 -0.19459684
-0.43673122 3.2456243 -0.29348478
-0.3880792 2.2576172 -0.22751464
-0.15411901 2.5426271 -0.27411589
-0 0 -0
-0.26593873 1.9802803 -0.25290939
-0.3970826 2.3133793 -0.32056803
-0 0 -0
-0.10169677 1.0525628 -0.16330728
-0.14196034 1.0601761 -0.17586935
-0.17066668 0.99523139 -0.17610398
-0 0 -0
-0.090120591 0.93736356 -0.18140829
-0.12042205 0.90352118 -0.18452138
-0.15246807 0.89078718 -0.19242589
-0 0 -0
-0.08490631 0.88735545 -0.20643704
-0.11676613 0.87679213 -0.21377864
-0.15063219 0.87821752 -0.22495542
-0 0 -0
-0.080890141 0.85212672 -0.23260662
-0.1115771 0.83950746 -0.2391189
-0.13092765 0.76317602 -0.22730905
-0.13423619 2.4001446 0.74265897
-0 0 0
-0 0 0
-0.39300668 2.2974634 0.64337593
-0.13666606 2.4163587 0.64618772
-0.23912026 2.5395031 0.65301991
-0.3238267 2.4510713 0.60786718
-0.39832774 2.3453143 0.56033182
-0.14101312 2.4924462 0.56694633
-0.22884116 2.4267068 0.52798003
-0.33061031 2.5098381 0.52310061
-0.39543182 2.3383987 0.46627766
-0.13671018 2.4067078 0.45417809
-0.22564112 2.399493 0.42921364
-0.31713694 2.4170027 0.41025284
-0.39334008 2.3314741 0.37516439
-0.13808315 2.4346304 0.36696672
-0.2235284 2.3900032 0.33718801
-0.31889272 2.4402888 0.32190439
-0.39426413 2.3496993 0.2889106
-0.13591476 2.4038191 0.27223244
-0.22726323 2.4303942 0.25229552
-0.32282037 2.4780867 0.2344673
-0.3866986 2.3115323 0.19795564
-0.13864388 2.45894 0.18786262
-0.23109131 2.4797361 0.1658978
-0.31949708 2.457263 0.14179273
-0.39460012 2.3635805 0.1139285
-0.14331043 2.5559909 0.10107514
-0.22594953 2.4374542 0.073250771
-0.32165989 2.4837286 0.051499121
-0.39485243 2.3712065 0.026223052
-0.14066319 2.5150595 0.0071662599
-0.2243242 2.4296093 -0.01665101
-0.31403208 2.4324956 -0.039471816
-0.39043656 2.3500035 -0.061090779
-0.13843769 2.498733 -0.084767714
-0.22112556 2.4045923 -0.10454302
-0.31240523 2.4315908 -0.12959729
-0.39429718 2.3768322 -0.15031482
-0.14949499 2.7311049 -0.19308636
-0.21818982 2.3863697 -0.19196175
-0.41883647 3.2640495 -0.29491293
-0.37275636 2.2511206 -0.22662514
-0.13208111 2.4253829 -0.26138374
-0 0 -0
-0.21131776 1.6502502 -0.21059036
-0.3778702 2.2854686 -0.31637314
-0.055442922 1.0337052 -0.14998488
-0.095681481 1.0580884 -0.1640704
-0.13432793 1.052218 -0.17440917
-0.16600172 1.0050074 -0.17765024
-0.052449454 0.99213928 -0.18168278
-0 0 -0
-0.11438179 0.90035385 -0.18372774
-0.14493127 0.87916034 -0.1897186
-0 0 -0
-0.080154732 0.89562243 -0.20824195
-0.11224084 0.88424206 -0.21542309
-0.14381833 0.87051576 -0.22275238
-0 0 -0
-0.076854251 0.86606419 -0.23627798
-0.10303767 0.81344342 -0.23151056
-0 0 -0
-0.11960166 2.4028318 0.74324936
-0.2153631 2.4407275 0.72773957
-0.30956078 2.4443998 0.70572758
-0.37592497 2.2817602 0.63832045
-0.12300429 2.44031 0.65237874
-0.20859179 2.3710773 0.60936952
-0.3227284 2.5638118 0.63532382
-0.37796026 2.3112116 0.55161965
-0.12326169 2.4445679 0.55587316
-0.21386106 2.4270916 0.52776831
-0.31910595 2.5429137 0.52957618
-0.37965727 2.3320649 0.46454147
-0.12164205 2.4016125 0.45306718
-0.21444631 2.4410422 0.43640226
-0.3063361 2.451194 0.41572949
-0.37981865 2.3387182 0.37594798
-0.12344155 2.4413574 0.3678596
-0.21023801 2.4071143 0.33941367
-0.30489296 2.4500711 0.32294193
-0.38173842 2.3638346 0.29035518
-0.12116264 2.4046078 0.27223244
-0.21191366 2.4267881 0.25178146
-0.30736393 2.4780445 0.23428047
-0.37377509 2.321732 0.19862896
-0.1256544 2.50157 0.19105706
-0.2131905 2.4502923 0.16383737
-0.30196062 2.4393609 0.14065015
-0.38119909 2.3728609 0.11426093
-0.121846 2.4410567 0.09649875
-0.20694013 2.3919907 0.07184498
-0.30078721 2.4400108 0.050553426
-0.38029554 2.3735845 0.026223052
-0.12448273 2.5008938 0.0071235872
-0.21130031 2.4528584 -0.016801143
-0.2970278 2.4175057 -0.039198264
-0.37679878 2.3572905 -0.061218955
-0.11985841 2.4336531 -0.082533419
-0.20662324 2.40889 -0.10467278
-0.29602531 2.421567 -0.12896381
-0.38049227 2.3841348 -0.15062617
-0.12072928 2.4848778 -0.17562267
-0.20506726 2.4055414 -0.19339909
-0.38938597 3.1894419 -0.28795069
-0.35862365 2.2513998 -0.22642748
-0.1212744 2.5105615 -0.27047813
-0 0 -0
-0.18463232 1.5156128 -0.19326092
-0.36570719 2.2994862 -0.31799698
-0.11162318 2.3507781 -0.34097901
-0.096405327 1.1443328 -0.17734866
-0.12180277 1.003065 -0.16613486
-0.16601504 1.0449241 -0.1845226
-0.045993604 0.98458165 -0.18024373
-0.080004431 0.95503372 -0.18462408
-0.11003071 0.91076916 -0.18571185
-0.14091259 0.88872707 -0.19159287
-0 0 -0
-0.074091591 0.88930148 -0.20666265
-0.10739552 0.88973916 -0.21659771
-0.13908292 0.87521207 -0.22373152
-0 0 -0
-0.069950745 0.84728485 -0.23103319
-0 0 -0
-0.11929311 0.75051099 -0.22308397
5.5494952 -2.6620889 1.9015141
5.8647985 -2.542058 1.8985004
6.1639633 -2.398149 1.8944227
6.5001612 -2.253551 1.8989967
6.4699693 -3.0986404 1.9153467
6.8682714 -2.9791427 1.9166493
7.2822089 -2.8395073 1.9217294
7.6879621 -2.6755767 1.9173714
7.7089262 -3.6918445 1.9411268
8.2225142 -3.5651875 1.9412898
8.5552359 -3.3396761 1.8977323
8.4771776 -2.9570434 1.7651803
8.6921377 -4.1602855 1.8156016
8.6088772 -3.735388 1.6712681
8.5139322 -3.3285196 1.5384481
8.4747028 -2.9598308 1.4243398
8.6855707 -4.1580739 1.4491168
8.6165447 -3.7438984 1.3196794
8.5525217 -3.3487697 1.20137
7.9675717 -2.7906723 1.0237066
8.1928988 -3.9239731 1.0271354
8.0929909 -3.5165815 0.91202664
8.027359 -3.1468573 0.80895889
7.9688215 -2.7954829 0.71329683
8.1774416 -3.918149 0.69166917
8.0886393 -3.5177119 0.58755469
8.0430975 -3.1552947 0.4943893
7.9881868 -2.8052516 0.40252522
8.1908751 -3.9277501 0.35865501
8.1021318 -3.5282891 0.2644386
8.0482988 -3.1620367 0.17781073
7.9748039 -2.8043048 0.092217013
8.1741333 -3.9211259 0.025791708
8.1198587 -3.5395498 -0.060448632
8.0458269 -3.1647944 -0.13914096
7.965971 -2.8044798 -0.21657358
0 -0 -0
1.5420163 -0.67285722 -0.072838418
1.5775703 -0.62164414 -0.089635924
1.5965132 -0.56250292 -0.10560644
1.487643 -0.71579432 -0.11654191
1.5427475 -0.67413807 -0.13486831
1.5511314 -0.6115073 -0.14942017
1.5709729 -0.55402833 -0.16544722
1.4969184 -0.72077215 -0.1787852
1.5159609 -0.663221 -0.19379587
1.5587032 -0.61496389 -0.21209729
1.5948795 -0.56289756 -0.23098759
1.5018923 -0.72468537 -0.24161045
1.5614791 -0.68417406 -0.26327574
1.6069902 -0.63472807 -0.28408411
3.0031888 -1.0604775 -0.55545765
1.5436317 -0.74628717 -0.31353772
1.5844141 -0.69511342 -0.33330697
1.6240565 -0.64261603 -0.35356677
3.5825994 -1.2663432 -0.80906337
1.5400822 -0.74639595 -0.37953815
1.5814418 -0.69466537 -0.40001407
1.5960994 -0.63174713 -0.41487151
1.572533 -0.55522662 -0.42102647
1.4793252 -0.71867269 -0.43024042
1.4953095 -0.65816998 -0.44397184
1.4798962 -0.58620125 -0.44943482
1.4358888 -0.50692421 -0.44701296
5.5321975 -2.6956713 1.9012189
5.8517222 -2.5791559 1.8993547
6.1455579 -2.434509 1.8933214
6.4916639 -2.2953207 1.900593
6.445622 -3.135745 1.913799
6.8596125 -3.0255301 1.9193776
7.2456956 -2.8766119 1.9167156
7.6530538 -2.7161875 1.9127859
7.6896358 -3.7407823 1.9420125
8.1978016 -3.6143901 1.9406548
8.5600653 -3.402235 1.9033983
8.4782877 -3.0159087 1.7692316
8.7044506 -4.232018 1.8235631
8.624527 -3.8052297 1.6788075
8.5547352 -3.4051318 1.5495675
8.4842939 -3.0217156 1.429041
8.7150297 -4.2381015 1.458343
8.6242085 -3.8103051 1.324409
8.5668135 -3.4151368 1.2062985
7.9727359 -2.8475215 1.0265957
8.1945801 -3.9867768 1.0303936
8.1131153 -3.5846655 0.91675591
8.0319414 -3.2056484 0.8113876
7.9590249 -2.8470111 0.71397018
8.2043495 -3.9931233 0.69600439
8.1107054 -3.5866466 0.59074509
8.0588179 -3.2186582 0.49656019
7.9952741 -2.8629684 0.40375996
8.2142315 -4.0011253 0.36074591
8.1333399 -3.6014087 0.26617339
8.0630922 -3.2250988 0.1785714
8.014864 -2.8737717 0.092882402
8.2164431 -4.0036221 0.02600223
8.1281567 -3.6026776 -0.060673829
8.0670977 -3.2304578 -0.13984898
7.9965987 -2.8705306 -0.21788104
0 -0 -0
1.5634288 -0.6936509 -0.07404951
1.5727994 -0.63094044 -0.089583129
1.6099387 -0.57836217 -0.10672726
1.4841192 -0.72534692 -0.11661233
1.538582 -0.68359149 -0.13486831
1.5491987 -0.62175536 -0.1495987
1.572226 -0.56534082 -0.1659414
1.4862155 -0.72688568 -0.17803624
1.5145853 -0.67372125 -0.19414485
1.5521387 -0.62340707 -0.21172056
1.5960569 -0.57435036 -0.23166418
1.4974174 -0.7338872 -0.24161045
1.5527378 -0.69173139 -0.26251262
1.6039809 -0.64494455 -0.28424639
3.0105288 -1.0838904 -0.55803484
1.5231299 -0.74794006 -0.31029981
1.5738417 -0.70202202 -0.33198282
1.6200829 -0.65256894 -0.35356677
3.5996056 -1.2972553 -0.81468624
1.5249624 -0.75065768 -0.37694004
1.5735915 -0.70276672 -0.3991116
1.5867836 -0.63934916 -0.41346201
1.5745703 -0.56683558 -0.42249519
1.4705497 -0.72559577 -0.42897502
1.4877197 -0.66575599 -0.44292289
1.4655609 -0.59095192 -0.44617411
1.4490018 -0.5215745 -0.45208302
5.5044208 -2.7240562 1.8973817
5.8296633 -2.6122689 1.8973618
6.13942 -2.4757669 1.8960748
6.4783649 -2.3354368 1.9008592
6.4522457 -3.1880753 1.9215379
6.8241239 -3.0600317 1.9146652
7.2171044 -2.9166503 1.9138505
7.6765161 -2.7776666 1.9228736
7.6691608 -3.7891905 1.942677
8.1808205 -3.6670213 1.9419249
8.5526457 -3.4602041 1.9064337
8.4845295 -3.0769057 1.7744403
8.7091589 -4.3005762 1.8300434
8.6414394 -3.876209 1.6866975
8.5583572 -3.4675567 1.5540483
8.4962292 -3.0848405 1.4342124
8.7269859 -4.3103261 1.4647418
8.6367998 -3.8793805 1.3299731
8.5613174 -3.4739757 1.2085032
7.9886947 -2.9086144 1.0309293
8.2073793 -4.0554705 1.0351125
8.1200027 -3.6474214 0.92004579
8.0545511 -3.2721086 0.81568462
7.9470224 -2.897841 0.7144751
8.2127666 -4.0597377 0.69881856
8.1431475 -3.660893 0.59473294
8.0842342 -3.2864687 0.49935946
7.9963226 -2.9188228 0.40470973
8.2199774 -4.0665164 0.36208728
8.1320524 -3.6606834 0.26686135
8.0616713 -3.2820518 0.17898257
8.0205584 -2.9314773 0.093155101
8.2204037 -4.0681558 0.026093269
8.1396303 -3.6676829 -0.060926322
8.0887899 -3.2968783 -0.14057308
8.0013666 -2.9277873 -0.21849631
0 -0 -0
1.5582324 -0.70282012 -0.074006252
1.5513328 -0.633407 -0.088580139
1.5894901 -0.58205223 -0.10560644
1.4939367 -0.74153566 -0.11773901
1.5234573 -0.68809539 -0.13391009
1.5499649 -0.63313258 -0.15004499
1.5715305 -0.57600451 -0.16623789
1.4852893 -0.73776048 -0.17846422
1.5004681 -0.67850041 -0.19286528
1.5455292 -0.6317929 -0.21134382
1.5999442 -0.58686233 -0.23274671
1.4875704 -0.74041545 -0.24075012
1.5511651 -0.70246893 -0.26297051
1.5954273 -0.65290564 -0.28343517
2.9631295 -1.0874091 -0.55047524
1.5193924 -0.75771075 -0.3104797
1.5659273 -0.71004367 -0.33122617
1.6078864 -0.65915138 -0.3517811
3.5438371 -1.3017807 -0.80385703
1.5212011 -0.76043707 -0.37715656
1.5639273 -0.70999259 -0.39775792
1.586428 -0.65054858 -0.41440168
1.5801649 -0.5798263 -0.424943
1.4677997 -0.73547196 -0.42948118
1.4827282 -0.67447233 -0.44266066
1.4895073 -0.6112597 -0.45459762
1.477302 -0.54202318 -0.46194154
5.4722362 -2.750057 1.8920685
5.8239932 -2.6527579 1.9007782
6.1267815 -2.5144863 1.8969009
6.4467216 -2.3688264 1.8958038
6.4386072 -3.2306385 1.9233435
6.791997 -3.0958192 1.9109451
7.2242184 -2.9712212 1.9205357
7.6684604 -2.8280847 1.9251664
7.6597123 -3.8431733 1.9462204
8.1635027 -3.7195804 1.9431952
8.544837 -3.5182097 1.9094692
8.4875774 -3.1370718 1.7790701
8.731801 -4.3786016 1.8404119
8.6640739 -3.9503977 1.6958147
8.5788574 -3.5372965 1.5616826
8.5104866 -3.1492538 1.4398541
8.7286587 -4.3779793 1.4695038
8.6497679 -3.9491644 1.3356763
8.5700846 -3.5389304 1.2127832
7.98559 -2.9631031 1.0328555
8.2187548 -4.1240253 1.039719
8.1282349 -3.7112231 0.92354137
8.0646858 -3.3340211 0.81876725
7.9692564 -2.9614739 0.71809423
8.2171097 -4.1248159 0.70132846
8.1495733 -3.7240603 0.59685987
8.0860577 -3.3451705 0.50073057
8.019455 -2.9831553 0.40679929
8.2413006 -4.1402016 0.36413878
8.1139822 -3.7125909 0.26701087
8.091259 -3.3521192 0.18009272
8.0324068 -2.9918041 0.093504168
8.2283468 -4.1351323 0.026198527
8.1624308 -3.7383773 -0.061267532
8.1007347 -3.3598557 -0.14113629
8.0328941 -2.9953389 -0.21985501
0 -0 -0
1.5139308 -0.69404876 -0.072103113
1.5298957 -0.63563412 -0.087577142
1.5868238 -0.59214312 -0.10566871
1.4733248 -0.7426067 -0.11647148
1.5282656 -0.70158899 -0.1347086
1.5432917 -0.64148414 -0.14977722
1.5688988 -0.58598459 -0.16633673
1.4754081 -0.74417359 -0.17782226
1.4989841 -0.68893868 -0.19321425
1.5397916 -0.64050215 -0.21109268
1.5842482 -0.59215868 -0.23098759
1.4609176 -0.73836869 -0.23716539
1.5342572 -0.70618844 -0.2608338
1.5895692 -0.66192406 -0.28311068
1.6378316 -0.61248028 -0.30496055
1.5094489 -0.76435292 -0.30940038
1.5526232 -0.71552879 -0.32933453
1.6038117 -0.6690048 -0.3517811
1.6369026 -0.61271912 -0.37214833
1.5069304 -0.76489598 -0.37477496
1.5542338 -0.71712637 -0.39640424
1.5842006 -0.66101909 -0.41487151
1.5702202 -0.587134 -0.42322955
1.4615347 -0.74358702 -0.42897502
1.47681 -0.6827476 -0.44213617
1.4875047 -0.62112927 -0.45514107
1.4622647 -0.54670924 -0.45827982
5.4654717 -2.7887933 1.8956106
5.8110862 -2.6900542 1.9019171
6.1236572 -2.5572183 1.9007559
6.4311628 -2.4080002 1.8955377
6.4212461 -3.2714002 1.9241174
6.7684784 -3.1353998 1.909705
7.2103305 -3.0173666 1.9217294
7.6400294 -2.8709755 1.9224151
7.6359868 -3.8901 1.9462204
8.1334305 -3.766315 1.9415015
8.5772839 -3.5932775 1.9216107
8.500308 -3.201195 1.7858222
8.72929 -4.4445815 1.8455962
8.6628962 -4.0142474 1.7003734
8.5797253 -3.599406 1.5658314
8.5048637 -3.2066402 1.4422047
8.7421656 -4.4520979 1.4763491
8.6541185 -4.015502 1.3401277
8.6039715 -3.6148772 1.2206947
8.0025434 -3.0253859 1.0374298
8.250845 -4.2036977 1.0470219
8.1459131 -3.7798679 0.92816782
8.077116 -3.3973391 0.82213014
7.9844837 -3.0230186 0.72112417
8.241394 -4.2005134 0.70558769
8.1573381 -3.7882843 0.59911972
8.1031084 -3.4106023 0.50307286
8.0206156 -3.0397398 0.40779662
8.2451162 -4.2056742 0.3654407
8.1490564 -3.7892804 0.26892516
8.094492 -3.4117994 0.18062726
8.0260515 -3.0456455 0.093645968
8.2429018 -4.2059956 0.026326548
8.1583767 -3.7972519 -0.061410841
8.1002331 -3.4180493 -0.14149028
8.0367928 -3.0530918 -0.22047028
0 -0 -0
1.5132662 -0.70501268 -0.072276123
1.5590799 -0.65900606 -0.089477554
1.5990202 -0.60789788 -0.10672726
1.4589726 -0.74663419 -0.11569689
1.5148985 -0.70673877 -0.13391009
1.5292356 -0.64667434 -0.14879535
1.5615536 -0.59418458 -0.1659414
1.4840887 -0.76001042 -0.17942715
1.4992281 -0.70022476 -0.19379587
1.5422281 -0.65264452 -0.2119717
1.5768811 -0.60045797 -0.23044631
1.4827749 -0.76087362 -0.24146707
1.5343711 -0.71768278 -0.26159692
1.5872949 -0.67243481 -0.28343517
1.633122 -0.62216759 -0.30478871
1.4994816 -0.7709018 -0.30832109
1.5490928 -0.7254585 -0.32952371
1.60509 -0.68113017 -0.35297152
1.6294568 -0.6213575 -0.37131533
1.4987375 -0.77233905 -0.37390894
1.5533326 -0.72830373 -0.39730668
1.5774307 -0.66958773 -0.41416678
1.5665882 -0.59675765 -0.42322955
1.4578043 -0.75298482 -0.42922813
1.4690992 -0.69015497 -0.44108719
1.4889802 -0.63250238 -0.45677143
1.452606 -0.55328053 -0.45630813
5.448257 -2.8222764 1.8956106
5.7667131 -2.7126026 1.8928062
6.0866151 -2.5857229 1.8941474
6.432478 -2.4535995 1.900327
6.3761654 -3.2978666 1.9166366
6.7631369 -3.1834729 1.9136733
7.1657691 -3.0505209 1.9148055
7.6295424 -2.9205837 1.9242494
7.6249666 -3.9436002 1.9495424
8.0933657 -3.8082438 1.9374793
8.5974169 -3.6638839 1.9311216
8.5336409 -3.2736754 1.7970114
8.7411385 -4.5183659 1.853928
8.6772928 -4.0857797 1.7080879
8.5901299 -3.6659172 1.5718061
8.5311279 -3.2764697 1.4500402
8.7542124 -4.5260921 1.4830456
8.6857471 -4.0951324 1.3488913
8.606246 -3.678123 1.2241963
8.0181074 -3.0876312 1.0418839
8.2593174 -4.272049 1.0514038
8.1594543 -3.8471715 0.932383
8.0909023 -3.4617178 0.82567984
7.9936752 -3.0827096 0.72364908
8.2526588 -4.2702484 0.70878208
8.162816 -3.8518913 0.6012466
8.114151 -3.4740107 0.50507236
8.0288353 -3.0993278 0.40917379
8.2573099 -4.2759442 0.3671371
8.1636095 -3.8571448 0.27018139
8.1138372 -3.4787369 0.18153183
8.0603762 -3.1153831 0.094267726
8.2595596 -4.2785721 0.026463101
8.1674671 -3.8626301 -0.061656512
8.1112661 -3.4814899 -0.14205348
8.0505381 -3.1149728 -0.22136754
0 -0 -0
1.5242628 -0.72155142 -0.073011428
1.5467503 -0.66501009 -0.089002453
1.5747842 -0.60976934 -0.10535736
1.4525934 -0.75465238 -0.11555605
1.5123351 -0.71687466 -0.1340698
1.5380484 -0.66155505 -0.15004499
1.5653012 -0.60663158 -0.16673206
1.4414642 -0.74938178 -0.17482646
1.4984925 -0.71111393 -0.19426116
1.5236144 -0.65581936 -0.20996249
1.5768622 -0.61155528 -0.23098759
1.4657903 -0.76355636 -0.23945962
1.5352943 -0.72962916 -0.26251262
1.5831391 -0.68216163 -0.28343517
1.6228448 -0.629682 -0.30358607
1.4947232 -0.78008795 -0.30832109
1.5463856 -0.73579371 -0.32990202
1.5936815 -0.68785882 -0.35138425
1.6265252 -0.63169801 -0.37152356
1.4870497 -0.77790034 -0.37217689
1.542678 -0.73488826 -0.3957274
1.5777545 -0.68118048 -0.41534138
1.5665127 -0.60776162 -0.42420864
1.4600111 -0.76550949 -0.43125278
1.4587406 -0.69624656 -0.43925151
1.4718195 -0.63590127 -0.45269555
1.454551 -0.56426531 -0.45799813
5.4274545 -2.8538742 1.8944298
5.7404461 -2.7433887 1.8896742
6.0476904 -2.613107 1.8869882
6.4307804 -2.4982581 1.9043183
6.3635087 -3.3409698 1.9189582
6.7583332 -3.2320158 1.9178895
7.160284 -3.1002195 1.9183869
7.6060367 -2.9652212 1.9228736
7.5695429 -3.9739933 1.9415697
8.0645561 -3.855303 1.9362091
8.6098175 -3.7317567 1.9390137
8.5362425 -3.3349016 1.8018342
8.7602396 -4.5965719 1.8639262
8.6938019 -4.1589136 1.7163286
8.623559 -3.7428987 1.5820955
8.5347776 -3.3381073 1.4541147
8.7551708 -4.5948863 1.4879563
8.689929 -4.1624675 1.3534817
8.6271658 -3.7498333 1.2304218
8.0406008 -3.1530805 1.0473009
8.2637415 -4.3388143 1.0553361
8.1984921 -3.9272454 0.93957973
8.0850286 -3.5180504 0.82726783
8.0098543 -3.1455407 0.72684735
8.269556 -4.343524 0.71250892
8.1858139 -3.9243345 0.60470283
8.1192274 -3.5352914 0.50672907
8.0487118 -3.1638813 0.41116837
8.2654114 -4.3446612 0.36867571
8.1875486 -3.9300883 0.27176666
8.1161661 -3.5388463 0.18206634
8.0653009 -3.1743035 0.09455134
8.2782917 -4.3529067 0.026608191
8.2085094 -3.9438519 -0.062147848
8.1099119 -3.5399942 -0.14240749
8.0489454 -3.1712739 -0.22185463
8.2323895 -4.3342743 -0.31513682
1.4981982 -0.72049874 -0.071973346
1.535321 -0.67128783 -0.088580139
1.5737985 -0.62051886 -0.10554417
1.4620532 -0.77099591 -0.11668275
1.5034174 -0.72397822 -0.13367054
1.5157096 -0.66299683 -0.1482598
1.5596982 -0.61549413 -0.16653439
1.4412355 -0.76053244 -0.17536142
1.4878383 -0.71727592 -0.1934469
1.5231971 -0.66674709 -0.21046481
1.5730801 -0.62121922 -0.23098759
1.4383303 -0.76050836 -0.2357315
1.5156586 -0.73173141 -0.25991803
1.5789236 -0.6918627 -0.28343517
1.6198668 -0.63998973 -0.30375788
1.4933854 -0.79108655 -0.30904064
1.5303487 -0.73971295 -0.32744288
1.5921233 -0.69880623 -0.35197949
1.6226184 -0.64166629 -0.37152356
1.4943204 -0.79341966 -0.37520799
1.5381397 -0.74434012 -0.3957274
1.569095 -0.68889481 -0.41416678
1.5663612 -0.61878711 -0.4251878
1.4510164 -0.77218109 -0.42998737
1.449231 -0.70265806 -0.43767807
1.4872738 -0.65343654 -0.45867351
1.4519538 -0.57353216 -0.45827982
5.3980408 -2.880825 1.8902974
5.7364407 -2.7848396 1.8939451
6.0341835 -2.6513259 1.8878143
6.4117446 -2.5362513 1.9032539
6.3437419 -3.3804073 1.9192163
6.7383747 -3.2734234 1.9178895
7.1357937 -3.1417477 1.9169543
7.6066976 -3.0193763 1.9276882
7.5467372 -4.0212817 1.9420125
8.047781 -3.908129 1.9379026
8.6010962 -3.7908344 1.9422514
8.5402365 -3.3970079 1.8070431
8.7656994 -4.6682525 1.8711473
8.7097378 -4.2324038 1.7245692
8.6401272 -3.813261 1.5893978
8.562767 -3.4097786 1.4624203
8.7756872 -4.6745548 1.4962897
8.7194338 -4.2425723 1.3621062
8.6330156 -3.8155246 1.2345721
8.064435 -3.2196574 1.0529588
8.2632704 -4.4034572 1.0587066
8.1966009 -3.9883568 0.94214994
8.1088142 -3.5877354 0.83193851
8.0431423 -3.2157147 0.73164475
8.2735453 -4.4106011 0.71517098
8.197463 -3.991962 0.60736144
8.1366367 -3.6024227 0.50918555
8.0616055 -3.2261975 0.41283056
8.2817965 -4.4183412 0.37060884
8.2064056 -4.0012794 0.27320236
8.1372576 -3.607625 0.18303262
8.0688782 -3.2330296 0.094824046
8.2743645 -4.4158611 0.026682159
8.2147112 -4.0090561 -0.062379874
8.140131 -3.6128092 -0.14332469
8.0729427 -3.2380927 -0.22305952
0 -0 -0
1.5027258 -0.73406303 -0.072405882
1.5247856 -0.67785615 -0.08821062
1.5671828 -0.62904847 -0.10535736
1.437067 -0.76912624 -0.11506313
1.4890972 -0.72837156 -0.13279219
1.5207137 -0.676332 -0.1491524
1.554969 -0.62468177 -0.16643557
1.4435537 -0.77311665 -0.17621736
1.4771652 -0.72333407 -0.19263265
1.5063881 -0.67043322 -0.20870674
1.5692388 -0.63085973 -0.23098759
1.4693905 -0.78850567 -0.24161045
1.5049289 -0.73797166 -0.25884968
1.5710433 -0.6999315 -0.28278619
1.6095116 -0.64734381 -0.3025552
1.481572 -0.79650855 -0.30760154
1.5293069 -0.7508201 -0.32819957
1.5842254 -0.70696455 -0.35118586
1.6159289 -0.65051466 -0.37089884
1.4791106 -0.79701638 -0.37260988
1.5326693 -0.75333422 -0.39550179
1.5648385 -0.69850963 -0.41416678
1.5733296 -0.63272762 -0.42812517
1.4513584 -0.78382814 -0.43150586
1.4544153 -0.71622676 -0.44056273
1.4682987 -0.65587741 -0.45405418
1.4528584 -0.58422023 -0.45968819
5.3600993 -2.9029722 1.8832132
5.7295628 -2.8250725 1.8973618
6.0327229 -2.694967 1.8924953
6.4023209 -2.5780659 1.9051164
6.3441267 -3.4307575 1.9256651
6.7181625 -3.3147075 1.9178895
7.134995 -3.1938047 1.9219681
7.5420017 -3.0473962 1.9159956
7.5210638 -4.0670481 1.9417912
8.0245266 -3.9578681 1.9381144
8.6044846 -3.855552 1.9483222
8.5592489 -3.4655488 1.8155313
8.7844381 -4.7476478 1.8813305
8.7206831 -4.3040662 1.7319331
8.6381598 -3.8758929 1.5933809
8.5810413 -3.4782076 1.4691588
8.816431 -4.765933 1.5081946
8.7243099 -4.3113489 1.3669747
8.6628046 -3.892401 1.2422241
8.0665998 -3.278049 1.0558479
8.2780504 -4.4767652 1.0640997
8.1978359 -4.0513558 0.94513148
8.1547489 -3.6680546 0.83894455
8.0481787 -3.2751467 0.73391718
8.2963142 -4.488327 0.7195062
8.2059069 -4.0585523 0.60982066
8.1435127 -3.6653934 0.51101369
8.0657101 -3.2853987 0.4140653
8.3160391 -4.5023761 0.37337047
8.2327566 -4.0768409 0.27490723
8.1651001 -3.6800809 0.18416332
8.0738878 -3.2926733 0.09511856
8.3007517 -4.4955983 0.026855696
8.2275867 -4.0780368 -0.062666491
8.1697598 -3.6861274 -0.1442419
8.0760603 -3.2970126 -0.22370043
0 -0 -0
1.4462848 -0.71751726 -0.069897197
1.5287876 -0.69090056 -0.088685714
1.5688372 -0.64091742 -0.10573097
1.4349504 -0.77935773 -0.11527438
1.4631746 -0.7268514 -0.13087575
1.5092746 -0.68236762 -0.14843832
1.5501856 -0.63383448 -0.16633673
1.4335413 -0.77911091 -0.17557541
1.4718097 -0.73194188 -0.19251631
1.5257468 -0.69029611 -0.2119717
1.5690063 -0.64197737 -0.23152885
1.4427959 -0.78567439 -0.23802572
1.4897566 -0.74190515 -0.25701821
1.5658202 -0.70915103 -0.28262398
1.6027743 -0.65608782 -0.3020398
1.4732027 -0.80369991 -0.30688202
1.5167621 -0.75624627 -0.32649708
1.5745022 -0.71424246 -0.34999537
1.6073817 -0.65856355 -0.36985755
1.4647697 -0.8009249 -0.37022829
1.5254031 -0.76141906 -0.39482495
1.5605232 -0.70809817 -0.41416678
1.5622389 -0.63943124 -0.42616692
1.4473701 -0.79318374 -0.43175894
1.4379101 -0.71909457 -0.43689138
1.4695042 -0.66726166 -0.45568451
1.4439182 -0.59094322 -0.45799813
5.4326181 -2.9855037 1.9150921
5.7198348 -2.864038 1.8999242
6.050211 -2.7474344 1.903234
6.3890572 -2.6183977 1.9059147
6.2992401 -3.4566057 1.9184422
6.687304 -3.3506594 1.9149133
7.1126118 -3.2363174 1.9212518
7.5204606 -3.092505 1.9153078
7.4959674 -4.1131201 1.9417912
8.0035858 -4.0087819 1.9389611
8.5940332 -3.9143646 1.9513577
8.5940714 -3.5411787 1.8274921
8.8051176 -4.8288665 1.8920695
8.716114 -4.3685226 1.7363166
8.6447201 -3.9427354 1.5990235
8.5832767 -3.5405865 1.4732333
8.8121653 -4.8337317 1.5125101
8.7401752 -4.3861189 1.3736516
8.6640129 -3.957016 1.2458556
8.0619297 -3.3339319 1.0578942
8.3114042 -4.5609365 1.0719644
8.2190523 -4.1247807 0.9504776
8.1601572 -3.7308555 0.84184027
8.0840902 -3.3477237 0.73905122
8.3149443 -4.5645785 0.72353733
8.2245398 -4.1307697 0.61307746
8.1535521 -3.7302446 0.51307034
8.0721588 -3.3459189 0.41544247
8.3127785 -4.5667892 0.37447512
8.2406282 -4.1438947 0.27601394
8.1578178 -3.7371905 0.18451281
8.0941696 -3.3590162 0.095598526
8.2993021 -4.5608945 0.026941041
8.2381382 -4.1464262 -0.062939458
8.1797056 -3.7511911 -0.14482117
8.0990677 -3.3645291 -0.22490533
0 -0 -0
1.4588075 -0.73491836 -0.070719011
1.5245196 -0.70026803 -0.088685714
1.5538158 -0.64593416 -0.10498376
1.4397514 -0.7934438 -0.11604898
1.4560171 -0.73446876 -0.1306362
1.5186347 -0.69785374 -0.14977722
1.5334046 -0.63798273 -0.16495305
1.4287337 -0.78789228 -0.17557541
1.4637445 -0.73916811 -0.19205101
1.5124691 -0.69550014 -0.21071595
1.5659524 -0.65197337 -0.23166418
1.4466102 -0.79929864 -0.23945962
1.4825305 -0.74969423 -0.25656033
1.5542686 -0.71544456 -0.28132603
1.597809 -0.6655311 -0.30186799
3.693846 -2.044673 -0.77206194
1.5068369 -0.76287746 -0.32536209
1.5674198 -0.72265887 -0.34940016
1.6060188 -0.66954291 -0.3704823
1.4342169 -0.79568875 -0.36373308
1.5059298 -0.76327693 -0.39098948
1.5490875 -0.71440345 -0.41228738
1.5636564 -0.6512416 -0.42763564
1.4348661 -0.79781842 -0.42948118
1.446377 -0.73445767 -0.44082499
1.4505275 -0.66941041 -0.45106518
1.4420366 -0.60052955 -0.45856148
5.4192042 -3.0215731 1.9168632
5.7081351 -2.9021213 1.9019171
6.0393491 -2.7873259 1.9051614
6.3835473 -2.662003 1.9091076
6.2787566 -3.495662 1.9187002
6.6562576 -3.3863578 1.9119372
7.0802808 -3.2741923 1.9179093
7.5148129 -3.144227 1.9187468
7.4629207 -4.154768 1.9397981
7.9805799 -4.0587015 1.9393845
8.5565224 -3.9608519 1.9483222
8.6101875 -3.6097782 1.8355945
8.8096714 -4.9019151 1.8994755
8.7268734 -4.4411216 1.7438557
8.6552591 -4.011878 1.6054959
8.603282 -3.6107678 1.480442
8.8255434 -4.9117556 1.5199506
8.7430983 -4.4549513 1.3783813
8.6611547 -4.0201216 1.2489682
8.0641975 -3.3929615 1.0609038
8.3014936 -4.6219993 1.0743238
8.2352428 -4.1963601 0.95530963
8.1479464 -3.7858894 0.84296125
8.0808439 -3.4046144 0.74065036
8.3329477 -4.6412268 0.72756833
8.2168169 -4.1902232 0.61440676
8.1712484 -3.7991443 0.51564103
8.0938139 -3.41324 0.41762704
8.3195124 -4.6371684 0.37605318
8.2435331 -4.2089248 0.27697107
8.1582994 -3.798147 0.18504734
8.1038065 -3.4214528 0.095958494
8.2973633 -4.6263413 0.027026387
8.2454872 -4.2137332 -0.06319195
8.161973 -3.8038447 -0.14491773
8.105895 -3.4258358 -0.22567441
0 -0 -0
1.4507127 -0.74203575 -0.070545994
1.5201941 -0.70960909 -0.088685714
1.5415502 -0.65195715 -0.10442334
1.4235371 -0.7959345 -0.11513355
1.467453 -0.75156802 -0.13207352
1.4971774 -0.69915164 -0.14808127
1.5349596 -0.64970684 -0.16554606
1.4342848 -0.80246955 -0.17685932
1.4485757 -0.74269789 -0.19065513
1.49559 -0.69888729 -0.20895788
1.5600977 -0.6607967 -0.23139353
1.424413 -0.79848129 -0.23659185
1.4831777 -0.76148498 -0.25747606
1.5453805 -0.72287744 -0.28051484
1.5927881 -0.67493814 -0.30169615
3.7309771 -2.0952361 -0.7824952
1.4995078 -0.77076226 -0.32479462
1.5629561 -0.73226273 -0.34940016
1.6027808 -0.67976654 -0.37069055
3.2227483 -1.8138973 -0.82013148
1.5012181 -0.77250278 -0.39098948
1.5402741 -0.72183263 -0.41111279
1.5623094 -0.66195858 -0.42836997
1.4147766 -0.79805201 -0.42492571
1.4384123 -0.74154985 -0.439776
1.4516208 -0.68074977 -0.45269555
1.4515772 -0.614981 -0.46278659
5.3656335 -3.0350111 1.9044658
5.6604066 -2.9217024 1.891952
5.9986324 -2.813309 1.8977269
6.3404717 -2.6898279 1.9011253
6.2605543 -3.5360227 1.9197321
6.6207218 -3.4195783 1.9077209
7.0565424 -3.3159227 1.9169543
7.4864225 -3.186466 1.9164542
7.4372869 -4.2004814 1.9397981
7.9529204 -4.1062479 1.9387493
8.5223112 -4.0086942 1.9460963
8.6122456 -3.6729343 1.8408034
8.8487463 -4.995007 1.9144727
8.7484417 -4.5198917 1.7536744
8.6875763 -4.0918026 1.6161174
8.6100311 -3.6758978 1.4854567
8.8262396 -4.9833179 1.5253079
8.7648535 -4.5339932 1.3861711
8.6811657 -4.0943384 1.255453
8.0788193 -3.4576118 1.0655986
8.3153715 -4.696795 1.0798291
8.2367277 -4.2609797 0.95849675
8.1587763 -3.8519657 0.84651095
8.0808668 -3.4631612 0.74258614
8.3320923 -4.7079659 0.73000222
8.2299385 -4.260746 0.61733121
8.1856976 -3.8671222 0.51804048
8.1222897 -3.4841022 0.4201915
8.3117781 -4.6999331 0.37700003
8.2566004 -4.2796664 0.27828714
8.1872587 -3.8729298 0.18623972
8.1047106 -3.480582 0.096220277
8.3471565 -4.7214761 0.027282426
8.2594204 -4.2849698 -0.063499041
8.1999292 -3.8829527 -0.14601193
8.1168661 -3.4893262 -0.22657166
0 -0 -0
1.4576589 -0.75690848 -0.071108289
1.5103977 -0.71635586 -0.088368982
1.5485228 -0.66613644 -0.10517057
1.4082146 -0.79874837 -0.11428852
1.4460101 -0.75182122 -0.13055636
1.4865603 -0.70533627 -0.14745647
1.5346001 -0.66068697 -0.1659414
1.4085813 -0.79947639 -0.17429149
1.4545636 -0.75707483 -0.19205101
1.4894811 -0.70719987 -0.20870674
1.5578338 -0.67114091 -0.23166418
