# .PCD v0.7 - Point Cloud Data file format
VERSION 0.7
FIELDS x y z
SIZE 4 4 4
TYPE F F F
COUNT 1 1 1
WIDTH 1538
HEIGHT 1
VIEWPOINT 0 0 0 1 0 0 0
POINTS 1538
DATA ascii
-0.4701159 2.3792849 -0.15131111
-0.20649578 2.4131539 -0.17097509
-0.29371193 2.3983421 -0.19355877
-0.37321451 2.3379102 -0.2121695
-0.44067061 2.2337453 -0.22613098
-0.2037978 2.3894796 -0.25806698
-0.27500823 2.2537646 -0.26591676
-0.35755056 2.2435603 -0.28756827
-0.33077347 1.6788405 -0.23369394
-0.10036929 1.1883168 -0.17278373
-0.13345514 1.0988038 -0.17093846
-0.16840036 1.0592964 -0.17635605
-0.19637145 0.99750924 -0.17730664
-0 0 -0
-0 0 -0
-0.14593166 0.92159098 -0.1888864
-0.17503764 0.890616 -0.1932589
-0.075415768 0.91166121 -0.20286779
-0.10922197 0.90628332 -0.21140055
-0.13931197 0.88038296 -0.21542309
-0.17213936 0.87425631 -0.22495542
-0 0 -0
-0.10326969 0.86234099 -0.23601575
-0.12839189 0.81275171 -0.23232573
-0.15072988 0.76538157 -0.22899906
-0 0 0
-0.29818976 2.5005553 0.74795455
-0.37269819 2.3596871 0.68425006
-0.458561 2.3344204 0.65667981
-0.19451748 2.3949435 0.64154446
-0.29015377 2.4385967 0.62871456
-0.37513635 2.3867464 0.59401947
-0.45352691 2.3233685 0.55758065
-0.19732174 2.4289448 0.55343705
-0.31318232 2.6290114 0.57349557
-0.36904916 2.35391 0.49234194
-0.46618536 2.3973384 0.4801676
-0.19645071 2.411443 0.45584449
-0.30247077 2.544765 0.45639017
-0.36372104 2.3276241 0.39647818
-0.45871761 2.3637795 0.38205969
-0.20380589 2.5044289 0.37812752
-0.28688645 2.4241178 0.34289131
-0.36830944 2.3651052 0.31308508
-0.46875274 2.4270401 0.29974473
-0.19816387 2.4403665 0.27683896
-0.29771006 2.5159509 0.26185682
-0.3717725 2.3936627 0.22727446
-0.45744616 2.3747308 0.20426801
-0.20160553 2.4875937 0.19037253
-0.28790158 2.4396269 0.16363798
-0.36333585 2.3431182 0.13567998
-0.45720178 2.377707 0.11511575
-0.19787367 2.4511104 0.097090527
-0.2873328 2.4450729 0.073669516
-0.36373454 2.3535557 0.048970424
-0.45801279 2.3873172 0.026517574
-0.1943911 2.4121702 0.0068846168
-0.28108996 2.3995361 -0.01648723
-0.363581 2.358835 -0.038409796
-0.45062286 2.3534596 -0.06144968
-0.18520172 2.3132672 -0.078606479
-0.27520385 2.3567636 -0.10272638
-0.36274254 2.3629818 -0.12637715
-0.4665677 2.4399621 -0.15498492
-0.19034293 2.3974707 -0.16977796
-0.27714896 2.3842571 -0.19228117
-0.35946622 2.3440943 -0.21252654
-0.42023847 2.2012191 -0.22257297
-0.19258256 2.4342961 -0.26277465
-0 0 -0
-0.34482846 2.2525766 -0.28844729
-0.42178306 2.212244 -0.30757746
-0.09307602 1.1889104 -0.17278373
-0.12704991 1.1025474 -0.17139633
-0.16755718 1.0973767 -0.18252121
-0.19172195 1.0064373 -0.17868111
-0 0 -0
-0.10881446 0.948228 -0.18386741
-0.13968477 0.91859317 -0.18809277
-0.16463602 0.86573017 -0.18763606
-0.071012743 0.92768174 -0.20633192
-0.10410158 0.91080809 -0.212303
-0.13317728 0.87641627 -0.21424849
-0.1660459 0.87148631 -0.2239763
-0 0 -0
-0.099174015 0.87350571 -0.23890039
-0.12268087 0.80876672 -0.2309671
-0.1454919 0.76346445 -0.22815406
-0.1834264 2.4649167 0.76361638
-0.28940871 2.5604432 0.76532239
-0.36008635 2.3742857 0.68782967
-0.45430839 2.3902218 0.6715802
-0.17830034 2.3758593 0.63612729
-0.28777766 2.5519991 0.65748411
-0.36352715 2.4091675 0.5990333
-0.44486159 2.355758 0.56468797
-0.18226834 2.4281652 0.55299413
-0.27972025 2.4774396 0.54004693
-0.35999146 2.3919609 0.49982923
-0.44566247 2.3692961 0.47399428
-0.18607758 2.4713991 0.46695361
-0.2796877 2.4829822 0.44499356
-0.35747683 2.3834493 0.40560594
-0.44292971 2.3597548 0.3809627
-0.18354076 2.440551 0.36830604
-0.27211729 2.4268167 0.34303039
-0.35789412 2.3947792 0.31671655
-0.45585689 2.4406052 0.30106893
-0.18586273 2.4772079 0.28088364
-0.26542175 2.3674772 0.24622972
-0.35707825 2.3958988 0.22727446
-0.45217273 2.4274528 0.20856042
-0.18559368 2.4788408 0.18961196
-0.27935654 2.4988611 0.16749299
-0.35291895 2.3719661 0.13722245
-0.4394998 2.3637731 0.11430842
-0.18260734 2.4492888 0.096972167
-0.27066624 2.4318888 0.073220864
-0.34972644 2.3587101 0.0490321
-0.44445008 2.3959813 0.02658302
-0.18203557 2.4462264 0.0069784978
-0.26812539 2.4171178 -0.016596418
-0.35187939 2.3798149 -0.03871553
-0.43853939 2.368959 -0.061782949
-0.18219838 2.4658601 -0.083752126
-0.26534879 2.4001145 -0.10454302
-0.34750944 2.3602233 -0.12611321
-0.44251594 2.3937078 -0.15187153
-0.1714766 2.341887 -0.16576414
-0.25815347 2.3462794 -0.18908712
-0.34420678 2.3403432 -0.21199098
-0.41701865 2.2595351 -0.22820647
-0.17344724 2.3779178 -0.25656906
-0 0 -0
-0.33489114 2.2811522 -0.29183781
-0.40766233 2.2118676 -0.30717155
-0.11994858 1.6632684 -0.24161045
-0.12478095 1.1445696 -0.17780653
-0.15538847 1.0612832 -0.17635605
-0 0 -0
-0 0 -0
-0.10373592 0.95571125 -0.18519156
-0 0 -0
-0.16568667 0.90135455 -0.19513318
-0.065182172 0.92615223 -0.2058989
-0.098406322 0.91046113 -0.21207739
-0.12975898 0.890683 -0.21753739
-0.16174918 0.87821001 -0.225445
-0.059170477 0.85220194 -0.22347194
-0.088251635 0.82228518 -0.22473945
-0 0 -0
-0.13889247 0.75396276 -0.22505566
-0.165371 2.4231005 0.75033355
-0.28804934 2.6965704 0.80546761
-0.36376885 2.5020275 0.72417611
-0.42482829 2.3123772 0.64896357
-0 0 0
-0.26657063 2.5016987 0.64409143
-0.35791156 2.4747841 0.61479104
-0.42760262 2.3431222 0.56101966
-0.16555622 2.4029703 0.54701459
-0.26430631 2.4771657 0.5396235
-0.36152479 2.5065615 0.52330303
-0.42865986 2.3584704 0.47129348
-0.16772477 2.4264171 0.45825148
-0.26205066 2.4621348 0.44096091
-0.3671141 2.5544639 0.43431699
-0.42474112 2.3420203 0.37767178
-0.16617864 2.4071031 0.36309764
-0 0 0
-0.35176608 2.456804 0.32462797
-0.42447913 2.3525 0.28987366
-0.16799711 2.4396405 0.27650189
-0.25581372 2.4155521 0.2510618
-0.35320601 2.4739385 0.2344673
-0.42279986 2.3497639 0.2016589
-0.1709954 2.4888856 0.19029647
-0.26139933 2.4757214 0.16583134
-0.34511971 2.4215291 0.13996461
-0.42657676 2.3752735 0.11473583
-0.16702993 2.4423878 0.096656553
-0.25657511 2.4414563 0.073460147
-0.34143195 2.4043653 0.049936671
-0.42638981 2.3799624 0.026375767
-0.16845225 2.4682486 0.0070382408
-0.25026885 2.3898757 -0.016398516
-0.33923298 2.3957889 -0.038940806
-0.42170838 2.3588123 -0.06144968
-0.16746987 2.4729145 -0.083955236
-0.25030589 2.3987164 -0.10441326
-0.33622697 2.3850543 -0.12732735
-0.92194438 5.1641498 -0.32728031
-0.17892751 2.6683526 -0.18879086
-0.24869305 2.3954103 -0.19291997
-0.4551101 3.2320344 -0.29250294
-0.40436876 2.2689092 -0.22889832
-0.16541153 2.4771504 -0.26716137
-0.24951217 2.4135523 -0.28417966
-0.30280003 2.1544659 -0.27538741
-0.41717228 2.3440652 -0.32516882
-0.074376196 1.1277492 -0.16375023
-0.11078129 1.0774797 -0.1672755
-0.14558665 1.0387639 -0.17246227
-0.17728746 0.99707508 -0.1766194
-0 0 -0
-0.095670506 0.93483919 -0.18102995
-0.12799536 0.91732597 -0.18749753
-0.15622176 0.88020468 -0.19034335
-0.05605717 0.87294966 -0.19399098
-0.093706675 0.9197706 -0.21410792
-0.12388874 0.8885743 -0.21683262
-0.15618776 0.87823135 -0.22520021
-0 0 -0
-0.087185137 0.86217558 -0.23549128
-0.11354268 0.81593049 -0.23259747
-0.13762443 0.77369452 -0.23068911
-0.15257221 2.4574459 0.76066464
-0.24692984 2.4541154 0.73257977
-0.34708509 2.4946907 0.72142261
-0.40238214 2.2684329 0.63592577
-0.15409042 2.4569378 0.65727997
-0.23922057 2.3837616 0.6133377
-0.33579889 2.426914 0.60237581
-0.41051561 2.3303645 0.55735141
-0.15129721 2.4117272 0.54878634
-0.23414977 2.3299582 0.50723344
-0.34172094 2.4767187 0.51662517
-0.40756851 2.3233643 0.46376976
-0.15425368 2.4499581 0.46250996
-0.25057122 2.4999416 0.44744819
-0.34445027 2.505867 0.42568707
-0.40968165 2.3406911 0.37704495
-0.15246068 2.424855 0.36562741
-0.24398647 2.4467247 0.34539515
-0.33722287 2.462846 0.32514679
-0.40816334 2.3443019 0.28854945
-0.15140791 2.4148407 0.2735807
-0.2424676 2.4319232 0.25260392
-0.33801955 2.4760592 0.2344673
-0.40735137 2.3464234 0.2011539
-0.15621859 2.4978495 0.19090495
-0.24630234 2.4782715 0.1658978
-0.33038983 2.4245903 0.14002176
-0.41097113 2.3719411 0.11445089
-0.15253705 2.4513452 0.096972167
-0.24070446 2.4340324 0.07319095
-0.33406946 2.4609036 0.051067393
-0.41177863 2.3825338 0.026375767
-0.15237468 2.4542646 0.0069955671
-0.2390317 2.4261971 -0.016637363
-0.32613555 2.4097154 -0.039133903
-0.40637758 2.3564298 -0.061321504
-0.15192476 2.4679103 -0.083752126
-0.24085282 2.4538989 -0.10674894
-0.32211953 2.391031 -0.1275385
-0.40684125 2.3625653 -0.14956762
-0.15800412 2.5947247 -0.1835095
-0.2357337 2.4147487 -0.19435728
-0.43659839 3.2446373 -0.29339552
-0.39178804 2.2791932 -0.22968897
-0.14942688 2.4652169 -0.26577047
-0 0 -0
-0.22104339 1.6459727 -0.21021365
-0.39976445 2.3290036 -0.3227331
-0.06715972 1.1232448 -0.16303329
-0.10777957 1.1155199 -0.1730752
-0.14078169 1.0513738 -0.17440917
-0 0 -0
-0 0 -0
-0.09030854 0.93931842 -0.18178661
-0.1227528 0.92100871 -0.18809277
-0.15560323 0.90910423 -0.19638269
-0 0 -0
-0.088618062 0.92614698 -0.2154616
-0.11625287 0.8729381 -0.21283895
-0.14964874 0.87248385 -0.22348674
-0 0 -0
-0.081437312 0.8578909 -0.23418008
-0.10473032 0.78799224 -0.22444569
-0.12962973 0.75561041 -0.22505566
-0.13492979 2.4125462 0.74649626
-0.22988448 2.4345882 0.72631598
-0.32873231 2.4739022 0.71481419
-0.39820772 2.327868 0.6518904
-0.13944849 2.4655542 0.65934366
-0.23031102 2.4459474 0.62896258
-0.32764241 2.4799528 0.61502981
-0.39474219 2.3242028 0.55528796
-0.13594545 2.402874 0.54657173
-0.22920819 2.4305987 0.52882683
-0.31973916 2.4273095 0.50590003
-0.3952682 2.3374312 0.46608475
-0.13882799 2.4439907 0.46121389
-0.23227762 2.4700663 0.44183758
-0.33240366 2.533355 0.43000203
-0.39580464 2.3460824 0.37751508
-0.13713123 2.4178467 0.36443695
-0.22887686 2.4471898 0.34525606
-0.31966361 2.446188 0.32268256
-0.39311418 2.3428462 0.28806794
-0.1388877 2.4563994 0.27818719
-0.23068976 2.4670382 0.25609946
-0.32783628 2.5165906 0.23811039
-0.39212427 2.3439648 0.2007331
-0.14150657 2.5097117 0.19174157
-0.23044321 2.4727817 0.16543254
-0.31718004 2.4394424 0.14076442
-0.39048797 2.3389494 0.11274125
-0.15108567 2.6946652 0.10655893
-0.22604178 2.4384494 0.073280685
-0.31215778 2.4103572 0.049977791
-0.39485243 2.3712065 0.026223052
-0.14194752 2.5380235 0.0072316923
-0.22239354 2.4086988 -0.016507704
-0.32068911 2.484061 -0.040308561
-0.39092809 2.352962 -0.061167687
-0.13794011 2.4897518 -0.084463038
-0.22414465 2.4374228 -0.10597038
-0.30718786 2.3909814 -0.12743293
-0.39544055 2.3837245 -0.1507507
-0.15156677 2.768954 -0.19576225
-0.21955125 2.4012597 -0.19315952
-0.41554055 3.238364 -0.2925922
-0.38234752 2.3090427 -0.2324563
-0.13489249 2.4770081 -0.26694739
-0 0 -0
-0.19128227 1.4937865 -0.19062385
-0.37350646 2.2590752 -0.31271955
-0 0 -0
-0.10395905 1.1496254 -0.17826441
-0.13657714 1.0698365 -0.1773295
-0.16712552 1.0118111 -0.1788529
-0 0 -0
-0.080760397 0.89780098 -0.17365256
-0.12055791 0.94896907 -0.19364825
-0.1492267 0.90521663 -0.19534142
-0 0 -0
-0.08197841 0.91599959 -0.21297985
-0.11309764 0.89099193 -0.21706754
-0.14413442 0.87242901 -0.22324196
-0 0 -0
-0.077366047 0.8718316 -0.23785143
-0.1031586 0.81439817 -0.23178229
-0.12577312 0.76112497 -0.22646402
-0.11964915 2.4037859 0.74354452
-0.21570012 2.4445472 0.72887844
-0.3262285 2.576014 0.74372619
-0.3834466 2.3274143 0.65109217
-0.12057242 2.3920636 0.63948077
-0.20434694 2.3228259 0.59696883
-0.29774457 2.3653357 0.58614063
-0.38597184 2.3602021 0.56331235
-0.121592 2.4114542 0.54834342
-0.21403264 2.4290388 0.52819175
-0.30849755 2.4583766 0.51197088
-0.38076091 2.3388441 0.46589187
-0.12477384 2.4634442 0.46473181
-0.21246468 2.4184854 0.43236962
-0.31440723 2.5157764 0.42668286
-0.37871039 2.3318942 0.37485102
-0.12334167 2.4393821 0.36756197
-0.21092734 2.4150064 0.34052655
-0.3052603 2.4530232 0.32333103
-0.37920615 2.3481541 0.28842908
-0.12771332 2.5346134 0.28695074
-0.21606714 2.4743528 0.25671634
-0.31324649 2.5254712 0.2387643
-0.37805134 2.348294 0.20090142
-0.12385362 2.4657195 0.18831897
-0.21370941 2.4562566 0.16423617
-0.30306447 2.4482782 0.14116432
-0.37834722 2.3551085 0.11340611
-0.1221947 2.4480426 0.096774906
-0.20797396 2.4039404 0.072203904
-0.29931936 2.4281034 0.050306723
-0.38013735 2.3725972 0.026212145
-0.12527815 2.5168741 0.0071691056
-0.20537841 2.3841147 -0.016330274
-0.29910067 2.4343767 -0.039471816
-0.37695661 2.3582778 -0.061244596
-0.1252663 2.5434568 -0.086257242
-0.20995313 2.447711 -0.10635966
-0.29251128 2.3928213 -0.12743293
-0.38080683 2.386106 -0.1507507
-0.1233433 2.5386803 -0.17942524
-0.20938535 2.4561946 -0.19747147
-0.38552353 3.1578047 -0.28509441
-0.36676353 2.302501 -0.23156682
-0.12117846 2.5085752 -0.27026415
-0 0 -0
-0.23621899 1.9390785 -0.24725847
-0.36321726 2.2838302 -0.31583187
-0.1157539 2.4377708 -0.35359725
-0.096737184 1.1482719 -0.17795914
-0.12025644 0.99033076 -0.16402572
-0.16833369 1.0595181 -0.18709974
-0.046773933 1.001286 -0.18330175
-0.077299364 0.92274255 -0.17838165
-0.11473288 0.94969094 -0.19364825
-0.13815561 0.87133902 -0.18784432
-0 0 -0
-0.077003479 0.92425215 -0.21478476
-0.10949218 0.90710932 -0.2208263
-0.14090896 0.8867029 -0.22666891
-0 0 -0
-0.072253324 0.87517506 -0.23863813
-0 0 -0
-0.12275743 0.77230614 -0.22956242
-0.10427292 2.390157 0.73911697
-0.19583598 2.3865898 0.71122593
-0.28800556 2.3918495 0.69003248
-0.36900777 2.3287711 0.6508261
-0.10631988 2.4024105 0.64206034
-0.19822484 2.423486 0.62251425
-0.28910923 2.4162924 0.59831703
-0.37647206 2.3942571 0.57087821
-0.10700896 2.417026 0.54945076
-0.19960317 2.4361508 0.52946192
-0.29329142 2.4592507 0.51176846
-0.36716145 2.3459833 0.46685642
-0.10755907 2.4170399 0.45584449
-0.2017082 2.4697871 0.4413116
-0.28745273 2.4207122 0.41025284
-0.36728945 2.3527145 0.37782848
-0.10701146 2.4094684 0.36294883
-0.19546428 2.4083588 0.33941367
-0.28962106 2.4499266 0.32268256
-0.36661804 2.3622086 0.28987366
-0.10794298 2.4400504 0.27616483
-0.19774322 2.4369657 0.25270674
-0.29588076 2.5115252 0.23726968
-0.36729151 2.3742032 0.20292136
-0.10762417 2.4415298 0.18641753
-0.19983988 2.4724398 0.16523315
-0.28780326 2.4481087 0.14105006
-0.36434656 2.3603473 0.11354858
-0.10647245 2.4327741 0.096143678
-0.19474053 2.4241018 0.072772205
-0.28557745 2.4398243 0.05051231
-0.36481154 2.3699436 0.026157603
-0.1082635 2.4816296 0.0070666894
-0.19505022 2.4391568 -0.01669878
-0.28137779 2.4123309 -0.039085627
-0.36263111 2.3615346 -0.06127023
-0.10475139 2.4303484 -0.082398005
-0.1949303 2.4489532 -0.10635966
-0.27828407 2.3985391 -0.12764409
-0.36313394 2.3686669 -0.14950533
-0.10285789 2.4237814 -0.17125675
-0.19407476 2.454452 -0.19723192
-0 0 -0
-0.35473576 2.3184793 -0.23295048
-0.10285239 2.4397352 -0.26277465
-0 0 -0
-0.26863307 2.323859 -0.29610738
-0.35503203 2.324214 -0.32110927
-0.10087559 2.440413 -0.35388404
-0.089228183 1.1429323 -0.17704341
-0 0 -0
-0.16123502 1.0566356 -0.1864125
-0 0 -0
-0 0 -0
-0.1084572 0.94648206 -0.19285461
-0.1382543 0.90794671 -0.1955497
-0 0 -0
-0.071705565 0.92956388 -0.21591283
-0.10248695 0.89520991 -0.21777231
-0.13517301 0.88563377 -0.22617935
-0 0 -0
-0.064015619 0.83807611 -0.2284108
-0.10025563 0.87775302 -0.24944448
-0.11830594 0.77494186 -0.23012576
-0.089390516 2.3850231 0.73734587
-0.18851434 2.4842887 0.73998243
-0.2782321 2.436553 0.70242333
-0.37196878 2.4443963 0.68248934
-0 0 0
-0.18291259 2.4188607 0.62102616
-0.27296433 2.4064422 0.59545201
-0.3633723 2.4071093 0.57340014
-0.091173232 2.3913267 0.54347122
-0.18265803 2.4110169 0.52374607
-0.28424639 2.5145254 0.52289832
-0.3552379 2.3646877 0.47013599
-0.093178324 2.4294381 0.45806631
-0.18566068 2.4591975 0.43920758
-0.27193248 2.4165509 0.40925705
-0.35460275 2.3666449 0.37970901
-0.091847099 2.4001982 0.36146075
-0.18075725 2.4105005 0.33955282
-0.26509193 2.3669138 0.31152874
-0.36264527 2.4351103 0.29854095
-0.090586238 2.3781111 0.26908657
-0.181448 2.4202785 0.25085616
-0.27715221 2.483609 0.2344673
-0.35461858 2.3892257 0.20401551
-0.091658466 2.4162381 0.18444003
-0.18525977 2.4815798 0.16576488
-0.27244508 2.4468517 0.14087868
-0.35234439 2.3793364 0.11435591
-0.091317847 2.4273906 0.09590698
-0.18082389 2.4382098 0.073161043
-0.27093199 2.4445119 0.050573986
-0.35143152 2.3800511 0.026244869
-0.093109377 2.4842458 0.0070723789
-0.17470793 2.3675075 -0.016200615
-0.2658025 2.4070551 -0.038972989
-0.34827983 2.3647041 -0.061295863
-0.089357257 2.4179618 -0.081957914
-0.17894906 2.43715 -0.10579737
-0.26127267 2.3793559 -0.12653551
-0.34757695 2.3639383 -0.14906946
-0.087839194 2.4203794 -0.17097509
-0.22553922 3.093853 -0.24849626
-0.27607027 2.5177593 -0.22698657
-0.34844872 2.3747633 -0.23838633
-0.087558478 2.4313776 -0.2618117
-0.23256849 3.20959 -0.37688994
-0.2129451 1.9467622 -0.24788634
-0.34191301 2.3341913 -0.3221918
-0.084959857 2.4142816 -0.35001254
-0.08079613 1.1237434 -0.17399095
-0.10894985 0.99957949 -0.16532366
-0.15104033 1.0322615 -0.18194546
-0.034313891 0.99686915 -0.18240233
-0.063241728 0.88542312 -0.17100427
-0.10307007 0.95102739 -0.19364825
-0.12943074 0.88651818 -0.19075987
-0 0 -0
-0.065379828 0.92124045 -0.21388231
-0.097829163 0.90355283 -0.21965168
-0.12889388 0.8806904 -0.22471064
-0 0 -0
-0.05745266 0.81823784 -0.22290376
-0 0 -0
-0.11257589 0.76900744 -0.22815406
-0 0 0
-0.16820078 2.4127204 0.71834379
-0.26864311 2.4879153 0.71674162
-0.35946828 2.4638021 0.68727875
-0 0 0
-0.16826865 2.4228368 0.6217702
-0.25684771 2.3955197 0.59234822
-0.34065089 2.3543835 0.56033182
-0.076623306 2.3957398 0.54435706
-0.16521472 2.3740683 0.51548976
-0.26537922 2.4840877 0.51622039
-0.35694 2.4794827 0.49251425
-0.077067606 2.3926406 0.45103052
-0.16968265 2.4475224 0.43692827
-0.26126999 2.4573979 0.41589546
-0.35495201 2.4724038 0.39632028
-0 0 0
-0.16902283 2.4560215 0.34581247
-0.25807449 2.4394915 0.32086682
-0.34881851 2.4451518 0.29950398
-0.075802334 2.3726633 0.26841244
-0.17000784 2.470964 0.25599664
-0.25877747 2.4555581 0.23166488
-0.34486046 2.4258854 0.20696127
-0.076830983 2.416755 0.18444003
-0.16934784 2.4727151 0.16510023
-0.25805271 2.4544346 0.14122145
-0.33984226 2.3962879 0.11506826
-0.076327637 2.4249091 0.09578862
-0.16348661 2.4043696 0.07211417
-0.25218236 2.4103312 0.049833879
-0.33906105 2.3980043 0.026419399
-0.077676646 2.4787731 0.0070553096
-0.15970559 2.3615508 -0.016152846
-0.25123537 2.4106297 -0.039005168
-0.33474085 2.3737257 -0.061475314
-0.074426912 2.415468 -0.081856363
-0.16405866 2.439199 -0.10584062
-0.25016716 2.4146862 -0.12833035
-0.33501333 2.3798633 -0.14994122
-0.073016435 2.42187 -0.1710455
-0.20973733 3.1429191 -0.25232911
-0.2496506 2.4133985 -0.21743581
-0.44626856 3.1770256 -0.3186391
-0.071391433 2.3901291 -0.25731802
-0.21221343 3.2010462 -0.3757267
-0.19855227 1.9243479 -0.24487253
-0.30323213 2.1625724 -0.29824054
-0.069224954 2.3831012 -0.34542409
-0.072732612 1.1064672 -0.17124371
-0.10341989 1.0061187 -0.16629711
-0 0 -0
-0.027862884 0.98526138 -0.18024373
-0 0 -0
-0.095937625 0.93896633 -0.19106892
-0.12656055 0.90570027 -0.19471668
-0 0 -0
-0.059977978 0.92551291 -0.21478476
-0.092480622 0.90607005 -0.22012153
-0.12483282 0.89106667 -0.22715847
-0.026324579 0.99805588 -0.26118127
-0.051690765 0.80701864 -0.21975689
-0.089671634 0.88083202 -0.24998793
-0.10732261 0.76588285 -0.22702737
-0 0 0
-0.15205589 2.3926601 0.71208006
-0.24908958 2.4474349 0.70462608
-0.33154598 2.3743112 0.6617353
-0 0 0
-0.15388873 2.4315579 0.62375432
-0 0 0
-0.33487374 2.4191003 0.57523429
-0.060082864 2.3250012 0.52819026
-0.15330486 2.4169784 0.52459282
-0.24924967 2.4768999 0.51439917
-0.33355457 2.4223313 0.48074636
-0.063947387 2.4529934 0.46232483
-0.15472379 2.4495001 0.43710357
-0.24166776 2.4138184 0.4082613
-0.33184817 2.4168057 0.38707438
-0.060742285 2.3378785 0.35193685
-0.15289703 2.4402106 0.34344772
-0.23926896 2.4025488 0.31580871
-0.31918451 2.3400316 0.28638265
-0.061524503 2.3840103 0.26964831
-0.15235566 2.4322505 0.25188425
-0.24223155 2.4422383 0.2302637
-0.33198184 2.4427664 0.20822376
-0.061923902 2.4141905 0.18421187
-0.15454474 2.4796827 0.165499
-0.24259453 2.451998 0.14099294
-0.32848719 2.4230735 0.11625551
-0.060612079 2.3923681 0.094486721
-0.15101308 2.4422405 0.073220864
-0.23709431 2.4088483 0.049772203
-0.32661733 2.4168854 0.026604837
-0.062767975 2.4911995 0.0070894482
-0.15073377 2.4523146 -0.016767021
-0.23556143 2.4031701 -0.038860351
-0.32697895 2.4262614 -0.062782757
-0.059555173 2.4138808 -0.081788652
-0.14890614 2.4371681 -0.10571086
-0.23553982 2.4181635 -0.12843592
-0.32160196 2.3907762 -0.15050162
-0.058130804 2.4212751 -0.17097509
-0.19075014 3.149122 -0.25272837
-0.23666923 2.4337204 -0.21913174
-0.42676631 3.179704 -0.3186391
-0.057408523 2.4193473 -0.2604208
-0.191972 3.1923738 -0.37456346
-0.1433596 1.4782146 -0.18798676
-0.20431191 1.5250913 -0.21014863
-0.055077191 2.4042587 -0.34843525
-0.068292961 1.1463541 -0.17734866
-0.10834461 1.1216493 -0.18527931
-0 0 -0
-0 0 -0
-0 0 -0
-0.08839529 0.92100024 -0.18729913
-0.11944794 0.89482605 -0.19221763
-0 0 -0
-0 0 -0
-0.086455524 0.90178257 -0.21894692
-0.12129235 0.90623099 -0.23083021
-0 0 -0
-0 0 -0
-0.077945367 0.81526321 -0.23123883
-0.10300318 0.76937997 -0.22787237
-0 0 0
-0.13847047 2.412689 0.71777445
-0.22958578 2.4020252 0.69113392
-0.3183732 2.3868113 0.66466212
-0 0 0
-0.13990541 2.4488986 0.62797052
-0.22623993 2.3859236 0.58924443
-0.31696293 2.3979504 0.56973189
-0.04708365 2.3896749 0.54280686
-0.13601293 2.3749411 0.51527798
-0.23303422 2.4676578 0.51217324
-0.32482356 2.471029 0.49000633
-0 0 0
-0.1391307 2.4405742 0.43535027
-0.2312787 2.4623828 0.41622737
-0.31906623 2.4344649 0.38958174
-0.047730204 2.405437 0.36205599
-0.13618961 2.4104531 0.3391355
-0.22590578 2.4187806 0.31775412
-0.32403976 2.4896097 0.30443954
-0.046993036 2.3893104 0.27021009
-0.14096266 2.4957058 0.25836128
-0.22678076 2.4387219 0.22979662
-0.31621829 2.4388285 0.20771877
-0.04677888 2.3975775 0.18291888
-0.13977443 2.4885542 0.16603073
-0.22634621 2.4405169 0.14025027
-0.31425384 2.4299965 0.11649296
-0.046008356 2.3966908 0.094644524
-0.13602494 2.4431212 0.073220864
-0.2228604 2.4162312 0.049895555
-0.31267628 2.425786 0.026681192
-0.047366757 2.4855387 0.0070723789
-0.13745096 2.4851439 -0.016985396
-0.21962279 2.3916264 -0.038651165
-0.31641826 2.4619336 -0.063654386
-0.044372369 2.3942156 -0.081111595
-0.13981356 2.5447748 -0.11033896
-0.22015356 2.4135964 -0.12811919
-0.30819625 2.4026039 -0.15112431
-0.043201752 2.4175966 -0.1706934
-0.17109892 3.1442611 -0.25224924
-0 0 -0
-0.40497425 3.1644955 -0.31686008
-0.043122184 2.4514654 -0.26384458
-0.17056018 3.1597714 -0.37060842
-0 0 -0
-0.19356942 1.5155052 -0.20866013
-0.041286364 2.4619441 -0.35675183
-0.058885492 1.1023421 -0.17048059
-0.095330007 1.0544837 -0.17408468
-0.1274018 0.99870998 -0.17558855
-0 0 -0
-0 0 -0
-0.084583141 0.9420253 -0.19146574
-0.117659 0.92464972 -0.19846523
-0 0 -0
-0 0 -0
-0.081441611 0.90810484 -0.22035645
-0.11057509 0.86656344 -0.22054933
-0 0 -0
-0 0 -0
-0.071827278 0.80326504 -0.2277064
-0.099495262 0.77951545 -0.23068911
-0 0 0
-0.12371293 2.4144504 0.71805912
-0.2132166 2.3851957 0.68590224
-0.3021414 2.3762884 0.66120315
-0 0 0
-0.12310112 2.4148808 0.61904204
-0.21185315 2.3901687 0.58996069
-0.29871622 2.3718436 0.56308305
-0.031745404 2.3401897 0.5315122
-0.12238596 2.3942761 0.51930034
-0.21418679 2.427094 0.50347173
-0.3109965 2.4836853 0.4921284
-0 0 0
-0.12400299 2.4384322 0.43482426
-0.20599498 2.3478372 0.39664412
-0.30338863 2.4304965 0.38864148
-0.032820761 2.3948081 0.36041906
-0.12259183 2.4349799 0.34247398
-0.20968181 2.4043162 0.31567898
-0.30057791 2.4255433 0.29637411
-0.032358501 2.3915408 0.2704348
-0.12554665 2.4945371 0.25815567
-0.21413755 2.4668489 0.23231879
-0.303323 2.4575348 0.20914957
-0.032146737 2.4038014 0.18337521
-0.12395407 2.4784031 0.16529962
-0.21334745 2.4647367 0.14156422
-0.30312067 2.4626122 0.11796515
-0.031327765 2.3989263 0.094723418
-0.12103166 2.4439099 0.073220864
-0.20803048 2.4175532 0.049895555
-0.29778606 2.427659 0.026681192
-0.03210197 2.4847827 0.0070695342
-0.12210163 2.483943 -0.016971748
-0.20528519 2.3969138 -0.03871553
-0.29718035 2.4300914 -0.062782757
-0.030362226 2.4494071 -0.08297351
-0.1284321 2.6324 -0.11410198
-0.20576289 2.4198768 -0.12838313
-0.2955038 2.4212918 -0.15218286
-0.028495573 2.4287882 -0.171468
-0.15185092 3.1462471 -0.25232911
-0 0 -0
-0.30714092 2.5228684 -0.25242066
-0.027863115 2.4327941 -0.2618117
-0.14903381 3.1161149 -0.36537385
-0 0 -0
-0.18199635 1.4979767 -0.20608909
-0.025337603 2.3829823 -0.34528071
-0.051420618 1.0878748 -0.16819122
-0.088940829 1.0560319 -0.17424691
-0.12067813 0.99458313 -0.17472951
-0 0 -0
-0 0 -0
-0.077494845 0.92689919 -0.18829118
-0.11139571 0.92049927 -0.19742396
-0 0 -0
-0 0 -0
-0.075706288 0.90665019 -0.2198866
-0.10805959 0.89032596 -0.22642413
-0 0 -0
-0 0 -0
-0 0 -0
-0 0 -0
-0.016330907 2.4076622 0.74383974
-0.10755729 2.3854773 0.70923287
-0.19475085 2.3404734 0.67268527
-0.29357234 2.4278607 0.67503917
-0.017635612 2.3795764 0.63535339
-0.10862844 2.4233332 0.62102616
-0.19853993 2.4078763 0.59401947
-0.29422307 2.4577143 0.58302945
-0.017668191 2.378371 0.54014927
-0.10778046 2.3969347 0.51972371
-0.19856948 2.4195781 0.50165045
-0.29818568 2.5060079 0.49617961
-0.018544229 2.4223089 0.45639995
-0.10881889 2.4342296 0.43394762
-0.20104405 2.4650357 0.41622737
-0.29405296 2.4793894 0.39616358
-0.017931297 2.3692546 0.35655001
-0.10725525 2.4267824 0.34122205
-0.1987693 2.4529967 0.32190439
-0.29033098 2.4667788 0.3011893
-0.017661635 2.3887134 0.27009773
-0.10716496 2.4256992 0.25095898
-0.1957166 2.4274275 0.22848883
-0.28487441 2.430649 0.20670879
-0.017483272 2.4159184 0.18428792
-0.10804494 2.4631677 0.16423617
-0.19854005 2.46998 0.14179273
-0.28765681 2.4614494 0.11782268
-0.01660764 2.3990734 0.094723418
-0.10586057 2.4406118 0.073101215
-0.19462557 2.4367232 0.05026561
-0.28253764 2.4264607 0.026648469
-0.016848244 2.483933 0.0070666894
-0.10449497 2.4296975 -0.016596418
-0.18930681 2.3821807 -0.038458068
-0.28260979 2.4348481 -0.062859669
-0.015119686 2.4155674 -0.081822507
-0.10368013 2.4315109 -0.10536484
-0.19043994 2.4151208 -0.12806639
-0.28018215 2.4190936 -0.15193379
-0.013491794 2.4109623 -0.17020047
-0.10360169 2.4599321 -0.19723192
-0.19316065 2.4545443 -0.22064915
-0.28309044 2.4505658 -0.24500816
-0.0127238 2.3931496 -0.257532
-0.10393699 2.4937751 -0.29232234
-0.18958747 2.4172299 -0.30690688
-0.18153802 1.574855 -0.21650857
-0.010635322 2.365279 -0.34269968
-0.05814359 1.4140284 -0.21855703
-0.080616795 1.0329477 -0.17035313
-0.11761497 1.0217289 -0.17936833
-0.0037519874 1.0063057 -0.18402128
-0 0 -0
-0.071125053 0.91856247 -0.18650548
-0.10708408 0.93282574 -0.19992299
-0 0 -0
-0 0 -0
-0.069467321 0.89837551 -0.21777231
-0.10148548 0.88134009 -0.2239763
-0 0 -0
-0 0 -0
-0 0 -0
-0 0 -0
-0.001537685 2.3771427 0.73439413
-0.092545241 2.3765135 0.70638573
-0.18644102 2.4202216 0.69526416
-0.27636302 2.4095049 0.66945153
-0.0030517222 2.3931663 0.63896489
-0.092072167 2.3803926 0.60986555
-0.18287542 2.3974297 0.5911544
-0.27430752 2.4169185 0.5729416
-0.0030580612 2.3657575 0.53727025
-0.091857962 2.3662999 0.51294935
-0.17786478 2.3436072 0.48566404
-0.27763563 2.4619637 0.48711258
-0.0036778843 2.4204116 0.45602962
-0.093653098 2.4289486 0.4328956
-0.18472902 2.4504893 0.41357201
-0.27817237 2.4752581 0.39522332
-0.0034529718 2.4108524 0.36280003
-0.091346145 2.4006767 0.33746624
-0.1890436 2.525363 0.33124247
-0.2691403 2.4142499 0.29456842
-0.0030119314 2.3947389 0.27077183
-0.092127904 2.4223351 0.25054774
-0.18347977 2.4643264 0.23185171
-0.2775391 2.5006869 0.21251616
-0.0026580482 2.4149833 0.18421187
-0.092026599 2.4398541 0.16264099
-0.18330692 2.4701562 0.1417356
-0.26826391 2.4244485 0.11597057
-0.0018845322 2.3961325 0.094605066
-0.090622962 2.4342234 0.072891846
-0.17981742 2.4398656 0.050306723
-0.26698652 2.4221852 0.02658302
-0.001589335 2.4569895 0.0069898772
-0.090395056 2.4522777 -0.016746551
-0.17607519 2.4022441 -0.038763802
-0.26395303 2.4027507 -0.061988041
-0.00029935956 2.4286072 -0.082262591
-0.0886494 2.429106 -0.10523508
-0.17655852 2.4291916 -0.12875266
-0.26478991 2.4158068 -0.15162246
0.0013018465 2.4109998 -0.17020047
-0.087180093 2.4236636 -0.19427744
-0.23032914 3.1758978 -0.28536218
-0.26329112 2.4087312 -0.24065951
0.00193365 2.3603721 -0.25400123
-0.086023532 2.4209146 -0.28371435
-0.2305955 3.1911504 -0.40498149
-0.15221368 1.3956912 -0.1917454
0.0037903374 2.3118579 -0.33495671
-0.083940513 2.4000638 -0.37087542
-0.077531278 1.0786966 -0.17781623
-0 0 -0
0.004958991 2.0598364 -0.37667701
-0 0 -0
-0.066462867 0.93266857 -0.18928322
-0.099669054 0.91790754 -0.19659096
0 0 -0
-0 0 -0
-0 0 -0
-0.092610739 0.85013831 -0.21589847
0 0 -0
-0 0 -0
-0 0 -0
-0.086169511 0.79075342 -0.23350582
0.013126884 2.3914387 0.73882174
-0.077898636 2.3751204 0.70581627
-0.17131549 2.4174843 0.69416279
-0.25481573 2.3488641 0.65215653
0.011585564 2.3834782 0.63638526
-0.075857997 2.3315322 0.59721684
-0.16904455 2.4110999 0.59425819
-0.25843412 2.4088778 0.57064891
0.011580809 2.3910856 0.5430283
-0.077719904 2.3785408 0.51548976
-0.16600165 2.3808012 0.49315134
-0.26252407 2.4636209 0.48711258
0.011069211 2.3977866 0.45177111
-0.077089071 2.37831 0.42377833
-0.17023438 2.4594469 0.41489968
-0.26131085 2.4612043 0.39271596
0.011237477 2.3890734 0.35952622
-0.076772049 2.406141 0.33816177
-0.16919589 2.4631648 0.32294193
-0.25172338 2.3911741 0.29155895
0.011696508 2.3976932 0.2711089
-0.077136189 2.4188781 0.25013649
-0.17106871 2.5051384 0.23558824
-0.25699806 2.4527915 0.20830792
0.012215287 2.4259219 0.18504849
-0.076676339 2.4284055 0.16184342
-0.16848573 2.4762146 0.14202124
-0.25618425 2.4528723 0.1172528
0.012833931 2.3990965 0.094723418
-0.075001895 2.4127543 0.072233818
-0.16349599 2.4209726 0.049895555
-0.25077432 2.4108481 0.026441215
0.013398676 2.4409535 0.0069443597
-0.075131528 2.4457893 -0.01669878
-0.16374293 2.4391937 -0.039343089
-0.24930811 2.4053195 -0.062013675
0.014440052 2.4015794 -0.081348568
-0.073894568 2.4345975 -0.10545135
-0.16125229 2.4242506 -0.12843592
-0.25088567 2.4263208 -0.15218286
0.016028846 2.4009714 -0.1694963
-0.071801901 2.4072149 -0.19291997
-0.21195899 3.1941464 -0.2868796
-0.24809825 2.406342 -0.24026416
0.016859155 2.4239469 -0.26084879
-0.070788138 2.4084907 -0.28220215
-0.21133779 3.1974552 -0.40560937
-0.17446472 1.6962221 -0.23288202
0.01859116 2.3909619 -0.3464278
-0.069070011 2.3955944 -0.3701123
-0.082945243 1.2622929 -0.20799306
-0.1019481 0.9927159 -0.17404225
0.014353902 1.6800776 -0.3072418
-0 0 -0
-0.059465513 0.91349781 -0.18531501
-0.095429584 0.93212366 -0.19950649
0 0 -0
-0 0 -0
-0 0 -0
-0.088978 0.8661226 -0.219815
0 0 -0
-0 0 -0
-0 0 -0
-0.084749036 0.82467413 -0.24336432
0.027666949 2.3798487 0.73527968
-0.062991627 2.363096 0.70211488
-0.15517537 2.3983438 0.6883803
-0.24589117 2.4040847 0.66705686
0.026199469 2.3823962 0.63612729
-0.063160889 2.3929641 0.61284173
-0.1541232 2.4101536 0.59378076
-0.24002673 2.3745866 0.56216604
0.026048595 2.3724425 0.53882045
-0.063020304 2.3750648 0.51464295
-0.15294325 2.4062085 0.49821037
-0.24681476 2.4593275 0.48595509
0.026014002 2.419292 0.45584449
-0.062727295 2.3875959 0.42535633
-0.1541474 2.4446983 0.41224435
-0.23775512 2.3782454 0.37923887
0.025564065 2.3583064 0.35491309
-0.062083319 2.4095364 0.33857906
-0.15141821 2.421603 0.31736502
-0.24448496 2.4677534 0.30070779
0.026364481 2.3936019 0.27065951
-0.062318381 2.4203002 0.25023928
-0.15285447 2.4604301 0.23129123
-0.23989034 2.4334977 0.20654047
0.02689974 2.4078548 0.18367946
-0.061393932 2.4138682 0.16084643
-0.15396708 2.488163 0.14264967
-0.23907799 2.4335225 0.11625551
0.02764608 2.406966 0.09503904
-0.059946846 2.4031765 0.071934715
-0.149618 2.437897 0.05022449
-0.23772922 2.4302552 0.026637562
0.028143337 2.4208267 0.0068874615
-0.059803624 2.4332085 -0.016610065
-0.14944255 2.4511306 -0.039520089
-0.23648384 2.426703 -0.062526397
0.02912703 2.3974483 -0.081213154
-0.058688767 2.4240184 -0.10497555
-0.14625402 2.4232011 -0.12833035
-0.23406212 2.4079471 -0.1509375
0.030760627 2.4008279 -0.1694963
-0.057809129 2.4404955 -0.19555506
-0.19223638 3.1933982 -0.28670108
-0.23563206 2.4315903 -0.24263616
0.031705864 2.4218094 -0.26063478
-0.057947874 2.4922872 -0.29197338
-0.19123974 3.190769 -0.40460476
-0.15328193 1.5858194 -0.21759111
0.033165105 2.3838758 -0.34542409
-0.057149753 2.5184886 -0.38903761
-0.11913256 2.0005476 -0.32951164
-0.098409861 1.0197984 -0.17868111
0.0350154 2.3851862 -0.43621859
-0 0 -0
-0.05495492 0.93243551 -0.18908481
-0.089333817 0.9287973 -0.19867349
0.030260524 1.9347522 -0.42911842
-0 0 -0
-0 0 -0
-0.087295324 0.9042908 -0.22936152
0.016185531 0.97601753 -0.25536036
-0 0 -0
-0 0 -0
-0 0 -0
0.041946501 2.3614836 0.72967136
-0.048510421 2.3643963 0.70239961
-0.13978231 2.3877347 0.68507612
-0.229568 2.3892357 0.66253346
0.04093295 2.3889527 0.63793302
-0.047809724 2.3603756 0.60440922
-0.13921982 2.4091148 0.5933032
-0.22710705 2.3934567 0.56629282
0.04058845 2.371263 0.53859901
-0.048226774 2.3646584 0.5123142
-0.13727817 2.3914585 0.49497262
-0.22187716 2.3562679 0.46531311
0.04031036 2.386662 0.44973448
-0.048393171 2.4036849 0.42816165
-0.14250508 2.5046706 0.42220193
-0.230904 2.4622593 0.39240256
0.040487092 2.3848007 0.35893098
-0.047394674 2.4148226 0.33927459
-0.13694733 2.4294167 0.31827292
-0.22933851 2.469207 0.30070779
0.040675957 2.3715374 0.2681877
-0.046861984 2.3898072 0.24705219
-0.13558488 2.4225528 0.22764811
-0.22687919 2.4557605 0.20830792
0.041708063 2.4096382 0.18383156
-0.046408322 2.405221 0.16024823
-0.13814165 2.4790928 0.14207837
-0.22524039 2.4468794 0.11682539
0.042220749 2.395761 0.094605066
-0.045181308 2.4024997 0.071904801
-0.13471165 2.4397674 0.050245047
-0.22290422 2.4326637 0.026648469
0.042712566 2.4046111 0.0068419441
-0.044780433 2.4285307 -0.016575946
-0.13615103 2.4839494 -0.040035009
-0.22013578 2.4121797 -0.062116221
0.043709036 2.3902295 -0.080976188
-0.04363364 2.4143438 -0.10454302
-0.13911118 2.566644 -0.13587919
-0.21982561 2.4153016 -0.15131111
0.045340054 2.3926153 -0.16893296
-0.042606067 2.4278476 -0.19451699
-0.17215469 3.1855667 -0.28589773
-0.21926925 2.4171336 -0.24105483
0.046335824 2.4096403 -0.25935087
-0.04131189 2.4141436 -0.28278378
-0.17128502 3.184948 -0.40372574
-0.10953619 1.2107698 -0.16603501
0.04797022 2.3925328 -0.34671459
-0.041433804 2.5029817 -0.38659567
-0.10448764 1.9569004 -0.32221079
-0.092327856 1.0223453 -0.17902473
0.049445227 2.3750918 -0.43441975
-0 0 -0
-0.047527764 0.90045613 -0.18253727
-0.083545484 0.92835385 -0.19846523
0.035052788 1.6095055 -0.35702133
-0 0 -0
-0 0 -0
-0.077731952 0.86038977 -0.21810152
0.031491857 1.3859906 -0.36266738
-0 0 -0
-0 0 -0
-0.071513362 0.79124993 -0.23322415
0.056275696 2.3544955 0.7276051
-0.034125887 2.3732762 0.70496207
-0.12538028 2.3933473 0.68645287
-0.2148173 2.3896394 0.66226745
0.054803755 2.3548505 0.62890446
-0.033093356 2.3441572 0.60019302
-0.12428492 2.4070144 0.59258693
-0.21224481 2.3928661 0.56583434
0.055001453 2.3651199 0.53727025
-0.033424016 2.3443878 0.50786853
-0.12345397 2.4088821 0.49841273
-0.21205881 2.4103668 0.47573054
0.054931261 2.3853874 0.44954932
-0.033891514 2.4216557 0.43131763
-0.12478525 2.4592092 0.41440183
-0.21544679 2.4596939 0.3917757
0.054685004 2.3657238 0.35610357
-0.032469857 2.4071465 0.33816177
-0.12054621 2.4005017 0.31438202
-0.21718441 2.5051835 0.30492109
0.055365488 2.3772037 0.26886183
-0.032210916 2.3910444 0.247155
-0.12586951 2.5267563 0.2373631
-0.21411727 2.483911 0.21058036
0.056048449 2.3903971 0.18238646
-0.031741183 2.4124446 0.16071351
-0.12198848 2.460948 0.14099294
-0.21201697 2.469115 0.11782268
0.056421604 2.3744793 0.093776584
-0.030438995 2.4027317 0.071904801
-0.11920006 2.4295635 0.050018907
-0.20771809 2.4309967 0.026615744
0.057203338 2.3933067 0.0068106498
-0.029878408 2.4287598 -0.016575946
-0.11818585 2.4288116 -0.039133903
-0.20643243 2.426434 -0.062449489
0.058423191 2.3919144 -0.081043884
-0.028759068 2.4095712 -0.10432676
-0.11885493 2.4736884 -0.130917
-0.20415783 2.4066601 -0.15068844
0.060020015 2.392292 -0.16893296
-0.027503533 2.4101222 -0.19307968
-0.14846013 3.1000094 -0.27813217
-0.20644552 2.4422312 -0.24342683
0.061095014 2.4083169 -0.25924388
-0.026498206 2.4143515 -0.28278378
-0.14739718 3.0947704 -0.39217278
-0.096945643 1.1502063 -0.1576453
0.062986448 2.4050546 -0.34857866
-0.025889721 2.4854004 -0.38384843
-0.099090606 2.0974672 -0.345249
-0.083905928 0.99736929 -0.17455769
0.064256154 2.3835933 -0.43603867
-0 0 -0
-0.04305182 0.92324913 -0.18710071
-0.077684261 0.92689961 -0.19804873
0.028934747 1.0364065 -0.22993127
-0 0 -0
-0 0 -0
-0.075053304 0.89176768 -0.22593457
0.029250054 1.01346 -0.2652306
-0 0 -0
-0 0 -0
-0 0 -0
0.070635475 2.3512409 0.72671962
-0.019563098 2.373441 0.70496207
-0.11051501 2.3902304 0.68535149
-0.20248272 2.4187698 0.66998369
0.068683714 2.335155 0.62374532
-0.018925726 2.3714406 0.60713738
-0.10867509 2.3893001 0.5880506
-0.19835894 2.4038241 0.56812698
0.069197334 2.3540158 0.53483415
-0.019260701 2.3719132 0.51379609
-0.10805333 2.3958979 0.49557969
-0.198465 2.4262919 0.47862431
0.06936612 2.3781292 0.44825321
-0.019101504 2.4306786 0.4328956
-0.10828771 2.4284036 0.40909111
-0.20259427 2.4885325 0.39616358
0.068939522 2.3564477 0.35476425
-0.017517256 2.382544 0.33468416
-0.10703703 2.4289329 0.31801352
-0.1989406 2.4708459 0.30058742
0.07009685 2.3817854 0.2694236
-0.01750266 2.3862238 0.24664097
-0.10732295 2.4578536 0.23082417
-0.19831586 2.4782252 0.20999122
0.070478685 2.3820348 0.18177801
-0.016910082 2.4086027 0.16044763
-0.10649631 2.4526732 0.14047877
-0.19638668 2.464395 0.11753774
0.071079671 2.3770847 0.093894936
-0.015760828 2.4128685 0.072203904
-0.10454749 2.4362423 0.050142258
-0.19335097 2.4392033 0.0266921
0.071136616 2.3679223 0.0067395279
-0.014975254 2.4288974 -0.016575946
-0.10289851 2.4205003 -0.038989078
-0.19075394 2.4176893 -0.062193129
0.072640598 2.3765266 -0.080536097
-0.013904153 2.3977137 -0.10380772
-0.10166784 2.4264803 -0.12838313
-0.18899572 2.4028926 -0.15037709
0.074261792 2.3779204 -0.16794711
-0.012793659 2.4251974 -0.19427744
-0.10256019 2.4570053 -0.22038136
-0.19347744 2.4692457 -0.24599649
0.074399315 2.3611896 -0.25421521
-0.011813289 2.4412849 -0.28592452
-0.10628483 2.5623338 -0.32461306
-0.17414021 2.2294502 -0.30541241
0.077294677 2.3907745 -0.34657118
-0.010977523 2.5645745 -0.39605829
-0.089500755 2.1778951 -0.35839054
-0.076865889 0.98607957 -0.17249599
0.078489907 2.3713567 -0.43388012
-0 0 -0
-0.038575437 0.95287544 -0.19305301
-0.071465515 0.92053288 -0.19659096
0.070852816 2.0802248 -0.46159461
-0 0 -0
-0 0 -0
-0.068600103 0.87964505 -0.22275238
0.070834428 2.0236225 -0.52970195
-0 0 -0
-0 0 -0
-0.062843017 0.80546039 -0.23716755
0.084473751 2.3345313 0.72170162
-0.0050036074 2.3754337 0.70553154
-0.095038086 2.3706915 0.67956913
-0.18964961 2.4459155 0.67716777
0.083216637 2.3404827 0.62529302
-0.0044102231 2.3908873 0.61209768
-0.094165243 2.3938034 0.58900559
-0.18501341 2.4234362 0.57248312
0.083466835 2.3486741 0.53372681
-0.0047298237 2.3837147 0.5163365
-0.092816696 2.3828158 0.49274665
-0.18238994 2.4118092 0.47553763
0.083193816 2.3560529 0.44417989
-0.0041172556 2.3903852 0.42570701
-0.092059314 2.3945332 0.40328249
-0.18117093 2.4079854 0.38315666
0.08336214 2.3549922 0.35461545
-0.0029003185 2.3845873 0.3349624
-0.091004148 2.3998187 0.31412265
-0.18245125 2.4542 0.29842058
0.083579488 2.3495333 0.26582831
-0.0028643138 2.3892703 0.24694939
-0.091829196 2.4475214 0.22979662
-0.18435363 2.496289 0.21142201
0.085271277 2.3865399 0.18215831
-0.0021440964 2.4236281 0.16144462
-0.090217784 2.4203572 0.13859354
-0.17972377 2.444634 0.11654045
0.085195936 2.3636224 0.093382068
-0.00095188559 2.403924 0.071934715
-0.089156188 2.4248486 0.049895555
-0.17801619 2.4353573 0.026637562
0.085411452 2.360446 0.0067196139
-7.1361581e-05 2.4229436 -0.016534999
-0.088408031 2.4310782 -0.039149992
-0.17613322 2.4218054 -0.062270038
0.087001339 2.3700438 -0.08033298
0.00080955005 2.4017501 -0.10398073
-0.086920045 2.4310501 -0.12859429
-0.17381537 2.3980343 -0.15000349
0.088925548 2.3794134 -0.16808793
0.0020804491 2.4172559 -0.19363864
-0.086809143 2.4386761 -0.21868543
-0.17832279 2.4703863 -0.24599649
0.089634098 2.3805597 -0.25635508
0.0031805474 2.4522369 -0.28720409
-0.085445814 2.418184 -0.30627903
-0.17410716 2.4202204 -0.33139342
0.091620311 2.381355 -0.34528071
0.0045954119 2.4766364 -0.38247481
-0.049975939 1.4299161 -0.23524956
-0.073494181 1.0238715 -0.17902473
0.093270242 2.3767281 -0.43495941
0.0033151461 1.4247992 -0.27447698
-0.032929793 0.95897138 -0.19424348
-0.065815888 0.92095405 -0.19659096
0 0 -0
0 0 -0
-0 0 -0
-0 0 -0
0.094625555 2.2996051 -0.60208356
0 0 -0
-0 0 -0
-0 0 -0
0.098998606 2.338742 0.72317749
0.0095525598 2.3706264 0.70410794
-0.079381146 2.338563 0.67020708
-0.17161891 2.4047267 0.66546041
0.097696766 2.3428242 0.62606686
0.01027254 2.3937755 0.61284173
-0 0 0
-0.16850469 2.4012222 0.5669806
0.097714007 2.3442204 0.53284097
0.0098599456 2.374903 0.51443124
-0.077552013 2.363765 0.48869947
-0.17187111 2.474551 0.48769134
0.09728238 2.3466611 0.44251353
0.010597746 2.4011948 0.42763564
-0.077333167 2.3940673 0.40311655
-0.16700488 2.4179194 0.38456705
0.097728431 2.3524601 0.35431781
0.011726417 2.38357 0.33482325
-0.076466389 2.4062784 0.31490085
-0.16725409 2.4532926 0.29817984
0.097911537 2.3469906 0.26560357
0.011854958 2.4011791 0.2481831
-0.074436776 2.3724084 0.22269721
-0.16889864 2.4953849 0.2112537
0.099537745 2.3770058 0.18147378
0.012627493 2.4046378 0.16018178
-0.075365052 2.4208653 0.13859354
-0.16780806 2.4915347 0.11872499
0.099528775 2.359062 0.093224265
0.013815545 2.4068832 0.07202445
-0.074367732 2.4283481 0.049957231
-0.1652734 2.4693282 0.026997527
0.099301174 2.3458898 0.006679785
0.01489935 2.4398978 -0.01665101
-0.072794832 2.4085882 -0.038779892
-0.16458966 2.4727137 -0.063551836
0.10004435 2.3345172 -0.079148121
0.015636934 2.4156866 -0.10458628
-0.071381062 2.4105763 -0.12748572
-0.16055098 2.420965 -0.15137339
0.10287314 2.3638744 -0.16703168
0.016821748 2.4042394 -0.19260058
-0.071492195 2.4272161 -0.21761434
-0.16335809 2.4744127 -0.24629299
0.10297759 2.3511589 -0.25325227
0.01801304 2.4233687 -0.28383067
-0.070172273 2.4037876 -0.30439538
-0.15938376 2.4232206 -0.33166409
0.10587738 2.3728385 -0.34413359
0.019199355 2.4024429 -0.37102807
-0.068081431 2.3632755 -0.38872963
-0 0 -0
0.10785182 2.376111 -0.43495941
0.018156864 2.1454742 -0.41332337
-0.026741158 0.94837838 -0.19206096
-0.057869397 0.88620466 -0.18909384
0.10387891 2.2410874 -0.49753487
0 0 -0
-0 0 -0
-0 0 -0
0 0 -0
0 0 -0
-0 0 -0
-0.052450918 0.79851133 -0.23491418
0.11339326 2.339045 0.72347271
0.02411776 2.3724406 0.7046774
-0.065270953 2.3476548 0.67268527
-0.15453994 2.3701441 0.65561551
0.11253199 2.351831 0.62864649
0.02483906 2.3820429 0.60986555
-0.063889682 2.361774 0.58088803
-0.15550891 2.4294095 0.57340014
0.11200285 2.3416286 0.53239805
0.024331348 2.3650248 0.5123142
-0.063699417 2.3886702 0.49375844
-0.15377128 2.429534 0.47862431
0.11130557 2.3381674 0.44103232
0.025112901 2.3804111 0.42395368
-0.062358309 2.3836532 0.40129101
-0.1534058 2.4386127 0.38770124
0.11145443 2.3370004 0.35208568
0.02632961 2.3814728 0.33454508
-0.061674885 2.4057109 0.31477112
-0.15121472 2.4384196 0.29625377
0.11235806 2.347338 0.26571593
0.026499981 2.3931041 0.24736063
-0.060556702 2.3996937 0.22521937
-0.15236029 2.4764826 0.20957038
0.11345129 2.362407 0.18040898
0.027381836 2.404515 0.16018178
-0.060359832 2.4152937 0.13825077
-0.15117498 2.4705834 0.11768021
0.11467725 2.3723795 0.093776584
0.028441198 2.3947592 0.071665518
-0.059025783 2.410768 0.049587179
-0.14714673 2.4213889 0.026463032
0.11369342 2.3452363 0.006679785
0.0297231 2.4277618 -0.016569121
-0.058086857 2.4119883 -0.038828168
-0.14923346 2.4706833 -0.063474931
0.11510054 2.3488331 -0.079655923
0.030345643 2.4065545 -0.104197
-0.056448106 2.404979 -0.12716898
-0.14581305 2.423897 -0.15149792
0.1166334 2.3482542 -0.16597539
0.031481937 2.3971138 -0.19204162
-0.056388792 2.4186473 -0.216811
-0.15239391 2.5458949 -0.25331017
0.1175013 2.352469 -0.25346628
0.032801352 2.4172537 -0.28313273
-0.055695955 2.416075 -0.3059023
-0.14610408 2.4508572 -0.33531764
0.11993304 2.3622603 -0.34269968
0.034037832 2.4091971 -0.37209642
-0.053691167 2.3685811 -0.38954082
-0.059403986 0.99912804 -0.17455769
0.12258121 2.3783514 -0.43549904
0.031922951 2.1865597 -0.42126822
-0 0 -0
-0.053296804 0.90118861 -0.19221763
0 0 -0
0.021848945 1.4514186 -0.33616525
-0 0 -0
-0 0 -0
0.05209906 0.97476041 -0.25536036
0 0 -0
-0 0 -0
-0.049773935 0.83617288 -0.24589936
0.12779535 2.3392591 0.72376788
0.038611826 2.3684139 0.70353854
-0.051093817 2.3585837 0.67571419
-0.1439144 2.4374447 0.67397487
0.1258143 2.3298719 0.62297142
0.039261993 2.3702221 0.60688937
-0.048726909 2.3300829 0.57300913
-0.13992479 2.4186571 0.57064891
0.12579048 2.3301859 0.52996194
0.03884241 2.364831 0.5123142
-0.048981316 2.3860788 0.49315134
-0.13953267 2.4421871 0.48093927
0.12538645 2.3325338 0.44010654
0.039751206 2.3821809 0.42430434
-0.047790531 2.3869483 0.40178886
-0.13860776 2.4424663 0.38817137
0.12589821 2.3382471 0.35238329
0.04085644 2.3763156 0.33384952
-0.046989881 2.4100096 0.31528991
-0.13580708 2.4313719 0.29529071
0.12627657 2.3376746 0.26470476
0.040977888 2.3809617 0.24612691
-0.045413118 2.3781204 0.22316429
-0.13705184 2.4753811 0.20940207
0.12789066 2.3606706 0.18033291
0.041820444 2.3863444 0.15898541
-0.045501098 2.4136224 0.13813652
-0.13584825 2.4684725 0.11753774
0.12814438 2.3516765 0.092987552
0.043026611 2.3885434 0.071486056
-0.044159126 2.4070864 0.049504947
-0.13381341 2.4502029 0.026768459
0.12720859 2.3285184 0.006634267
0.044361729 2.4135361 -0.016473582
-0.043339901 2.4152985 -0.03887644
-0.13499133 2.4885221 -0.063910745
0.12912527 2.3410971 -0.07941895
0.044999052 2.4003296 -0.10393748
-0.041742288 2.4082754 -0.12732735
-0.13179864 2.4406917 -0.15249421
0.13154019 2.3564582 -0.16660917
0.046055313 2.389899 -0.19148265
-0.041649818 2.4249229 -0.21734655
-0.13431501 2.5010729 -0.24876384
0.13132094 2.3407838 -0.25228932
0.047397893 2.405091 -0.28173685
-0.04073593 2.4084358 -0.3048977
-0.13037558 2.4388454 -0.33355853
0.13386288 2.3515992 -0.3412658
0.048699602 2.4030144 -0.37118068
-0.039091583 2.3649194 -0.38889185
-0.052695565 0.98865265 -0.17266779
0.13660561 2.367734 -0.4337002
0.046438202 2.2393365 -0.43148309
-0.015678292 0.98489493 -0.19940212
-0.049215239 0.92884642 -0.19804873
0.11342184 1.9336177 -0.42955145
0.041900117 1.9772162 -0.45799693
-0 0 -0
-0 0 -0
0.066770814 1.1202477 -0.29357585
0.023900134 1.089226 -0.29606864
-0 0 -0
-0 0 -0
0.1404652 2.3107741 0.71520776
0.052670259 2.3470483 0.69727468
-0.036591012 2.3569303 0.67516345
-0.12809032 2.4219174 0.66945153
0.1398757 2.3251982 0.62193954
0.053672738 2.3641257 0.60540134
-0.034701433 2.3487866 0.57754546
-0.12533283 2.4243305 0.57179528
0.14032002 2.3332639 0.53084779
0.053440191 2.3684564 0.513161
-0.034339689 2.3863344 0.49315134
-0.12404549 2.4331977 0.47901011
0.13963749 2.3307397 0.43992141
0.054434642 2.384845 0.42483032
-0.033075143 2.3822668 0.40095907
-0.12157227 2.4028289 0.38174623
0.13982849 2.3305211 0.35134161
0.055089992 2.3611701 0.331763
-0.0320425 2.398355 0.31373358
-0.11975245 2.4093547 0.29252198
0.14085664 2.3408232 0.26515418
0.055307798 2.3687325 0.24489319
-0.031026807 2.3942831 0.22465891
-0.12014633 2.4413419 0.20645629
0.14207283 2.3548651 0.17995262
0.056343969 2.3810551 0.15865307
-0.030601684 2.406868 0.1377366
-0.12006546 2.4562895 0.11692037
0.14202718 2.3418694 0.092632487
0.057657495 2.3872352 0.071456149
-0.029474121 2.41431 0.049648855
-0.11780868 2.4310024 0.026550295
0.14197911 2.3356795 0.0066570262
0.058483761 2.3852277 -0.016282504
-0.028530894 2.4165187 -0.03889253
-0.11813478 2.4563525 -0.063064754
0.1423866 2.3223047 -0.078809597
0.059403237 2.3870244 -0.10337519
-0.026964601 2.4084861 -0.12732735
-0.11763127 2.4584022 -0.15355276
0.14581154 2.3526199 -0.1663979
