# .PCD v0.7 - Point Cloud Data file format
VERSION 0.7
FIELDS x y z
SIZE 4 4 4
TYPE F F F
COUNT 1 1 1
WIDTH 1544
HEIGHT 1
VIEWPOINT 0 0 0 1 0 0 0
POINTS 1544
DATA ascii
-0.61720586 2.3515515 -0.062346946
-0.34784073 2.3429618 -0.080231421
-0 0 -0
-0.53043073 2.374069 -0.12859429
-0.60627085 2.3121898 -0.14913175
-0.34664604 2.3456233 -0.16738376
-0.43877441 2.3679771 -0.19291997
-0.5041551 2.2581327 -0.20734951
-0.57076573 2.1794162 -0.22375898
-0.35907912 2.4344537 -0.26480752
-0.41251269 2.231683 -0.26580045
-0.45213434 2.0276256 -0.26295543
-0.43535575 1.6640246 -0.2349118
-0.27802706 1.8957149 -0.27760109
-0.24410291 1.3247294 -0.20802601
-0.24075827 1.081651 -0.18219672
-0.29280487 1.1198825 -0.20187528
-0.15988526 1.0960321 -0.20254932
-0.17784357 0.96770322 -0.18954234
-0 0 -0
-0.2335224 0.89429438 -0.1967992
-0 0 -0
-0.16248251 0.88638127 -0.20869318
-0.1974562 0.89011133 -0.22035645
-0.22297251 0.85267502 -0.2225076
-0 0 -0
-0.14885013 0.8154636 -0.22526391
-0.18131959 0.81838256 -0.23667337
-0.19883668 0.76026809 -0.23068911
-0 0 0
-0.42658803 2.343642 0.70752454
-0.51170439 2.3098664 0.67764163
-0.60474169 2.3168311 0.66093707
-0 0 0
-0.42996296 2.3656986 0.61556983
-0.50906551 2.306149 0.58064926
-0.58804739 2.2638648 0.55093187
-0.37606925 2.6227086 0.6017161
-0.427807 2.3519697 0.51781839
-0.51311958 2.3287625 0.49274665
-0.60272026 2.3271949 0.47264388
-0.34646714 2.4123676 0.4591772
-0.43595707 2.4003456 0.4344736
-0.52333987 2.3808806 0.41025284
-0.60527563 2.3407643 0.38362679
-0.34772316 2.4226153 0.36830604
-0.42599532 2.352268 0.33579698
-0.51519471 2.3496919 0.31464145
-0.59713256 2.3177829 0.29023477
-0.35843438 2.500344 0.28560251
-0.42502102 2.3471217 0.24653813
-0.51806682 2.3673332 0.22736786
-0.59426552 2.3113291 0.20157474
-0.36351949 2.5386553 0.19562051
-0.43855685 2.4262185 0.16423617
-0.5240289 2.397382 0.14042164
-0.60040528 2.3384242 0.11478332
-0.34031487 2.3819375 0.094999589
-0.42502302 2.357928 0.071695425
-0.51503986 2.3619881 0.049710531
-0.60056365 2.3431151 0.026386674
-0.33727852 2.3630419 0.0067907358
-0.42469281 2.3610528 -0.01637122
-0.51136959 2.3496871 -0.038699437
-0.59879982 2.3397989 -0.061936766
-0.34161863 2.4024417 -0.082194895
-0.42502919 2.3679035 -0.10415375
-0.51543015 2.3753271 -0.1284887
-0.59429693 2.3245687 -0.14969215
-0.33937562 2.3980777 -0.17097509
-0.42862639 2.3951554 -0.19491625
-0.47931486 2.2105675 -0.20270802
-0.53374779 2.0903172 -0.21427096
-0.3337065 2.3627744 -0.25678304
-0.39881155 2.2341721 -0.26580045
-0.28976345 1.3380607 -0.17329441
-0.41460681 1.6253821 -0.22909313
-0.20075564 1.4298993 -0.20920454
-0.20324922 1.1423048 -0.17918013
-0.20909992 0.96737063 -0.1627278
-0.25380665 0.99565053 -0.17919654
-0 0 -0
-0 0 -0
-0.20173885 0.93608439 -0.19384666
-0.22416987 0.8805449 -0.19346716
-0 0 -0
-0.15670118 0.88544291 -0.20824195
-0.18933001 0.87895328 -0.21730247
-0.22300616 0.87469661 -0.22789283
-0 0 -0
-0.14417864 0.81826234 -0.2257884
-0.17204417 0.79972184 -0.2309671
-0.19464217 0.76333332 -0.23125245
-0 0 0
-0.4047353 2.3037283 0.69471222
-0.50581032 2.3514962 0.68893105
-0.59003901 2.3186297 0.66040492
-0 0 0
-0.41259375 2.3520713 0.61135364
-0.51606935 2.407979 0.6054796
-0.5739066 2.2664869 0.55070263
-0 0 0
-0.40728363 2.3198965 0.51019722
-0.50517142 2.3615541 0.4990198
-0.58987063 2.3365576 0.47380137
-0.3884953 2.8282144 0.53786689
-0.40184242 2.2924268 0.41448572
-0.50151843 2.3502922 0.40444422
-0.58945328 2.3386879 0.38268653
-0.38355279 2.7940421 0.4244076
-0.40626901 2.3245974 0.33148476
-0.50179964 2.3576581 0.31528991
-0.58870208 2.3445115 0.2931239
-0.34888938 2.5448279 0.2904337
-0.4135223 2.366343 0.24828592
-0.49794582 2.3441722 0.22484572
-0.58297867 2.3265307 0.20258471
-0 0 0
-0.41183132 2.3610404 0.15965006
-0.50267839 2.3693001 0.13859354
-0.5867731 2.3449712 0.11492579
-0 0 0
-0.41311619 2.3752632 0.072144084
-0.50053728 2.365104 0.049710531
-0.59271795 2.3729496 0.026681192
-0 0 0
-0.41002664 2.3626287 -0.016364394
-0 0 -0
-0.58346426 2.3395493 -0.061834224
-0 0 -0
-0 0 -0
-0 0 -0
-0.58412415 2.3446352 -0.1507507
-0 0 -0
-0.41646546 2.4124744 -0.196114
-0 0 -0
-0 0 -0
-0 0 -0
-0 0 -0
-0.40069559 1.9068069 -0.24663059
-0.41346884 1.6634727 -0.23409989
-0.17237245 1.284953 -0.18783958
-0.17818396 1.0383335 -0.16269679
-0.20903434 0.99664187 -0.1674328
-0.2571919 1.0354322 -0.18606888
-0.13393953 1.0043064 -0.18528049
-0 0 -0
-0 0 -0
-0.21899822 0.88285321 -0.19367541
-0.12057054 0.91073394 -0.20373382
-0.15077358 0.88350672 -0.2075651
-0.18075173 0.86487514 -0.21354373
-0.21412845 0.86193389 -0.2242211
-0 0 -0
-0.14077137 0.82864529 -0.2284108
-0.16261148 0.77909476 -0.22471741
-0.18810382 0.75706369 -0.22899906
-0 0 0
-0.39379382 2.3250713 0.70040661
-0.47919598 2.2962091 0.6718592
-0.57858497 2.3334341 0.66359782
-0.32057342 2.449573 0.65960163
-0.39476195 2.3344994 0.60614532
-0.50187761 2.4139526 0.60619587
-0.56022203 2.2709105 0.55093187
-0.31803852 2.4298737 0.55653751
-0.39728162 2.3474061 0.51570141
-0.4896768 2.3598149 0.49800801
-0.57622564 2.3429914 0.47438014
-0.37151766 2.8334682 0.53842235
-0.38809687 2.2967908 0.41483641
-0.49228454 2.3784325 0.40875918
-0.57485676 2.3413014 0.38252982
-0.32863092 2.5080802 0.38065729
-0.39150441 2.3241169 0.33106744
-0.48692295 2.3587503 0.31503052
-0.57312608 2.3432579 0.29252198
-0.32746649 2.502584 0.2853778
-0.39849928 2.3658931 0.2479775
-0.50725842 2.4622512 0.23586848
-0.58263206 2.3871779 0.20755044
-0.35365927 2.7060599 0.20817006
-0.39832902 2.3694267 0.16004886
-0.49296018 2.3958089 0.13996461
-0.56906235 2.3349409 0.11426093
-0.32668963 2.5058253 0.099773236
-0.39589038 2.3619804 0.071665518
-0.48702085 2.3730273 0.049813319
-0.57105571 2.3473938 0.02635395
-0.31174171 2.3937767 0.0068675471
-0.39667672 2.3720043 -0.016412165
-0.48169431 2.3518672 -0.038635071
-0.57405287 2.3634853 -0.06237258
-0.31352526 2.4173553 -0.082567275
-0.39248639 2.3522465 -0.10324542
-0.48544338 2.3775597 -0.12827756
-0.56972671 2.3481753 -0.1507507
-0.31043252 2.406019 -0.17125675
-0.39854768 2.3963015 -0.19459684
-0.47046873 2.3060663 -0.21091987
-0.52844399 2.1808488 -0.22286947
-0.29491115 2.2907603 -0.2485446
-0.38274139 2.3074856 -0.27394313
-0.44444466 2.1814213 -0.28179178
-0.4107132 1.696794 -0.23843007
-0.16800058 1.3134732 -0.19185448
-0.30783877 1.8623525 -0.29151112
-0.24125665 1.1864636 -0.19906981
-0.25824529 1.0676312 -0.19156675
-0.1275266 1.0031576 -0.1849207
-0.16016085 0.97178161 -0.18973149
-0.18945761 0.9346472 -0.19305301
-0.21495493 0.88988471 -0.19492492
-0 0 -0
-0.14534965 0.88441521 -0.2075651
-0.18123171 0.89454776 -0.22059138
-0.2136234 0.88302177 -0.22936152
-0 0 -0
-0.13381489 0.81806529 -0.22526391
-0.16030896 0.79234028 -0.22824985
-0.18142416 0.74981022 -0.22646402
-0 0 0
-0 0 0
-0.47558147 2.3509305 0.68700361
-0.55249166 2.2882149 0.6497618
-0.30577606 2.4534113 0.66011751
-0.3907038 2.3999848 0.62251425
-0.48130152 2.3884282 0.5990333
-0.5526427 2.3008058 0.55735141
-0.30758616 2.4675839 0.56473172
-0.38302791 2.3507643 0.51591313
-0.47113317 2.3426132 0.49375844
-0.56320941 2.3522086 0.47553763
-0 0 0
-0.37668392 2.3156486 0.41781703
-0.46895409 2.3378992 0.40129101
-0.56277609 2.3543906 0.38409692
-0.30858225 2.4727619 0.3750025
-0.37628549 2.3206103 0.33023283
-0.47282979 2.3636384 0.31528991
-0.56034684 2.3534906 0.29336464
-0.34724724 2.7865541 0.3175109
-0.38174617 2.3545473 0.24653813
-0.4784973 2.3969719 0.22932956
-0.55415434 2.33254 0.20250055
-0.32448772 2.6072531 0.20041217
-0.38234857 2.3629615 0.15945065
-0.48078814 2.4115169 0.14070728
-0.55472469 2.3383887 0.11426093
-0.30392233 2.4482861 0.097406134
-0.38139009 2.3643651 0.071665518
-0.47128111 2.3700874 0.049689967
-0.56009763 2.3654492 0.026517574
-0.29667872 2.3926671 0.0068590124
-0.38402149 2.3862407 -0.016494054
-0.46842211 2.3606629 -0.03873162
-0.5549404 2.3475058 -0.061859857
-0.2984418 2.4172497 -0.082499564
-0.37994644 2.3664479 -0.10376447
-0.473171 2.3922491 -0.12891102
-0.56929952 2.4108789 -0.15454905
-0.29627147 2.4128287 -0.17160884
-0.37832415 2.3642521 -0.19180207
-0.45766187 2.3157494 -0.21154469
-0.50683004 2.149183 -0.21931146
-0.29064262 2.3724639 -0.257211
-0.36826274 2.3078291 -0.27371049
-0.38667837 1.9592726 -0.25278378
-0.36212763 1.5372621 -0.21569666
-0.16878371 1.3871784 -0.20246525
-0.17753311 1.1165718 -0.17460144
-0.23244661 1.1801763 -0.19777188
-0.26275036 1.1161828 -0.19998538
-0.11865348 0.98145998 -0.18078336
-0 0 -0
-0.17786582 0.90597755 -0.1869023
-0.2132955 0.90737295 -0.19846523
-0.11043155 0.92086899 -0.2056824
-0.14220157 0.89972454 -0.21094932
-0.17068624 0.86988962 -0.21424849
-0.20331286 0.86355287 -0.2239763
-0 0 -0
-0.13149162 0.83603007 -0.22998424
-0.15840508 0.80841964 -0.23259747
-0.17682 0.75090927 -0.22646402
-0.29725417 2.5240359 0.78516412
-0.36924064 2.3552992 0.708094
-0.46391991 2.3679554 0.69113392
-0.54571724 2.3225288 0.65854234
-0.3368403 2.8447795 0.76484895
-0.37282485 2.3822377 0.61730593
-0.47984231 2.4590068 0.61598486
-0.54139453 2.3164749 0.56033182
-0.30493993 2.5749805 0.58887124
-0.36980668 2.3607948 0.51760674
-0.46367648 2.3810265 0.5012458
-0.54587179 2.3431969 0.47302973
-0 0 0
-0.36140352 2.3111074 0.41658971
-0.4529081 2.3320203 0.39979735
-0.54787177 2.3558753 0.38378349
-0.34731096 2.9292688 0.44390175
-0.37164703 2.3845186 0.33899638
-0.45831788 2.3664951 0.31528991
-0.54231149 2.3414104 0.29143855
-0.3029229 2.5587132 0.29133254
-0.3666791 2.3529141 0.24612691
-0.45735767 2.3666263 0.22615349
-0.54050481 2.338809 0.20275304
-0.30462044 2.5765183 0.19790226
-0.36784253 2.365263 0.15945065
-0.46409038 2.4046187 0.140136
-0.53699726 2.3271489 0.11354858
-0.2876071 2.4391892 0.096972167
-0.36825353 2.3755505 0.071934715
-0.45672968 2.3729346 0.049689967
-0.5417577 2.3522758 0.026332133
-0.28795701 2.4450922 0.0070041018
-0.36692739 2.3727403 -0.016384866
-0.45600301 2.374294 -0.038908623
-0.54366201 2.3645062 -0.062218763
-0.28348786 2.4180427 -0.082465716
-0.36450508 2.3628104 -0.10350495
-0.45679376 2.3862803 -0.12843592
-0.55248529 2.4055719 -0.15398863
-0.28157657 2.4155922 -0.17167926
-0.35684302 2.3212082 -0.18812892
-0.44194725 2.3106878 -0.21083063
-0.492966 2.1493425 -0.21901496
-0.27780262 2.3890169 -0.25881591
-0.35544962 2.318881 -0.27475742
-0.36664632 1.9197062 -0.24738404
-0.38410723 1.676596 -0.2349118
-0.15300465 1.3252673 -0.19328836
-0.15769868 1.0326446 -0.16132317
-0.21855009 1.1466855 -0.1919312
-0.23742987 1.03711 -0.18555345
-0.11599119 1.0114882 -0.18617989
-0 0 -0
-0.17157184 0.90320027 -0.18610865
-0.20576224 0.90008336 -0.19659096
-0.10301442 0.90600872 -0.20221826
-0.13536267 0.89191145 -0.20891879
-0.16733979 0.88142502 -0.21683262
-0.19671194 0.8591134 -0.2225076
-0 0 -0
-0.12736793 0.84350049 -0.23181991
-0.14931889 0.78762913 -0.22634777
-0.17049566 0.74449778 -0.22421066
-0 0 0
-0.3596321 2.3897502 0.71777445
-0.45511082 2.4009821 0.69994515
-0.53768337 2.3530858 0.66625863
-0 0 0
-0.3679868 2.449625 0.63417089
-0.44583103 2.361711 0.59091568
-0.52544516 2.31216 0.55849773
-0 0 0
-0.36999175 2.4606328 0.53898841
-0.45957288 2.4396448 0.51298267
-0.52909964 2.3359754 0.47090769
-0.2709876 2.4101415 0.4569554
-0.36051428 2.4018791 0.43254495
-0.44132149 2.3492928 0.40228674
-0.53362387 2.3601558 0.38394019
-0.29157311 2.5952671 0.39300856
-0.35847384 2.396548 0.3403874
-0.44506657 2.376085 0.31619778
-0.5303334 2.3553474 0.29276276
-0.27857745 2.4835005 0.28256896
-0.35856169 2.3974211 0.25054774
-0.44703469 2.3918977 0.228302
-0.53422505 2.3780537 0.20586714
-0.2764852 2.4683483 0.18945985
-0.35774097 2.3970814 0.16144462
-0.4518916 2.4211609 0.14093579
-0.52511287 2.3411214 0.11407097
-0.27296788 2.443887 0.097090527
-0.35146463 2.3629353 0.071486056
-0.43923402 2.3599658 0.049361032
-0.52862489 2.3614104 0.026397582
-0.2691794 2.413023 0.006907376
-0.35118759 2.367034 -0.016330274
-0.43996555 2.3691828 -0.038779892
-0.52783525 2.361944 -0.062064946
-0.26765314 2.4107966 -0.082161032
-0.35000029 2.3650024 -0.10350495
-0.43832695 2.3684177 -0.12732735
-0.56685072 2.5394444 -0.16233253
-0.26543653 2.4053764 -0.17083424
-0.3443386 2.3351877 -0.18908712
-0.42957181 2.3231502 -0.21172322
-0.48626366 2.1814649 -0.22197996
-0.25998402 2.362016 -0.25571311
-0.32676852 2.2227533 -0.263125
-0.40205494 2.1775253 -0.28028485
-0.37898055 1.7021322 -0.23815943
-0.14250574 1.3045373 -0.19013381
-0.15121631 1.0326149 -0.16117054
-0.18630047 1.0111759 -0.16905521
-0.22656895 1.0183532 -0.18194546
-0.10861586 1.0014232 -0.18420117
-0.15118113 1.035779 -0.20164885
-0.16815069 0.91580409 -0.18848959
-0.19896287 0.89560008 -0.19534142
-0.097557664 0.9075945 -0.20243478
-0.13199146 0.90718621 -0.212303
-0.15929677 0.86809444 -0.2133088
-0.19543825 0.87828636 -0.22715847
-0 0 -0
-0.12301926 0.84999639 -0.23339336
-0.14274877 0.7790643 -0.2236305
-0.16884255 0.7586422 -0.22815406
-0 0 0
-0.34783563 2.4118366 0.72375345
-0.42737728 2.332809 0.67929369
-0.52093637 2.3459892 0.66333175
-0 0 0
-0.3929787 2.7299099 0.7060948
-0.4311572 2.363447 0.59067696
-0.51292706 2.3229442 0.56033182
-0.26129156 2.4650693 0.56295997
-0.34763837 2.412555 0.52798003
-0.43021348 2.3634136 0.49638912
-0.51728696 2.3506773 0.47322264
-0 0 0
-0.38851804 2.701263 0.48602131
-0.42038202 2.3160563 0.39614624
-0.52082735 2.371103 0.38519388
-0 0 0
-0.37115639 2.5898538 0.3675127
-0.42659426 2.3573055 0.31334448
-0.5173561 2.3653457 0.29360539
-0.26867372 2.5355582 0.28829899
-0.34779528 2.4271464 0.2534264
-0.42279714 2.3416872 0.22325769
-0.51494986 2.3598688 0.20401551
-0.25934115 2.4511583 0.18801475
-0.36265576 2.5365276 0.17068331
-0.42834687 2.3757446 0.13813652
-0.5192433 2.3833385 0.11597057
-0.25283104 2.3968241 0.095157392
-0.34429064 2.4165044 0.073041402
-0.4258067 2.3685205 0.049484383
-0.51709986 2.378289 0.026550295
-0.25887319 2.4573925 0.0070297061
-0.34129971 2.4018154 -0.016555471
-0.42577329 2.3738062 -0.038812079
-0.5116365 2.3573229 -0.061859857
-0.25400177 2.4233274 -0.082533419
-0.34277236 2.4185429 -0.10575411
-0.42413774 2.3730285 -0.12743293
-0.55062395 2.5399485 -0.16214573
-0.2510857 2.4109285 -0.17111591
-0.33738971 2.3895683 -0.19331922
-0.41320807 2.313976 -0.2106521
-0.47834328 2.2096944 -0.22454964
-0.24836208 2.3912573 -0.25870892
-0.30966312 2.2001283 -0.26021689
-0.4045333 2.2688293 -0.29171225
-0.30173337 1.3954985 -0.19499303
-0.12435538 1.2069416 -0.1757949
-0.146661 1.0462466 -0.16315465
-0.18942553 1.0647608 -0.17781623
-0 0 -0
-0 0 -0
-0 0 -0
-0.15910661 0.89751714 -0.18452138
-0.19408257 0.89967233 -0.19596618
-0.092577219 0.91400385 -0.20373382
-0.12615389 0.90604919 -0.21185178
-0.15701945 0.88628352 -0.21753739
-0.18758804 0.86809665 -0.2242211
-0 0 -0
-0.1176691 0.84977937 -0.23313111
-0.1418215 0.80172175 -0.2298802
-0.16377904 0.75778818 -0.22759071
-0 0 0
-0.34075999 2.4699528 0.74055183
-0.40669298 2.2994149 0.66883039
-0.51100188 2.3698721 0.66918546
-0 0 0
-0.33657697 2.4443593 0.63169074
-0.41597357 2.3622222 0.58972186
-0.51559913 2.4050422 0.57936114
-0.23996367 2.4045241 0.54878634
-0.34844249 2.5279198 0.55274892
-0.41078919 2.3380373 0.49052066
-0.50469869 2.3624432 0.4749589
-0.24686833 2.468044 0.46732393
-0.39165998 2.8469687 0.51179516
-0.40293008 2.3001366 0.39299297
-0.50359112 2.361697 0.38315666
-0.24455963 2.4471192 0.37009177
-0.36117482 2.635251 0.37363327
-0.41314557 2.3657393 0.31412265
-0.50015277 2.3558514 0.29204047
-0.24443042 2.4501481 0.2784119
-0.36179653 2.6401296 0.27542773
-0.41200948 2.3648353 0.22521937
-0.50355726 2.3776064 0.20527798
-0.24350566 2.444766 0.18740629
-0.39871535 2.9163473 0.19607311
-0.41256365 2.3714428 0.1377366
-0.49861714 2.3581388 0.11459336
-0.23910686 2.4082737 0.095551908
-0.33647224 2.4700725 0.074596748
-0.41109484 2.3701036 0.049463827
-0.5037359 2.3872876 0.026615744
-0.23727845 2.3932569 0.0068419441
-0.33261332 2.4484539 -0.016862562
-0.40881312 2.3625805 -0.038586795
-0.49963501 2.3721564 -0.062167495
-0.23853923 2.4188728 -0.082330301
-0.33543679 2.4760416 -0.1081763
-0.40906012 2.3726339 -0.12727456
-0.50667471 2.4084971 -0.15355276
-0.23784362 2.428308 -0.1722426
-0.32218805 2.3876421 -0.19299982
-0.40255243 2.3370805 -0.21252654
-0.44841051 2.13468 -0.21664296
-0.23445806 2.4006524 -0.25956488
-0 0 -0
-0.3858963 2.2438922 -0.28819612
-0.23416585 1.1161134 -0.15575084
-0.10998395 1.1357726 -0.1653275
-0.14483014 1.0814108 -0.16849649
-0.17087412 0.99588019 -0.16613486
-0.21021467 1.0027378 -0.17868111
-0 0 -0
-0 0 -0
-0.15161467 0.88688326 -0.18214045
-0.18815789 0.89893162 -0.1955497
-0.086967252 0.91455472 -0.20373382
-0.11994996 0.9019776 -0.2107237
-0.14617655 0.85561192 -0.20978498
-0.18583944 0.88631225 -0.22862716
-0 0 -0
-0.11207325 0.8476153 -0.23234439
-0.13447227 0.78834677 -0.22580431
-0.16247422 0.77474326 -0.23237914
-0 0 0
-0 0 0
-0.400819 2.3501976 0.68287331
-0.49724057 2.3767369 0.67024976
-0 0 0
-0 0 0
-0.39496985 2.3264351 0.58017176
-0.48715708 2.3424056 0.56354165
-0 0 0
-0.33305246 2.5309792 0.55296063
-0.39856163 2.353066 0.49315134
-0.49337918 2.3808684 0.47804555
-0 0 0
-0.36226237 2.7585382 0.4954893
-0.38913751 2.3045104 0.39332491
-0.48448971 2.3424976 0.3795523
-0.23166259 2.4712183 0.37351441
-0.32907146 2.5156603 0.35638437
-0.39006352 2.3173842 0.30737847
-0.4852877 2.3569312 0.29179969
-0.22679998 2.4238999 0.27526599
-0.31811327 2.4322178 0.25352922
-0.3950184 2.3525906 0.22381818
-0.48715475 2.3718667 0.20452049
-0.23517722 2.5176942 0.19288243
-0.32272327 2.4735074 0.16616365
-0.3965193 2.3650682 0.13722245
-0.48474041 2.3640895 0.11473583
-0.2286786 2.4564567 0.097406134
-0.32362881 2.4899325 0.075135134
-0.39374259 2.3558176 0.049114332
-0.48707387 2.380537 0.026506662
-0.22730941 2.4454484 0.0069870325
-0.31269971 2.4127645 -0.016603241
-0.39398006 2.3630722 -0.038554616
-0.48687056 2.3839924 -0.062398214
-0.22525646 2.4372089 -0.082905799
-0.31370753 2.427521 -0.10597038
-0.39171264 2.3583524 -0.12637715
-0.47951993 2.3509295 -0.14969215
-0.22467107 2.4485953 -0.17358054
-0.30676827 2.3836422 -0.19252071
-0.38070482 2.2943082 -0.2084206
-0.44344598 2.1773696 -0.22069512
-0.21908954 2.3951149 -0.25881591
-0.25219092 1.9663436 -0.2321828
-0.37471506 2.2618778 -0.29020533
-0.26305911 1.2932657 -0.18024337
-0.10524651 1.1610668 -0.16891223
-0.1592212 1.2469738 -0.19413726
-0.17650589 1.0679786 -0.17797846
-0 0 -0
-0.093158275 1.0365641 -0.19031723
-0 0 -0
-0.14935452 0.90713882 -0.18610865
-0.18400012 0.90677899 -0.19700746
-0.080921739 0.91020888 -0.20265129
-0.11429077 0.90173012 -0.21049809
-0.14439565 0.87759334 -0.21495324
-0.17363755 0.85418075 -0.22005978
-0 0 -0
-0.107594 0.85403162 -0.23391782
-0.12978852 0.79010671 -0.22607604
-0.15102637 0.74281603 -0.22252062
-0 0 0
-0.30803725 2.4549255 0.7348575
-0.37828919 2.3032839 0.66855502
-0.48054022 2.3693514 0.66732293
-0 0 0
-0.30246332 2.4156229 0.62325823
-0.38006106 2.3249812 0.57921672
-0.50162637 2.488476 0.59793186
-0.21188207 2.4238026 0.55255121
-0.30791309 2.4563653 0.53623635
-0.38033316 2.3322701 0.48829472
-0.48127282 2.3963571 0.48055345
-0.18884915 2.1546845 0.40751979
-0.33934179 2.7128413 0.48689801
-0.37688869 2.3185351 0.39531645
-0.46855447 2.3376789 0.37829861
-0.21442503 2.4489508 0.36994293
-0.30518278 2.449827 0.3467862
-0.38091156 2.3510554 0.31152874
-0.47528401 2.382256 0.29456842
-0.20915498 2.3935695 0.2716707
-0.3084701 2.476568 0.25795004
-0.38025805 2.3530042 0.22363134
-0.46773005 2.3503792 0.20241639
-0.21790503 2.49823 0.19128522
-0.31012338 2.4962349 0.16755944
-0.38247716 2.3704135 0.13739385
-0.4774268 2.4032691 0.11649296
-0.20797838 2.3931081 0.094841778
-0.31178176 2.5196471 0.075972632
-0.37912136 2.3572018 0.049093772
-0.47595772 2.4011364 0.026703009
-0.21143572 2.4368346 0.0069585838
-0.29482844 2.3898265 -0.016432637
-0.37852284 2.3595216 -0.038458068
-0.47262156 2.3888962 -0.062449489
-0.20823689 2.4146478 -0.082093336
-0.29697722 2.4145265 -0.10532159
-0.37644684 2.3557813 -0.12611321
-0.47321132 2.3949509 -0.15230741
-0.20734626 2.4230928 -0.17167926
-0.29044038 2.3716278 -0.19140279
-0.36724812 2.3005352 -0.20877767
-0.44394481 2.2503424 -0.22781114
-0.20776899 2.4360406 -0.26309562
-0.28607592 2.3444672 -0.2766186
-0.34849468 2.1867363 -0.28028485
-0.38248676 1.9413112 -0.27022976
-0.10811564 1.2800293 -0.18611892
-0.12654407 1.0419015 -0.16208629
-0.1749071 1.100226 -0.18317018
-0.20398274 1.0361724 -0.18417898
-0 0 -0
-0.10637534 0.87930381 -0.17062594
-0.14562508 0.91965491 -0.18848959
-0.17616934 0.89637429 -0.19450842
-0.075254798 0.90971535 -0.20243478
-0.10840602 0.89951283 -0.20982125
-0.1402235 0.88614339 -0.21683262
-0.17401247 0.88376945 -0.22740325
-0 0 -0
-0.10074531 0.84126157 -0.23024647
-0.12508824 0.79183882 -0.22634777
-0.15276928 0.77573735 -0.23209746
-0.19816364 2.4589829 0.76214051
-0 0 0
-0.37344807 2.364435 0.6856268
-0.47156718 2.4006314 0.67530525
-0.19154535 2.3583498 0.631742
-0.29850927 2.5088205 0.64681953
-0.37317622 2.3742754 0.59091568
-0.45800248 2.3462965 0.56308305
-0.20016432 2.4639356 0.56140971
-0.29965618 2.515466 0.54872662
-0.36829075 2.3490725 0.49133015
-0.46581081 2.3954122 0.47978181
-0.19453567 2.3879359 0.45140085
-0.3323344 2.7960153 0.5014506
-0.38046834 2.434798 0.41473374
-0.45081517 2.3230581 0.37547785
-0.19955494 2.4521918 0.37024057
-0.30294743 2.5598292 0.36208764
-0.3614437 2.3210168 0.3072488
-0.46197563 2.3919506 0.29541111
-0.19478607 2.3987691 0.27212009
-0.29093063 2.458658 0.25589386
-0.36749399 2.3661156 0.22465891
-0.45593834 2.3669033 0.20359468
-0.20233044 2.4965384 0.19105706
-0.28766769 2.4376452 0.16350505
-0.36899626 2.3796217 0.13779373
-0.45720178 2.377707 0.11511575
-0.19345145 2.3963313 0.09492068
-0.2972489 2.5294545 0.076211907
-0.36602503 2.3683763 0.049278799
-0.45669392 2.3804429 0.026441215
-0.19471242 2.4161572 0.0068959962
-0.27608711 2.3568292 -0.01619379
-0.36281943 2.3538942 -0.038329341
-0.45870662 2.3956785 -0.062552035
-0.19429432 2.4268386 -0.082465716
-0.28737074 2.4609575 -0.10726797
-0.36137888 2.3540986 -0.12590206
-0.46619284 2.4380019 -0.15486039
-0.19942193 2.5118256 -0.17787604
-0.28048667 2.4129708 -0.19459684
-0.35569191 2.3194818 -0.21029507
-0.43852594 2.2970092 -0.23225865
-0.18999493 2.4015877 -0.25924388
-0 0 -0
-0.34467831 2.2515957 -0.2883217
-0.36908337 1.9358354 -0.26914722
-0.091222234 1.1652309 -0.16934241
-0.14062603 1.2203618 -0.18971117
-0.155642 1.0193411 -0.16954193
-0.18895672 0.99192137 -0.17610398
-0.078834571 1.0170336 -0.18653966
-0.10512014 0.91603506 -0.177625
-0.13438028 0.88370991 -0.18095
-0.17450322 0.91761637 -0.19888173
-0.069745988 0.91113341 -0.20265129
-0.10277404 0.89919311 -0.20959564
-0.13288522 0.87449431 -0.21377864
-0.16622737 0.87243879 -0.2242211
-0.066002868 0.8730461 -0.22903976
-0.094384044 0.83131659 -0.22736184
-0.12138189 0.80020332 -0.22852157
-0.14495304 0.76063675 -0.22730905
-0.18030666 2.4229932 0.75062877
-0 0 0
-0.35979804 2.3723848 0.68727893
-0.44530863 2.3428721 0.65827632
-0.18697676 2.491473 0.66708243
-0.27594525 2.4470699 0.63045067
-0.36483115 2.4178095 0.6011821
-0.46165907 2.4447086 0.58600992
-0.18058945 2.4057992 0.5479005
-0.28640896 2.5366809 0.55296063
-0.35343292 2.3483829 0.49072307
-0.44493693 2.3654387 0.47322264
-0.18497086 2.4567003 0.46417633
-0.31539252 2.7999587 0.50180125
-0.36405888 2.4273343 0.41307414
-0.45404392 2.418967 0.390522
-0.18287332 2.4316761 0.36696672
-0.28668317 2.5567191 0.36139211
-0.35906658 2.4026244 0.31775412
-0.45148242 2.4171848 0.29817984
-0.1843015 2.4563994 0.27852422
-0.2776123 2.476213 0.2575388
-0.3585459 2.4057462 0.2282086
-0.43939948 2.3588808 0.20266889
-0.18693371 2.4967387 0.190981
-0.28113022 2.5147266 0.16855642
-0.35600442 2.3927035 0.13842215
-0.4393172 2.3627911 0.11426093
-0.18067576 2.4233811 0.095946424
-0.26325828 2.3653297 0.071216859
-0.3520726 2.3745334 0.049361032
-0.44390294 2.3930318 0.026550295
-0.17951244 2.4123204 0.0068817721
-0.26195145 2.3614604 -0.016214263
-0.34822312 2.3550868 -0.038313247
-0.4439984 2.398448 -0.062552035
-0.18153557 2.4568896 -0.083447449
-0.26403138 2.3881986 -0.10402399
-0.34547293 2.3463919 -0.12537415
-0.44523746 2.4084291 -0.15280555
-0.18509857 2.5279248 -0.17893232
-0.25891662 2.3532152 -0.18964608
-0.34797496 2.3659639 -0.21431172
-0.41611564 2.2546422 -0.2277123
-0.17612346 2.414608 -0.26052782
-0.25620222 2.3379283 -0.27545536
-0.32710969 2.2281477 -0.28505674
-0.40604603 2.2030981 -0.30595368
-0.088982627 1.2338786 -0.17923623
-0.13816947 1.2673776 -0.19688448
-0.1518147 1.0368747 -0.17230003
-0.18375888 0.99790627 -0.17696302
-0 0 -0
-0.10278226 0.94692534 -0.18348908
-0.13036938 0.89421642 -0.18293411
-0.16268061 0.88500124 -0.19159287
-0.065113634 0.92517841 -0.2056824
-0.096626632 0.89399534 -0.20824195
-0.12751693 0.8752932 -0.21377864
-0.1596417 0.86676753 -0.2225076
-0 0 -0
-0.088560566 0.8251636 -0.22552615
-0.11688513 0.80379015 -0.22933675
-0.13784948 0.74830097 -0.22336563
-0 0 0
-0.26625979 2.4925878 0.74453789
-0.35837454 2.4649253 0.71343738
-0.43353733 2.3597815 0.66226745
-0.16717128 2.4270301 0.6495412
-0.26831558 2.5180748 0.64830762
-0.35040587 2.4228859 0.60189837
-0.43092278 2.3613157 0.56537575
-0.16595839 2.4088075 0.54834342
-0.26897237 2.5208976 0.54915005
-0.37117106 2.573442 0.5372659
-0.42830896 2.3565397 0.47090769
-0.16725041 2.4195545 0.4569554
-0.28830782 2.708838 0.48514467
-0.36795577 2.5603206 0.43531278
-0.42385992 2.3371615 0.37688825
-0.16760889 2.42782 0.36622268
-0.2585775 2.4412427 0.34483874
-0.35387418 2.4715273 0.32657343
-0.42571306 2.3593385 0.29071629
-0.16649529 2.4178314 0.27403009
-0.25728029 2.4294004 0.25250113
-0.34560713 2.4207141 0.22942297
-0.42156464 2.3428991 0.20106974
-0.1714738 2.4958491 0.19082887
-0.26223746 2.4836595 0.16636306
-0.34216157 2.400773 0.13876492
-0.43010801 2.3949363 0.11568563
-0.16471197 2.4084935 0.095315196
-0.24842653 2.3639183 0.071127124
-0.3567535 2.5122597 0.052177552
-0.42903489 2.3947263 0.026539387
-0.16913314 2.4782255 0.0070666894
-0.24818589 2.3699851 -0.016262032
-0.33460709 2.3631191 -0.038409796
-0.42892158 2.3991592 -0.06250076
-0.16861786 2.489866 -0.084530741
-0.25352028 2.4295204 -0.10575411
-0.35156071 2.4938254 -0.13313416
-0.9261542 5.1877303 -0.32877475
-0.16497904 2.4603384 -0.17407347
-0.25548682 2.4608479 -0.19819014
-0.45858207 3.2566912 -0.29473442
-0.40209898 2.2561734 -0.22761348
-0.16494781 2.4702058 -0.26641241
-0 0 -0
-0.30583769 2.1760793 -0.27815008
-0.41734588 2.3450408 -0.32530412
-0.077893108 1.1810753 -0.17149325
-0.11037697 1.0735472 -0.166665
-0.15065411 1.0749203 -0.17846519
-0.18573792 1.0446011 -0.18503802
-0 0 -0
-0 0 -0
-0.12474468 0.89402884 -0.1827357
-0.15776005 0.88887191 -0.19221763
-0.059185363 0.9216634 -0.20481636
-0.092620499 0.90910935 -0.21162616
-0.12402296 0.88953698 -0.21706754
-0.15449007 0.86868536 -0.22275238
-0 0 -0
-0.082233645 0.81321013 -0.22211705
-0.1151344 0.82736874 -0.23585819
-0.13611206 0.76519233 -0.22815406
-0.1535787 2.4736574 0.76568264
-0.24884923 2.4731913 0.73827416
-0 0 0
-0.40995836 2.3111441 0.64789927
-0.15221569 2.4270458 0.64928323
-0 0 0
-0.34311914 2.4798195 0.6155073
-0.41389292 2.3495364 0.56193674
-0.1536784 2.4496841 0.55742341
-0.25076306 2.4952724 0.54322243
-0.3326191 2.4107504 0.50286466
-0.41011161 2.3378613 0.46666351
-0.15314215 2.4323041 0.4591772
-0.23986894 2.3931651 0.42833698
-0.36338496 2.6436164 0.44908744
-0.40797889 2.3309624 0.37547785
-0.15475661 2.4613709 0.37113345
-0.24290559 2.4358854 0.34386504
-0.33143884 2.4206033 0.31956989
-0.41173926 2.3648403 0.29107744
-0.15134571 2.4138486 0.27346832
-0.24365181 2.4438007 0.25383765
-0.33047807 2.4208164 0.22923616
-0.40973753 2.360168 0.20233221
-0.15460038 2.4719753 0.18892744
-0.24344064 2.4494774 0.16397029
-0.33591652 2.4651484 0.14236401
-0.41267642 2.381783 0.11492579
-0.15067533 2.4214265 0.09578862
-0.23726162 2.3992181 0.072144084
-0.33070725 2.436136 0.050553426
-0.41263008 2.3874605 0.026430307
-0.15001997 2.4163377 0.0068874615
-0.23599231 2.3953469 -0.016425813
-0.33579087 2.4810557 -0.040292472
-0.41079473 2.3820434 -0.061988041
-0.15382843 2.4988339 -0.084801562
-0.23499741 2.3942418 -0.10415375
-0.3287859 2.4405143 -0.13017796
-0.41056749 2.3842039 -0.1509375
-0.15473005 2.5409582 -0.17970692
-0.23563686 2.4137566 -0.19427744
-0.43739536 3.25056 -0.2939311
-0.39128229 2.2762511 -0.22939247
-0.14990811 2.4731565 -0.26662639
-0 0 -0
-0.29181951 2.1729987 -0.27752218
-0.40211108 2.3426747 -0.32462755
-0.061548308 1.029394 -0.14941134
-0.10112651 1.0466607 -0.16239153
-0.13737674 1.0259453 -0.17019089
-0.17116618 0.99814415 -0.1766194
-0 0 -0
-0 0 -0
-0.11977462 0.89866352 -0.18352933
-0.15180804 0.88693094 -0.19159287
-0 0 -0
-0.086205423 0.90093249 -0.20959564
-0.1192041 0.89509875 -0.21824215
-0.14817356 0.8638832 -0.22128369
-0 0 -0
-0.081893288 0.86269432 -0.23549128
-0.10891446 0.81947374 -0.23341264
-0.1299542 0.75750184 -0.22561902
-0.14149222 2.5298824 0.78280276
-0 0 0
-0.32645294 2.4567487 0.70985782
-0.39674494 2.3193169 0.64949572
-0.13481112 2.3835618 0.63741714
-0 0 0
-0.32776961 2.4809155 0.61526859
-0.39914268 2.3501124 0.5614782
-0.13858944 2.4496071 0.55720192
-0.23379602 2.4792497 0.53941184
-0.33240086 2.5234313 0.52593368
-0.39248696 2.3209841 0.46280521
-0.13754615 2.4214246 0.4569554
-0.22398198 2.3818495 0.42605764
-0.33817679 2.577354 0.43747026
-0.39449021 2.3382912 0.37626138
-0.14228275 2.5086763 0.37812752
-0.2303523 2.4629655 0.34748173
-0.32017756 2.4501207 0.32320133
-0.39344275 2.3448043 0.28830871
-0.1381024 2.4425104 0.27661422
-0.22800408 2.4383171 0.25311798
-0.32166284 2.4692011 0.23362657
-0.38867158 2.3233259 0.19896562
-0.13853161 2.456949 0.18771052
-0.22933221 2.46086 0.16463497
-0.31705129 2.4384522 0.14070728
-0.39262629 2.3517575 0.11335862
-0.14521229 2.5899115 0.1024165
-0.22299713 2.4056048 0.072293639
-0.31601 2.4401023 0.050594546
-0.3950167 2.3721931 0.026233962
-0.13932301 2.491097 0.0070979833
-0.22174999 2.4017286 -0.016459934
-0.31377605 2.4305124 -0.039439637
-0.39010888 2.3480313 -0.061039504
-0.14142317 2.5526192 -0.086595766
-0.22140002 2.4075768 -0.10467278
-0.31393224 2.4434762 -0.13023074
-0.3929905 2.3689554 -0.14981669
-0.13848187 2.5299075 -0.1788619
-0.21909744 2.3962963 -0.19276026
-0.41782236 3.2561464 -0.29419887
-0.37194353 2.2462118 -0.22613098
-0.13445997 2.4690659 -0.26609144
-0 0 -0
-0.21156979 1.6522183 -0.21084154
-0.37883994 2.2913337 -0.31718504
-0.14401379 2.6850646 -0.38958791
-0.095948502 1.0610412 -0.16452828
-0.1327035 1.0394934 -0.17230003
-0.1688915 1.0225027 -0.18074282
-0 0 -0
-0.080584444 0.89584506 -0.17327423
-0.11314657 0.89063078 -0.18174364
-0.14572671 0.88398558 -0.19075987
-0 0 -0
-0.080154732 0.89562243 -0.20824195
-0.11187364 0.88134921 -0.21471833
-0.14018336 0.84851372 -0.21712238
-0 0 -0
-0.073868789 0.8324213 -0.2270996
-0.10388422 0.82012659 -0.23341264
-0.12530382 0.75828499 -0.22561902
-0.1213591 2.4381394 0.75417084
-0.21325664 2.4168549 0.72062159
-0.3061789 2.4176955 0.69801766
-0.3820363 2.3188541 0.6486975
-0.11979421 2.3766246 0.63535339
-0.21648721 2.4608252 0.63243479
-0.31630051 2.5127475 0.62266994
-0.38298717 2.3419509 0.55895627
-0.12345812 2.4484637 0.556759
-0.21617725 2.453378 0.53348428
-0.30703431 2.4467163 0.50954252
-0.38312587 2.3533709 0.46878558
-0.12283512 2.4251676 0.45751086
-0.21168926 2.4096587 0.43079162
-0.33434048 2.6752756 0.45373434
-0.38029364 2.3416429 0.37641811
-0.1250395 2.4729607 0.37262154
-0.2133399 2.4426289 0.34442145
-0.30868882 2.4805741 0.3269625
-0.37493297 2.3216934 0.28517884
-0.12411294 2.46316 0.27886128
-0.21269244 2.4357064 0.25270674
-0.3123886 2.5185547 0.23811039
-0.37567565 2.3335376 0.19963895
-0.12475401 2.483645 0.18968803
-0.21682295 2.4920418 0.16662893
-0.3026965 2.4453058 0.14099294
-0.38104066 2.3718746 0.11421344
-0.12857094 2.575784 0.10182472
-0.20590629 2.3800404 0.071486056
-0.32072553 2.6017523 0.05390447
-0.38092834 2.3775342 0.026266687
-0.12209647 2.4529533 0.0069870325
-0.20469183 2.3761444 -0.016275682
-0.29654008 2.4135363 -0.039133903
-0.37569427 2.3503807 -0.061039504
-0.12379142 2.5135102 -0.085241653
-0.2077332 2.4218302 -0.10523508
-0.29178429 2.3868742 -0.1271162
-0.37907663 2.3752646 -0.15006575
-0.12111654 2.4928486 -0.17618601
-0.20591395 2.4154735 -0.1941976
-0.38914457 3.1874647 -0.28777218
-0.35705829 2.2415726 -0.22543915
-0.12156224 2.51652 -0.2711201
-0 0 -0
-0.20298757 1.6662878 -0.212474
-0.36477345 2.2936151 -0.31718504
-0.12805218 2.6967716 -0.39116517
-0.091012605 1.0803211 -0.16742811
-0.12679859 1.0442064 -0.172949
-0.15874995 0.99919659 -0.1764476
-0 0 -0
-0.075332038 0.89925814 -0.17384171
-0.10967804 0.90785003 -0.1851166
-0.14351642 0.90514922 -0.19513318
-0 0 -0
-0.07587108 0.91066021 -0.21162616
-0.10681312 0.8849141 -0.21542309
-0.14471319 0.91064191 -0.23278847
-0 0 -0
-0.069633149 0.84343791 -0.22998424
-0.10195711 0.84654629 -0.24074925
-0.12049808 0.75809187 -0.22533733
-0.10464769 2.3987477 0.74177349
-0.19952065 2.4314935 0.72460765
-0.28915483 2.4013941 0.69278598
-0.37655085 2.3763747 0.66412997
-0.10559371 2.3860018 0.63767505
-0.19909355 2.4341066 0.62524241
-0.28680187 2.3970084 0.59354192
-0.37450656 2.3817573 0.56789774
-0.10778533 2.4345617 0.55343705
-0.19457518 2.3747842 0.51612484
-0.30036569 2.5185685 0.52411246
-0.3691338 2.3585858 0.46936432
-0.10795226 2.4258754 0.45751086
-0.19577795 2.3971751 0.42833698
-0.28873184 2.431484 0.41207838
-0.3662231 2.3458836 0.37673151
-0.10718696 2.41342 0.36354408
-0.19674602 2.4241514 0.34163937
-0.29334611 2.481437 0.32683283
-0.36798826 2.3710372 0.29095703
-0.10596681 2.3953791 0.2711089
-0.19661693 2.4230852 0.2512674
-0.29028931 2.4640632 0.23278585
-0.36409238 2.3535237 0.2011539
-0.10801935 2.4504948 0.18710205
-0.20104566 2.4873581 0.16623014
-0.28465596 2.4213371 0.13950759
-0.36663231 2.3751552 0.11426093
-0.10594818 2.420795 0.095670268
-0.19562098 2.4350615 0.073101215
-0.27964973 2.3891811 0.049463827
-0.36511582 2.3719201 0.02617942
-0.10726106 2.4586518 0.007001257
-0.19098502 2.3883204 -0.016350746
-0.28218868 2.4192829 -0.039198264
-0.36293459 2.3635108 -0.061321504
-0.10741967 2.4922554 -0.084496886
-0.19358268 2.4320226 -0.10562436
-0.27770862 2.3935792 -0.12738013
-0.36434391 2.3765593 -0.15000349
-0.10493027 2.4726157 -0.17470723
-0 0 -0
-0 0 -0
-0.34510359 2.2555254 -0.22662514
-0.1022661 2.425828 -0.26127675
-0 0 -0
-0.24163304 2.0902905 -0.26634595
-0.35353589 2.3144195 -0.31975609
-0.10063035 2.43448 -0.35302371
-0.082689911 1.0591829 -0.1640704
-0.11993732 1.0410436 -0.17230003
-0.15172438 0.99430865 -0.17541674
-0.045055036 1.1106538 -0.20326886
-0.070876405 0.91340947 -0.17649001
-0.1024318 0.89389968 -0.18214045
-0.13619301 0.89440966 -0.19263415
-0 0 -0
-0.069232963 0.89750993 -0.20846756
-0.10027581 0.8758958 -0.21307388
-0 0 -0
-0 0 -0
-0.063795134 0.83518952 -0.22762407
-0.09119112 0.79839188 -0.22689122
-0.11613387 0.76071405 -0.22590068
-0 0 0
-0.18285672 2.4097314 0.71777445
-0.27517816 2.4098089 0.69471341
-0.3592073 2.360534 0.65907454
-0 0 0
-0.18598059 2.4594324 0.63144273
-0.27887452 2.4585464 0.60834467
-0.35727009 2.3666859 0.56377089
-0.089947179 2.3591692 0.53616291
-0.18125524 2.3925006 0.51972371
-0.27940628 2.4717085 0.51399446
-0.36121443 2.4044712 0.47804555
-0.091784783 2.3931046 0.45121565
-0.18239957 2.416002 0.43149298
-0.2710503 2.4087114 0.40792939
-0.35431004 2.3646913 0.37939557
-0.091090843 2.3804355 0.35848454
-0.1811275 2.4154379 0.34024832
-0.2689546 2.4014025 0.31606808
-0.35825843 2.4056532 0.29492956
-0.090321466 2.3711603 0.26830006
-0.1816711 2.4232543 0.25116459
-0.27748343 2.486577 0.23474751
-0.35271674 2.3764122 0.20292136
-0.091204897 2.4042814 0.18352734
-0.18377413 2.4616792 0.16443557
-0.27067739 2.4309759 0.13996461
-0.35453922 2.3941576 0.11506826
-0.091130026 2.4223979 0.095709719
-0.1828199 2.4651237 0.073968627
-0.26300228 2.3729651 0.049093772
-0.35143152 2.3800511 0.026244869
-0.092060678 2.4562657 0.0069927224
-0.17551747 2.3784773 -0.016275682
-0.26766816 2.4239502 -0.039246541
-0.34842551 2.3656931 -0.061321504
-0.089504905 2.421957 -0.082093336
-0.1777785 2.4212079 -0.10510531
-0.26835766 2.4438775 -0.12996681
-0.34786734 2.3659134 -0.149194
-0.088056259 2.4263604 -0.17139758
-0.22793087 3.1266606 -0.25113136
-0.26239157 2.3930099 -0.21573988
-0.34584835 2.3570409 -0.23660731
-0.087093316 2.4184606 -0.2604208
-0.22897945 3.160059 -0.37107372
-0.2314996 2.116389 -0.26948535
-0.33889741 2.3136044 -0.31935015
-0.085481934 2.4291172 -0.35216337
-0.078669906 1.0941712 -0.16941223
-0.11247816 1.0319506 -0.17067762
-0.14462219 0.98839772 -0.17421408
-0 0 -0
-0.062891938 0.88052589 -0.17005844
-0.099373907 0.91692287 -0.18670389
-0.13126764 0.89909971 -0.19346716
-0 0 -0
-0.063724637 0.89791787 -0.20846756
-0.095318042 0.88036001 -0.21401358
-0.12748981 0.87109685 -0.22226281
-0 0 -0
-0.058128573 0.82786417 -0.22552615
-0 0 -0
-0 0 -0
-0.074844383 2.3883917 0.73823142
-0.16600077 2.3811629 0.70894814
-0.26234758 2.4296122 0.69994515
-0.37101912 2.5429718 0.70936322
-0 0 0
-0.17088629 2.4605272 0.63144273
-0.26378393 2.4602113 0.60834467
-0.3519409 2.4324133 0.5789026
-0.076841511 2.4025624 0.54590732
-0.16847152 2.420867 0.52565134
-0.25788909 2.4139762 0.50165045
-0.34855124 2.4212101 0.48093927
-0.077320702 2.4004979 0.45251173
-0.16832082 2.4278793 0.43342161
-0.25428471 2.3916976 0.40477616
-0.35130283 2.4469857 0.39224583
-0.075625829 2.354264 0.35446665
-0.16779903 2.4382386 0.34330863
-0.25567526 2.4168124 0.31788385
-0.3455939 2.4225481 0.29673526
-0.076944605 2.408417 0.27245715
-0.16850577 2.4491324 0.25373486
-0.25856879 2.453578 0.23147807
-0.34135434 2.401222 0.20485716
-0.075690396 2.3808775 0.18170196
-0.16989323 2.4806788 0.16563194
-0.25763515 2.4504633 0.14099294
-0.34419024 2.4269464 0.11654045
-0.075918958 2.4119256 0.095275752
-0.1664702 2.4482486 0.07343024
-0.25259852 2.4143088 0.049916115
-0.33780113 2.3890934 0.026321227
-0.077457398 2.4717767 0.0070353956
-0.16503587 2.4403691 -0.016691957
-0.2517536 2.4156022 -0.039085627
-0.33655554 2.3865941 -0.061808582
-0.074396126 2.4144688 -0.081822507
-0.16667341 2.4780748 -0.10752749
-0.25006422 2.4136927 -0.12827756
-0.34266517 2.4342203 -0.15336595
-0.072625645 2.4089081 -0.17013006
-0.21073292 3.1578381 -0.25352687
-0 0 -0
-0.44488436 3.1671712 -0.31765077
-0.071866378 2.4060299 -0.2590299
-0.2103738 3.1732969 -0.3724696
-0.21127997 2.0477035 -0.26056948
-0.30419523 2.169441 -0.29918778
-0.071380153 2.4572949 -0.35617825
-0.075779341 1.1528165 -0.17841701
-0.10493335 1.0208423 -0.16873072
-0.14866626 1.0614614 -0.18692793
-0.029420091 1.0403259 -0.19031723
-0 0 -0
-0.092052303 0.90093964 -0.18333091
-0.12628983 0.90376288 -0.19430016
-0 0 -0
-0.057709906 0.89051461 -0.20666265
-0.090013161 0.8818953 -0.21424849
-0.1187795 0.84785765 -0.21614324
-0 0 -0
-0 0 -0
-0.082263984 0.80806768 -0.22933675
-0.10785523 0.76968378 -0.22815406
-0 0 0
-0.15673733 2.4663246 0.73400331
-0.24324927 2.3900506 0.68810499
-0.34967637 2.5041487 0.69792187
-0 0 0
-0.15523489 2.4528282 0.62921059
-0.2640065 2.613471 0.64582908
-0.3368758 2.433563 0.57867336
-0.061619572 2.3844666 0.54169947
-0.15503711 2.4442887 0.53052044
-0.24101326 2.395051 0.49740094
-0.33703467 2.4476044 0.48576218
-0.062257148 2.3881567 0.45010477
-0.15323427 2.4259188 0.4328956
-0.23970298 2.3941939 0.4049421
-0.33843142 2.4647505 0.39475319
-0.061281651 2.3586378 0.35506189
-0.15394978 2.4570124 0.34581247
-0.24034983 2.4134023 0.31723535
-0.33367461 2.4462626 0.29938361
-0.061729591 2.391957 0.27054715
-0.15285316 2.4401927 0.25270674
-0.24517961 2.4719613 0.23306608
-0.33251858 2.4467158 0.20856042
-0.061105747 2.3822937 0.18177801
-0.15547574 2.4946206 0.16649599
-0.24190646 2.4450433 0.14059304
-0.32566926 2.4022872 0.11525822
-0.060966387 2.4063525 0.09503904
-0.14928579 2.4143062 0.072383367
-0.24013023 2.4396927 0.050409518
-0.32527819 2.406976 0.026495757
-0.062541284 2.4822023 0.0070638442
-0.14754365 2.400414 -0.016412165
-0.23058683 2.3524199 -0.038039695
-0.32591084 2.4183359 -0.062577672
-0.059604473 2.415879 -0.081856363
-0.14982006 2.4521263 -0.10635966
-0.23563662 2.4191573 -0.1284887
-0.32253337 2.3977003 -0.1509375
-0.058106858 2.4202778 -0.17090465
-0.19147335 3.1610615 -0.25368655
-0.22808936 2.3454919 -0.21118766
-0.42623684 3.1757588 -0.31824377
-0.057408523 2.4193473 -0.2604208
-0.19131619 3.181468 -0.37328389
-0.2025421 2.0884593 -0.26559249
-0.19194531 1.4327806 -0.19742876
-0.055054527 2.4032693 -0.34829187
-0.06100525 1.0240238 -0.15842333
-0.10151378 1.0509324 -0.17359796
-0.13783891 1.0301316 -0.18125823
-0 0 -0
-0.052661125 0.89103371 -0.17195009
-0.086522505 0.90148747 -0.18333091
-0.12048324 0.90258187 -0.19388366
-0 0 -0
-0 0 -0
-0.084136441 0.8775931 -0.21307388
-0.11691913 0.87355673 -0.2225076
-0 0 -0
-0 0 -0
-0 0 -0
-0.10287586 0.76842898 -0.22759071
-0 0 0
-0.13869017 2.416517 0.71891326
-0.2283967 2.3895845 0.68755436
-0.32028496 2.4011433 0.66865325
-0.045314103 2.3019035 0.61471671
-0.13659012 2.3908677 0.61308974
-0.23164843 2.4429615 0.60333091
-0.32091698 2.4278643 0.57683915
-0 0 0
-0.13886283 2.4247038 0.52607471
-0.22769403 2.4111092 0.50043631
-0.32175434 2.4476805 0.48537633
-0.047739591 2.3953712 0.45140085
-0.14036344 2.4621983 0.43920758
-0.22454691 2.3907108 0.40411231
-0.31945127 2.4374027 0.39005187
-0.046965107 2.3668787 0.35625237
-0.13445792 2.3798034 0.33482325
-0.22821094 2.4434621 0.32099652
-0.30892047 2.3734474 0.29023477
-0.046602242 2.3694408 0.26796302
-0.13782144 2.4400914 0.25260392
-0.22595109 2.4297998 0.22895591
-0.31852457 2.4566154 0.20923373
-0.045242276 2.3188214 0.17691033
-0.13803983 2.4576712 0.16397029
-0.22588521 2.4355464 0.13996461
-0.3124603 2.4161279 0.1158281
-0.045969997 2.3946927 0.094565615
-0.13602494 2.4431212 0.073220864
-0.22423778 2.4311647 0.050203934
-0.31101447 2.4128935 0.026539387
-0.047252439 2.4795399 0.0070553096
-0.13546292 2.4491997 -0.016739724
-0.22218291 2.4195054 -0.039101716
-0.31272271 2.4331799 -0.062910944
-0.044909433 2.4231942 -0.082093336
-0.13449724 2.4480116 -0.1061434
-0.22214918 2.4354749 -0.12928055
-0.31391063 2.4471517 -0.15392637
-0.042934414 2.4026363 -0.16963714
-0.17164055 3.1542144 -0.25304776
-0.22010599 2.4172723 -0.21752506
-0.40004784 3.1260004 -0.31300557
-0.041898116 2.3818781 -0.25635508
-0.17211267 3.1885326 -0.37398183
-0 0 -0
-0.18202053 1.4250859 -0.19621089
-0.040025204 2.38674 -0.34585425
-0.062206697 1.1645154 -0.18009588
-0.092309289 1.0210704 -0.16856848
-0.1301443 1.0202086 -0.17936833
-0.016667215 1.0415921 -0.1904971
-0 0 -0
-0.081252411 0.90493 -0.18392615
-0.11543669 0.90718514 -0.19471668
-0 0 -0
-0 0 -0
-0.078750044 0.87809289 -0.21307388
-0.11266141 0.88291371 -0.22471064
-0 0 -0
-0 0 -0
-0 0 -0
-0.099130802 0.77666008 -0.22984409
-0.031054363 2.4036949 0.74265897
-0.12248661 2.3905165 0.7109412
-0.21501409 2.4053037 0.6916846
-0.30627531 2.4088008 0.67024976
-0 0 0
-0.12241066 2.401336 0.61556983
-0.22076964 2.4907665 0.61479104
-0.31367636 2.4906292 0.59128314
-0.032181904 2.3723671 0.53882045
-0.1234337 2.4147735 0.52374607
-0.21521983 2.4388001 0.50590003
-0.29819578 2.3814559 0.47187224
-0.032878339 2.3838274 0.44917899
-0.12330298 2.4246669 0.43236962
-0.2111664 2.4067788 0.4066017
-0.31158501 2.4961593 0.3991411
-0 0 0
-0.12074947 2.398386 0.33732715
-0.21011256 2.4092553 0.31632748
-0.31535041 2.5447516 0.31094006
-0.03238539 2.393528 0.27065951
-0.12159676 2.416055 0.25003368
-0.21069343 2.4271727 0.22858225
-0.30222446 2.4486341 0.20839208
-0.032333408 2.4177599 0.18444003
-0.122409 2.44751 0.16323918
-0.2117977 2.4468329 0.14053589
-0.30263251 2.4586465 0.11777519
-0.031353861 2.4009247 0.094802327
-0.1204878 2.4329281 0.072891846
-0.21051621 2.4464402 0.05049175
-0.2957164 2.4107864 0.026495757
-0.032153644 2.4887824 0.0070809135
-0.12175795 2.4769516 -0.016923977
-0.20716229 2.4188309 -0.039069537
-0.29718035 2.4300914 -0.062782757
-0.029953433 2.4164286 -0.081856363
-0.11957136 2.4507866 -0.1062299
-0.20660897 2.429827 -0.12891102
-0.29526198 2.4193106 -0.15205833
-0.028144497 2.3988647 -0.16935547
-0.15064958 3.1213562 -0.25033283
-0.20687014 2.4374337 -0.219221
-0.29896331 2.4556973 -0.24569999
-0.027555676 2.405951 -0.2589229
-0.15178579 3.1736555 -0.37212065
-0 0 -0
-0.16909049 1.3917511 -0.19147477
-0.025600657 2.4077225 -0.34886542
-0.059119716 1.25076 -0.19337414
-0.088029891 1.0452161 -0.17246227
-0.12542456 1.0337014 -0.18160185
-0 0 -0
-0 0 -0
-0.075535014 0.90345812 -0.18352933
-0.10951561 0.90496337 -0.19409192
-0 0 -0
-0.040632211 0.87682837 -0.20327844
-0.075140104 0.89986962 -0.21824215
-0.10642409 0.87685078 -0.22299717
-0 0 -0
-0 0 -0
-0 0 -0
-0 0 -0
-0.016091127 2.3723114 0.73291826
-0.10716868 2.3768585 0.7066704
-0.20136742 2.4199901 0.69553947
-0.29658094 2.4527421 0.68195719
-0.016368253 2.2085717 0.58969462
-0.10767403 2.4020417 0.61556983
-0.20747742 2.5162692 0.6207599
-0.29156199 2.4354856 0.57775629
-0.017624727 2.37252 0.53882045
-0.10979997 2.4418468 0.52946192
-0.19664706 2.3961535 0.49679387
-0.28647622 2.4075994 0.47669515
-0.018115418 2.3662963 0.44584629
-0.10811541 2.418493 0.4311423
-0.19727649 2.4188409 0.40842727
-0.28986549 2.4440815 0.390522
-0.017901361 2.3652992 0.35595477
-0.10638077 2.4069963 0.33843997
-0.19580619 2.416429 0.31710565
-0.28383276 2.411567 0.29444805
-0.018043667 2.4403827 0.27594009
-0.10681374 2.4177494 0.25013649
-0.19579661 2.4284198 0.22858225
-0.28673026 2.4464839 0.20805542
-0.017151356 2.3700528 0.18078926
-0.10747651 2.4502089 0.16337211
-0.19534038 2.4301739 0.13950759
-0.28359878 2.4267251 0.11616053
-0.016635308 2.4030702 0.094881237
-0.10499428 2.4206395 0.072503008
-0.19454595 2.4357264 0.050245047
-0.27941504 2.3996437 0.02635395
-0.016827896 2.4809332 0.0070581548
-0.10582694 2.4606681 -0.016807966
-0.19144543 2.4090922 -0.03889253
-0.28330132 2.4408062 -0.063013487
-0.015150964 2.4205644 -0.081991777
-0.10410575 2.4414926 -0.10579737
-0.19122493 2.4250758 -0.12859429
-0.28316772 2.4448709 -0.15355276
-0.013542033 2.4199398 -0.17083424
-0.10561501 2.5077367 -0.20106477
-0 0 -0
-0.27738068 2.4011393 -0.2400665
-0.012686797 2.3861899 -0.25678304
-0.10575682 2.5374386 -0.29744062
-0.15879115 2.0245786 -0.25705338
-0.16463229 1.4281967 -0.19634621
-0.010724321 2.385072 -0.34556746
-0 0 -0
-0.080923907 1.0368826 -0.17100209
-0.11784028 1.0236862 -0.17971195
-0 0 -0
-0 0 -0
-0.069006436 0.89120108 -0.18095
-0.10529935 0.91727865 -0.19659096
-0 0 -0
-0 0 -0
-0.067968562 0.87899309 -0.21307388
-0.099710874 0.86592871 -0.22005978
-0 0 -0
-0 0 -0
-0 0 -0
-0.093545139 0.81213361 -0.23998427
-0.0015475737 2.3924298 0.73911697
-0 0 0
-0.18282296 2.373255 0.68177187
-0.27449572 2.3932245 0.6649282
-0.0030751305 2.4115231 0.64386606
-0.092409156 2.3891048 0.61209768
-0.18198913 2.3858106 0.58828938
-0.27650285 2.4362614 0.57752699
-0.0030794903 2.3823352 0.54103512
-0.091971695 2.3692296 0.51358443
-0.18794377 2.4764116 0.51318496
-0.27664605 2.4531884 0.48537633
-0.0036465263 2.3997748 0.45214143
-0.091604799 2.3758249 0.42342767
-0.18257929 2.4219723 0.40875918
-0.27519432 2.4487586 0.39099216
-0.0034118986 2.3821752 0.35848454
-0.090743691 2.3848438 0.33524057
-0.18193781 2.4304392 0.31879169
-0.2711201 2.432009 0.29673526
-0.0029994338 2.3848021 0.26964831
-0.090426743 2.3776062 0.2459213
-0.18044889 2.4236186 0.22802179
-0.27611017 2.487812 0.21142201
-0.0026339039 2.3930469 0.18253858
-0.090108596 2.3890033 0.15925126
-0.18035156 2.430331 0.13945048
-0.27166939 2.4552255 0.11744276
-0.0018853181 2.3971317 0.094644524
-0.090102352 2.4202394 0.072473101
-0.17878863 2.4259064 0.050018907
-0.26775339 2.4291425 0.026659375
-0.0015932162 2.4629896 0.0070069465
-0.090579234 2.457274 -0.016780671
-0.17717154 2.417202 -0.039005168
-0.26842865 2.4434922 -0.063039117
-0.00029701888 2.4096181 -0.081619389
-0.089086644 2.441087 -0.10575411
-0.175907 2.4202278 -0.12827756
-0.2635937 2.4048934 -0.1509375
0.0012964603 2.4010246 -0.1694963
-0.087968402 2.4455793 -0.19603416
-0.2310496 3.1858318 -0.28625479
