# .PCD v0.7 - Point Cloud Data file format
VERSION 0.7
FIELDS x y z
SIZE 4 4 4
TYPE F F F
COUNT 1 1 1
WIDTH 1688
HEIGHT 1
VIEWPOINT 0 0 0 1 0 0 0
POINTS 1688
DATA ascii
0.24867354 -0.75752276 -0.13109079
0.2710835 -0.73371685 -0.13641615
0 -0 -0
0 -0 -0
0.24532199 -0.74885643 -0.1595217
0.26688111 -0.72304124 -0.16410346
0 -0 -0
0.21418248 -0.74632543 -0.17981456
0.24624068 -0.7519269 -0.19122617
0 -0 -0
0 -0 -0
0.20921242 -0.731076 -0.20664491
0.23582281 -0.72075254 -0.2141201
0.26208797 -0.70921713 -0.22195728
0.66143459 -2.7034688 0.85984325
0.76667154 -2.68413 0.82909924
0.86567789 -2.6460423 0.79741979
1.5003297 -4.0659475 1.1962855
0 -0 0
0.76769561 -2.690382 0.71626341
0.86641437 -2.6550343 0.68665594
1.5074177 -4.1001325 1.0289564
0.61622518 -2.511658 0.58732098
0.7225523 -2.5308387 0.57010835
0.86150235 -2.6434231 0.57450008
1.5051302 -4.1029735 0.85924727
0.44414231 -1.808496 0.35086325
0.72043842 -2.5259392 0.46778679
0.86127418 -2.6472702 0.46850476
1.5001551 -4.0942731 0.69187593
0.64881217 -2.6428838 0.40952653
0.71225721 -2.5020556 0.36542612
0.84256345 -2.5943761 0.35679251
1.5042125 -4.1166863 0.53147513
0.66002226 -2.6905751 0.31324145
0.75760496 -2.6615322 0.28601715
0.87415874 -2.6953452 0.26585415
1.508177 -4.1338024 0.37167183
0.67066371 -2.7358124 0.21486312
0.76266521 -2.6825094 0.18577097
0.86328501 -2.6640356 0.1602452
1.5032823 -4.1246338 0.20871852
0.66790062 -2.7282469 0.1108986
0.77525258 -2.7318573 0.084975682
0.87024164 -2.6901457 0.058139525
1.4949529 -4.1071262 0.047679272
0.66779941 -2.7294836 0.0079941209
0.77430713 -2.7323384 -0.019380685
0.85939723 -2.6602688 -0.044991113
1.4957781 -4.1140842 -0.11226039
0.66551691 -2.7263374 -0.095059
0.77259994 -2.7301283 -0.12283914
0.85913801 -2.6650307 -0.14802068
1.0602283 -2.9183404 -0.19371559
0 -0 -0
0 -0 -0
0 -0 -0
0 -0 -0
0 -0 -0
0.21939823 -0.77813536 -0.094687775
0.24684861 -0.76681972 -0.10196743
0.27971321 -0.77122694 -0.11204319
0 -0 -0
0 -0 -0
0.24522881 -0.76279193 -0.13173975
0 -0 -0
0 -0 -0
0 -0 -0
0.23802783 -0.74194819 -0.15773602
0.26077434 -0.72006702 -0.1630622
0 -0 -0
0.21985549 -0.78420949 -0.1886135
0.23924765 -0.74601907 -0.18934681
0.26437598 -0.72921699 -0.19582626
0 -0 -0
0.2117373 -0.75743902 -0.21372537
0.23462605 -0.73226726 -0.21710908
0 -0 -0
0.63952124 -2.6851697 0.85275912
0.75637048 -2.7109439 0.83593243
0.84942579 -2.6513042 0.79741979
1.4766659 -4.0787024 1.1973497
0 -0 0
0.75897628 -2.7230375 0.7237038
0.84803796 -2.6538255 0.68498468
1.484213 -4.1147985 1.0303321
0 -0 0
0 -0 0
0.8452664 -2.6486595 0.57450008
1.4799265 -4.1121316 0.85924727
0.41772667 -1.7471505 0.33845803
0.70519018 -2.5312605 0.46796209
0.83423871 -2.6186793 0.4625302
1.4766752 -4.1080475 0.69265944
0 -0 0
0.67699546 -2.4348226 0.35499334
0.8350423 -2.6259551 0.36042395
1.3981951 -3.9006228 0.5024637
0.64557809 -2.7032728 0.31425264
0.7343322 -2.6412134 0.28334409
0.84765983 -2.6693435 0.26277152
1.4757327 -4.1232762 0.36990434
0.64877248 -2.718539 0.21318987
0.74592429 -2.686177 0.18570451
0.85175347 -2.6845083 0.16115926
1.4802998 -4.1403646 0.20905097
0.65068454 -2.7303498 0.1108197
0.74699569 -2.6951435 0.083689533
0.85703957 -2.7059193 0.058365673
1.4767849 -4.1359978 0.04790834
0.64756376 -2.7189379 0.0079514477
0.74472392 -2.6907783 -0.019053124
0.84607315 -2.675025 -0.045152027
1.4742002 -4.1335421 -0.11254239
0.64115137 -2.698282 -0.093941852
0.73427635 -2.6568174 -0.11933562
0.8454746 -2.6788228 -0.14849579
1.0332558 -2.8994071 -0.19203435
0 -0 -0
0 -0 -0
0 -0 -0
0 -0 -0
0 -0 -0
0 -0 -0
0.23796403 -0.75507301 -0.10020937
0.26733756 -0.75145847 -0.10893088
0 -0 -0
0 -0 -0
0.24113627 -0.76616472 -0.13206424
0.26106909 -0.73420358 -0.13590072
0 -0 -0
0 -0 -0
0.2431621 -0.77425271 -0.16428356
0.25864294 -0.72810513 -0.16451997
0 -0 -0
0.21812624 -0.79681951 -0.19132088
0.23815943 -0.75860161 -0.19216585
0.26541945 -0.74635553 -0.19998758
0.1891893 -0.81219387 -0.21815722
0.20759393 -0.76058584 -0.21424985
0.22868842 -0.72910178 -0.21575046
0.25658032 -0.72142029 -0.224774
0.61828882 -2.6685658 0.84626526
0.73317152 -2.6914864 0.82852978
0.83227861 -2.6537144 0.79659373
1.4583859 -4.1067624 1.2029374
0 -0 0
0.73411387 -2.6977308 0.71576738
0.83840626 -2.6802952 0.690476
1.4595864 -4.1256633 1.0307906
0 -0 0
0 -0 0
0.83133459 -2.661274 0.57611895
1.4566267 -4.1266866 0.86040479
0 -0 0
0 -0 0
0 -0 0
1.4563667 -4.1310029 0.69501013
0 -0 0
0.69265461 -2.5517027 0.3714076
0.81390446 -2.6149347 0.35821915
0 -0 0
0 -0 0
0.71706992 -2.6418297 0.28293285
0.83008301 -2.670691 0.26239783
1.4513952 -4.1350746 0.37015685
0 -0 0
0.72838396 -2.6868515 0.18543866
0.83526564 -2.6896842 0.16115926
1.4664347 -4.1823606 0.21071312
0 -0 0
0.72156852 -2.6668711 0.082672574
0.83568382 -2.6958475 0.058036733
1.4715372 -4.2025504 0.048573732
1.5786383 -6.8134828 0.019897113
0.7188102 -2.6605439 -0.018807452
0.83082622 -2.6839867 -0.045216389
1.4705912 -4.2047892 -0.11423437
1.1640877 -5.036252 -0.1750873
0.71691972 -2.6574144 -0.11916261
0.83373713 -2.6992261 -0.14934042
1.3789518 -3.9458628 -0.26077816
0 -0 -0
0 -0 -0
0 -0 -0
0 -0 -0
0 -0 -0
0 -0 -0
0.23625042 -0.76599908 -0.10146513
0.26467985 -0.75869769 -0.10974278
0 -0 -0
0 -0 -0
0.24078746 -0.78177541 -0.13449785
0.2598027 -0.74509376 -0.13761881
0 -0 -0
0 -0 -0
0 -0 -0
0 -0 -0
0 -0 -0
0.20568931 -0.7699067 -0.18455245
0.23350026 -0.76004863 -0.19216585
0.2608349 -0.74797004 -0.19998758
0.18633913 -0.82277495 -0.22068805
0.2036683 -0.76464278 -0.21503657
0.22392806 -0.72957122 -0.21547873
0.25214896 -0.72298104 -0.224774
0 -0 0
0.71467292 -2.6885228 0.82625204
0.81767243 -2.6642854 0.79824585
1.4394999 -4.1338401 1.208259
0 -0 0
0.71729851 -2.7012482 0.71551937
0.82279712 -2.688175 0.69119227
1.4399865 -4.1510944 1.0349174
0 -0 0
0.66630882 -2.5078163 0.56206375
0.81584847 -2.6691346 0.57672608
1.4354503 -4.1476011 0.86291265
0 -0 0
0.53340036 -2.0097027 0.37030193
0.76952153 -2.5221369 0.4437767
1.4290559 -4.1342607 0.69406986
0 -0 0
0.67444909 -2.5463319 0.37001657
0.7966888 -2.6160853 0.35770035
0.95686638 -2.7762163 0.35608232
0 -0 0
0.70415717 -2.65868 0.28426939
0.80846632 -2.6585882 0.26071641
1.4224288 -4.1335378 0.36923105
0 -0 0
0.70014685 -2.6468978 0.18238124
0.80858815 -2.6613247 0.15915976
1.4371728 -4.1808887 0.21019071
0 -0 0
0.70187461 -2.6586845 0.082283743
0.80432838 -2.6521299 0.056988247
1.4359833 -4.1831274 0.048246492
0 -0 0
0.70017797 -2.6562021 -0.018746035
0.80622751 -2.6622393 -0.044765834
1.4259582 -4.1588864 -0.11274748
1.1353548 -5.0530505 -0.17542583
0.71255279 -2.7071729 -0.12119551
0.80820489 -2.6746576 -0.14770395
1.3566554 -3.9599147 -0.26115179
0 -0 -0
0 -0 -0
0 -0 -0
0 -0 -0
0 -0 -0
0 -0 -0
0 -0 -0
0.24879801 -0.72749513 -0.10500666
0 -0 -0
0 -0 -0
0.2348474 -0.77945894 -0.13384889
0.25299555 -0.7401486 -0.13641615
0 -0 -0
0 -0 -0
0.23477121 -0.78093278 -0.16507718
0.24779215 -0.72567064 -0.16327046
0 -0 -0
0.21201672 -0.81357723 -0.1947051
0.22631457 -0.75308907 -0.19005156
0.26000416 -0.76056582 -0.20292498
0 -0 -0
0.19970064 -0.76868004 -0.21582328
0.22442843 -0.74752265 -0.2203698
0.24957053 -0.72996205 -0.22646402
0 -0 0
0.69407314 -2.6770825 0.82141185
0.80296773 -2.674777 0.79989803
1.4000945 -4.1015429 1.1962855
0 -0 0
0 -0 0
0.80378067 -2.6848004 0.68904346
1.4104151 -4.147872 1.0319369
0 -0 0
0.64526987 -2.4900975 0.55719465
0.79805303 -2.6693988 0.57571423
1.3907458 -4.0996494 0.85114485
0 -0 0
0.49392053 -1.9080973 0.35101539
0.74867386 -2.5088573 0.44062349
1.4001755 -4.1326613 0.69234604
0.275121 -1.2527034 0.19300723
0.68036008 -2.6338387 0.38211861
0.75826168 -2.5458508 0.3474544
0.91852659 -2.7190208 0.34801689
0.25983787 -1.1841012 0.13707122
0.69404966 -2.6870279 0.28683963
0.7856105 -2.6415493 0.2585679
1.3527746 -4.0109448 0.35753214
0 -0 0
0.6916188 -2.6810949 0.18444167
0.78513426 -2.6423109 0.15773156
1.2724478 -3.7769132 0.18948509
0.2617974 -1.1957222 0.048328277
0.70174599 -2.7258606 0.08422792
0.79145151 -2.6685176 0.05723495
0.90490621 -2.6896896 0.030957164
0 -0 0
0.69282883 -2.6953139 -0.018991707
0.78902537 -2.6642599 -0.044717561
0.90877175 -2.7044587 -0.073165372
0.25530404 -1.1697774 -0.040555798
0.70238608 -2.736654 -0.12232009
0.7798931 -2.639344 -0.1454868
0.88758618 -2.6435506 -0.17397664
0.26146382 -1.2018266 -0.086825483
0 -0 -0
0 -0 -0
0 -0 -0
0 -0 -0
0 -0 -0
0.23469317 -0.79548359 -0.10498124
0.24716322 -0.73746306 -0.10622451
0 -0 -0
0 -0 -0
0 -0 -0
0.25032675 -0.74729168 -0.137447
0 -0 -0
0 -0 -0
0.23163356 -0.7880007 -0.16626765
0.24364522 -0.72810489 -0.1634787
0 -0 -0
0.20822012 -0.81958389 -0.19583316
0.22333364 -0.76005912 -0.1914611
0.25533253 -0.76214689 -0.20292498
0 -0 -0
0.19711258 -0.77831012 -0.21818344
0.21550037 -0.73411107 -0.21602218
0.24142887 -0.7205621 -0.22308397
0 -0 0
0.68585467 -2.7138195 0.83137691
0.79303855 -2.7017918 0.80650645
0.88958824 -2.659287 0.77402008
0.25988734 -1.2199318 0.33302528
0 -0 0
0.78510952 -2.6822257 0.68713343
0.89047086 -2.6724637 0.66350257
0.25359556 -1.1902957 0.27638632
0.59646922 -2.3613498 0.5275566
0.73467696 -2.5135086 0.54111069
0.8824172 -2.6546257 0.55000317
0.26156858 -1.2263532 0.23625408
0.48244423 -1.9120464 0.35119072
0.73243713 -2.5105639 0.44012561
0.88281661 -2.6592381 0.44458705
0.25608891 -1.2011758 0.18482266
0.65741628 -2.6110749 0.37822369
0.77699953 -2.6685057 0.36353666
0.88966 -2.6878505 0.3433221
0.25732899 -1.2080262 0.13965535
0.67730641 -2.6902711 0.28673682
0.76744175 -2.6396279 0.25791401
0.8819865 -2.669039 0.23742895
0.2561599 -1.2034656 0.093855262
0.67904764 -2.7007709 0.18550512
0.77002048 -2.6509135 0.15796007
0.88011014 -2.6663284 0.13349438
0.25133988 -1.1826452 0.047736503
0.67770952 -2.7010298 0.083330601
0.7692166 -2.6531584 0.056803223
0.88431615 -2.6828456 0.030815359
0.26154888 -1.2315277 0.0035817076
0.67724967 -2.7033944 -0.019019004
0.76738024 -2.6508031 -0.044411831
0.87903118 -2.6701033 -0.072088651
0.2481216 -1.171322 -0.040555798
0.6858235 -2.7418818 -0.12236335
0.75841886 -2.6258514 -0.14448382
0.87134892 -2.648947 -0.17397664
0.24481149 -1.1594883 -0.083656669
0 -0 -0
0 -0 -0
0 -0 -0
0 -0 -0
0 -0 -0
0 -0 -0
0 -0 -0
0 -0 -0
0 -0 -0
0.22881418 -0.79460907 -0.13595803
0.24972998 -0.7609818 -0.13968052
0 -0 -0
0.19666515 -0.79295456 -0.15738446
0.22327583 -0.77716094 -0.16368832
0.23917307 -0.72958618 -0.1634787
0 -0 -0
0.20646456 -0.83408558 -0.19899176
0.22108051 -0.76982343 -0.1935754
0.24702302 -0.75264442 -0.19998758
0 -0 -0
0.19741899 -0.80011684 -0.22395271
0.21762687 -0.75854594 -0.22281533
0.23820002 -0.72567654 -0.22421066
0 -0 0
0.66506493 -2.7012222 0.82625204
0.77008367 -2.6844292 0.79989803
0.87025249 -2.6555352 0.77135932
0.25474319 -1.2328576 0.33612081
0 -0 0
0.76543206 -2.6757891 0.68426841
0.87103593 -2.6686239 0.66120994
0.25970677 -1.2567688 0.29144585
0.50817204 -2.065074 0.46065941
0 -0 0
0.86641592 -2.6609232 0.55019611
0.24567711 -1.1875172 0.2284777
0.4577781 -1.8623879 0.34154746
0.72215581 -2.5330293 0.44327885
0.84601992 -2.6016762 0.43408749
0.23790017 -1.1504321 0.1767869
0.63784438 -2.6006331 0.37613717
0.75816905 -2.6646397 0.36236939
0.87223244 -2.6904256 0.34296098
0.24448335 -1.1833084 0.13662182
0.66291881 -2.7030711 0.28766209
0.7661956 -2.6969624 0.26305175
0.86896819 -2.6848288 0.23835474
0.24131165 -1.1688838 0.091041118
0.66554892 -2.7174857 0.18636917
0.76927847 -2.7103329 0.16121638
0.86281145 -2.6688271 0.13335191
0.24932325 -1.20961 0.048762247
0.66539502 -2.722615 0.083868995
0.77690274 -2.7424784 0.058612369
0.8745963 -2.709156 0.031055339
0.24975094 -1.2125412 0.0035219651
0.66704947 -2.7337289 -0.019203255
0.7736882 -2.7353179 -0.045747403
0.8635515 -2.6783011 -0.072165564
0.24374537 -1.1865281 -0.041029736
0.66591257 -2.7334194 -0.12180106
0.7360549 -2.6083508 -0.14326967
0.85477287 -2.6532936 -0.17391439
0.23709215 -1.1580368 -0.083445415
0 -0 -0
0 -0 -0
0 -0 -0
0 -0 -0
0 -0 -0
0 -0 -0
0.23961133 -0.74515676 -0.1069011
0 -0 -0
0 -0 -0
0.23061486 -0.819745 -0.14001405
0.24385029 -0.75874829 -0.13899328
0 -0 -0
0 -0 -0
0.22141641 -0.7888965 -0.16587083
0.23768161 -0.74035257 -0.16556123
0 -0 -0
0.20020142 -0.83060122 -0.1978637
0.21950357 -0.78239596 -0.19639444
0.24151014 -0.75137675 -0.19925323
0 -0 -0
0.19228043 -0.80037487 -0.22369048
0.20907266 -0.74596703 -0.21873945
0 -0 -0
0 -0 0
0.64780766 -2.7024555 0.82539785
0.75826722 -2.705766 0.80485433
0.85276383 -2.6571536 0.77029502
0.24300039 -1.2135557 0.33044568
0 -0 0
0.76075965 -2.7225218 0.69501233
0.84871835 -2.6553752 0.65662456
0.24241638 -1.2105294 0.28037268
0.37822208 -1.5786777 0.35163388
0 -0 0
0.85096663 -2.6689937 0.55077481
0.23973829 -1.1957469 0.22977376
0.43603131 -1.8220754 0.3336575
0.68014532 -2.4424138 0.42668286
0 -0 0
0.23841475 -1.1896842 0.18259051
0.50366366 -2.109412 0.3046377
0.72959191 -2.6252956 0.35640341
0.84669727 -2.667341 0.3393496
0.23838857 -1.1906321 0.13729593
0.65117151 -2.7274058 0.28982112
0.73738754 -2.6574812 0.25875473
0.8425445 -2.6587634 0.23557732
0.24254584 -1.2123848 0.094311602
0.64076298 -2.6875477 0.18404287
0.74143225 -2.6745946 0.15881699
0.84430963 -2.6674049 0.13301948
0.24326649 -1.2179761 0.049038406
0.64543808 -2.7130327 0.08345025
0.74966341 -2.7096138 0.057810586
0.85403913 -2.7020767 0.030913532
0.23780458 -1.1914958 0.0034565327
0.63616705 -2.6784227 -0.01878698
0.74357861 -2.6918249 -0.044942841
0.84950894 -2.6911757 -0.072370656
0.23704569 -1.1909419 -0.041131295
0.65880966 -2.7782824 -0.12361769
0 -0 -0
0.83817619 -2.6575365 -0.1738521
0.23755115 -1.1976296 -0.086191721
0 -0 -0
0 -0 -0
0 -0 -0
0 -0 -0
0 -0 -0
0 -0 -0
0.23562966 -0.74850315 -0.10717174
0 -0 -0
0 -0 -0
0.21826169 -0.79450262 -0.1354713
0.24332938 -0.77338624 -0.14139859
0 -0 -0
0 -0 -0
0.22045752 -0.80441916 -0.16884698
0.23254792 -0.73993093 -0.16514473
0 -0 -0
0.19376639 -0.82612318 -0.19651002
0.21469873 -0.78372806 -0.19639444
0.2398055 -0.76209325 -0.20170106
0 -0 -0
0.18714616 -0.80059993 -0.22342825
0.21338248 -0.7797243 -0.22824985
0 -0 -0
0.22148904 -1.1463506 0.3607032
0 -0 0
0.73556119 -2.6881137 0.79824585
0.83731055 -2.6650951 0.77109325
0.23499796 -1.2121785 0.32967183
0 -0 0
0.74250668 -2.7215173 0.69357985
0.8347345 -2.6679647 0.65845871
0.23776832 -1.2263542 0.28369462
0 -0 0
0 -0 0
0.83223546 -2.6666718 0.54923147
0.23146048 -1.192372 0.228848
0.40631339 -1.7451309 0.31910491
0.48818779 -1.7956527 0.31316629
0.78229129 -2.5100279 0.41716278
0.24806236 -1.2784932 0.19598344
0.45598039 -1.9629506 0.28307658
0.71295035 -2.6278088 0.35614401
0.83650017 -2.6923945 0.34187755
0.22654015 -1.1686603 0.13459945
0 -0 0
0.71560103 -2.6417747 0.25679305
0.82532924 -2.6610281 0.23532483
0.22713909 -1.1727359 0.091117181
0 -0 0
0.72109538 -2.664638 0.15796007
0.83649874 -2.7002053 0.13439669
0.23825456 -1.2321994 0.049551278
0 -0 0
0.72676718 -2.6909978 0.057317182
0.84246689 -2.7235057 0.031098969
0.23390387 -1.2106055 0.0035077406
1.1964457 -5.1784582 -0.03627054
0.71533388 -2.652894 -0.044218734
0.8338654 -2.699203 -0.072447561
0.22576304 -1.171765 -0.040420383
0.94398779 -4.092608 -0.18183652
0 -0 -0
0.30024758 -0.97273719 -0.063513309
0.23358344 -1.2166979 -0.087459251
0 -0 -0
0 -0 -0
0 -0 -0
0 -0 -0
0 -0 -0
0 -0 -0
0 -0 -0
0 -0 -0
0 -0 -0
0 -0 -0
0.23770972 -0.77204025 -0.14088318
0 -0 -0
0.20041481 -0.87685007 -0.17327423
0.2147578 -0.80291623 -0.16825175
0.23605397 -0.76751995 -0.17097582
0 -0 -0
0 -0 -0
0.21967717 -0.82165301 -0.20555639
0.23911971 -0.77652323 -0.20512803
0 -0 -0
0.18244413 -0.80267417 -0.22369048
0.20660755 -0.77358061 -0.22607604
0.22451991 -0.72902101 -0.22392897
0.22006674 -1.1777422 0.37014881
0 -0 0
0.71657306 -2.6832886 0.79549235
0.82235843 -2.6747894 0.77242362
0.22791184 -1.2154968 0.33018774
0 -0 0
0 -0 0
0.82119787 -2.6823435 0.6607514
0.23329456 -1.244084 0.28745952
0.31021473 -1.368739 0.30400133
0.54521126 -2.0509362 0.43851414
0.81585741 -2.6717281 0.54923147
0.22450255 -1.1957014 0.2292183
0.27235386 -1.2031492 0.21969146
0.51686084 -1.9482608 0.33922201
0.78416026 -2.5714624 0.42656538
0.22106162 -1.1779417 0.18035834
0.30693159 -1.3590939 0.19571929
0.68996161 -2.6062536 0.35264224
0.81909806 -2.694627 0.34151641
0.22540773 -1.2022578 0.13830711
0 -0 0
0.70726472 -2.6759558 0.25968888
0.81130064 -2.6736703 0.23599814
0.22985283 -1.2270306 0.095224299
0 -0 0
0.69912457 -2.6477761 0.15670323
0.80542874 -2.6574905 0.13202219
0.22830173 -1.2208697 0.049038406
0.25054267 -1.1136543 0.034157772
0.71075135 -2.69734 0.057358302
0.80952054 -2.6750276 0.030488117
0.22738971 -1.2169329 0.0035219651
0.27456346 -1.2225182 -0.0085507035
0.69980574 -2.6601343 -0.044267006
0.80774403 -2.6726902 -0.07160157
0.21692148 -1.1642855 -0.04011571
0.23714587 -1.0577261 -0.046929739
0 -0 -0
0 -0 -0
0.22320062 -1.2024161 -0.08633256
0 -0 -0
0 -0 -0
0 -0 -0
0.21742608 -1.1731333 -0.12839152
0 -0 -0
0 -0 -0
0.24472374 -0.81205255 -0.11583209
0.20917928 -1.1338272 -0.16704819
0 -0 -0
0.21598636 -0.8257603 -0.14033854
0.23609327 -0.78386021 -0.14277308
0.19603114 -1.0671521 -0.198412
0 -0 -0
0.21230154 -0.81370258 -0.17023586
0.230213 -0.76520747 -0.1701428
0 -0 -0
0 -0 -0
0.21095206 -0.80887705 -0.20203257
0.23099469 -0.76683533 -0.20219062
0.17643984 -0.97089171 -0.25814429
0.18126151 -0.82073981 -0.2284108
0.20404062 -0.7832154 -0.22852157
0.23000669 -0.76345897 -0.23406915
0.2094416 -1.1602654 0.36424533
0 -0 0
0.7063958 -2.7118225 0.80265152
0.80620837 -2.6807079 0.77268964
0.22234388 -1.2273297 0.33302528
0.30022091 -1.364305 0.35763565
0 -0 0
0.80779529 -2.6975887 0.66327333
0.22374427 -1.234937 0.28502342
0.26439938 -1.2007211 0.26631871
0.52450579 -2.0229599 0.43183628
0.77136827 -2.5826662 0.52993995
0.21558292 -1.188354 0.22755194
0.25946829 -1.179798 0.21513283
0.49304011 -1.90557 0.33125591
0.74211526 -2.4882061 0.41199133
0.21153618 -1.1666269 0.17842379
0.28988576 -1.3212935 0.19001603
0.67643565 -2.6200387 0.35393918
0.79717386 -2.6815224 0.3392292
0.21749523 -1.2006849 0.13797005
0.23190284 -1.0570966 0.11185718
0.6930685 -2.6889219 0.26052958
0.7875095 -2.6537609 0.23380986
0.21859057 -1.2078134 0.09362708
0.24168363 -1.1033369 0.075238913
0.6987977 -2.7138932 0.16035946
0.78683668 -2.6547208 0.13164227
0.22595789 -1.2507633 0.050182506
0.26035002 -1.1913381 0.036490787
0.69493383 -2.7045555 0.057419978
0.78713286 -2.6598089 0.030259049
0.21956319 -1.2163371 0.0035162754
0.26684394 -1.2232029 -0.0085438797
0.691172 -2.694402 -0.044765834
0.7882129 -2.6670506 -0.071319573
0.21508418 -1.1951034 -0.041131295
0.25531083 -1.1723989 -0.051947113
0.28046176 -1.0961081 -0.059810068
0 -0 -0
0.21986732 -1.2263458 -0.087952174
0.21222632 -0.97701305 -0.08009053
0 -0 -0
0 -0 -0
0.20934784 -1.1695517 -0.12785655
0 -0 -0
0 -0 -0
0 -0 -0
0.2117651 -1.1886772 -0.17493457
0 -0 -0
0 -0 -0
0.23044422 -0.78245914 -0.14225765
0.1886206 -1.0634919 -0.19751258
0 -0 -0
0.2063383 -0.81119043 -0.16944221
0.22440934 -0.76285231 -0.16930979
0.1716041 -0.97297937 -0.21910588
0.18303664 -0.85050285 -0.20147353
0.21173333 -0.83276528 -0.20767069
0.23039442 -0.78218931 -0.20586236
0.17031209 -0.97100312 -0.25789118
0.1731873 -0.80768329 -0.2244772
0.20112623 -0.7919147 -0.23069538
0.22287759 -0.75657225 -0.23153411
0.20494163 -1.1765889 0.3689681
0 -0 0
0.68714023 -2.7058563 0.7996226
0.78974468 -2.6856043 0.77268964
0.21564089 -1.2334296 0.33431506
0.25662845 -1.2012774 0.31448129
0 -0 0
0.7931425 -2.7090335 0.66487825
0.21364325 -1.2218777 0.28170145
0.26213479 -1.2262145 0.27161121
0 -0 0
0 -0 0
0.21388 -1.221598 0.23366196
0.24914084 -1.1669257 0.21250282
0.4892965 -1.9401138 0.3367326
0.65661103 -2.2518802 0.3721869
0.21340798 -1.2195284 0.18631077
0.25454459 -1.1951979 0.17165431
0.59767538 -2.3750918 0.32034802
0.77904308 -2.6806433 0.33850691
0.21115054 -1.2078698 0.13864417
0.25338161 -1.1898391 0.1257365
0.67582881 -2.690227 0.26024935
0.76704735 -2.6441882 0.2325474
0.20602903 -1.1796649 0.091345355
0.25005785 -1.1760449 0.080090888
0.6772722 -2.6987631 0.1592169
0.77776003 -2.6844437 0.13287701
0.21175817 -1.21472 0.048683345
0.25490189 -1.2017133 0.036759984
0.68221176 -2.7242858 0.05774891
0.77385426 -2.6751547 0.030379036
0.20832059 -1.1959878 0.003453688
0.25705501 -1.214056 -0.0084688133
0.67511147 -2.7005322 -0.044798017
0.77044618 -2.6670349 -0.071191393
0.20295952 -1.1688292 -0.040183414
0.24707937 -1.1690561 -0.051730849
0.66729456 -2.6762106 -0.14580354
0.27731019 -0.96083838 -0.062392488
0.21216846 -1.2266887 -0.087881751
0.2489945 -1.181174 -0.096699543
0 -0 -0
0 -0 -0
0.21113409 -1.2227416 -0.13352717
0 -0 -0
0 -0 -0
0.23172365 -0.80452144 -0.11434358
0.19943963 -1.160693 -0.1706329
0 -0 -0
0 -0 -0
0.22863641 -0.79427195 -0.14414755
0.18408164 -1.0762645 -0.19967118
0 -0 -0
0.2032433 -0.82005191 -0.17102949
0.23107541 -0.80369467 -0.17805642
0.16497611 -0.97016406 -0.21823984
0.17462867 -0.83635151 -0.1978637
0 -0 -0
0.22639538 -0.78638351 -0.20659672
0.16386706 -0.96916813 -0.25713193
0.18237822 -0.87675476 -0.24335846
0.19302697 -0.78005517 -0.22689122
0.2153108 -0.74778301 -0.22843572
0.19234043 -1.1457875 0.3589322
0.25552341 -1.2314675 0.37355018
0.67283344 -2.7193537 0.80237609
0.77298498 -2.6894732 0.77242362
0.20871085 -1.2385404 0.33534691
0.24964589 -1.2047267 0.31497732
0 -0 0
0.77704078 -2.7157209 0.66533679
0.21230026 -1.2597066 0.29011706
0.26016244 -1.2545952 0.27753884
0.40856344 -1.6593399 0.35311824
0 -0 0
0.20376384 -1.2073832 0.23069952
0.24377289 -1.1771089 0.21408083
0.46585426 -1.8961545 0.32860059
0 -0 0
0.19786185 -1.1730354 0.17901905
0.24199763 -1.1715224 0.16803761
0.52501792 -2.1418061 0.28844294
0.75091922 -2.6443095 0.3333306
0.2015889 -1.1964045 0.13718358
0.24305801 -1.1767594 0.12419436
0.66096574 -2.7010932 0.26090324
0.7641235 -2.6958201 0.23667145
0.20590411 -1.2231874 0.094615832
0.23276085 -1.1286958 0.076767616
0.65761828 -2.6902604 0.15847422
0.77134079 -2.7247262 0.13463414
0.20281075 -1.2071277 0.048328277
0.25054455 -1.2179406 0.037208643
0.66927356 -2.7439616 0.058077849
0.77564698 -2.744323 0.031109879
0.20445478 -1.2179536 0.0035134302
0.24557829 -1.1960196 -0.0083323298
0.6677537 -2.742512 -0.045425575
0.76520014 -2.7111573 -0.072242469
0.20716478 -1.2380674 -0.042519268
0.24351209 -1.188167 -0.052509405
0.65227503 -2.6860771 -0.14612028
0 -0 -0
0.20594943 -1.2358391 -0.088445097
0.22237892 -1.0879481 -0.088953994
0 -0 -0
0 -0 -0
0.20215906 -1.2151871 -0.13256425
0 -0 -0
0.20472617 -0.84460777 -0.11000428
0 -0 -0
0.19538456 -1.1804463 -0.17335729
0 -0 -0
0 -0 -0
0.22615883 -0.80419499 -0.14569382
0.18211107 -1.1055214 -0.20488782
0 -0 -0
0 -0 -0
0.22164336 -0.78908962 -0.17451613
0.16075553 -0.98175603 -0.22062144
0.1774175 -0.87655628 -0.20711388
0 -0 -0
0 -0 -0
0.17143971 -1.0532297 -0.27915013
0.17585076 -0.87218153 -0.24178502
0.18868788 -0.78309602 -0.22743466
0.21565512 -0.76663965 -0.23378749
0.18606834 -1.1516622 0.36040807
0.23170884 -1.1521897 0.34906444
0 -0 0
0.76063746 -2.7090144 0.77668089
0.20219027 -1.2464736 0.33715263
0.2462548 -1.2261814 0.3201856
0 -0 0
0.75931478 -2.7166879 0.66441971
0.20362988 -1.25521 0.28878829
0.24302354 -1.2092172 0.26716551
0.31344858 -1.3075488 0.27784029
0.50450814 -1.8100319 0.36943391
0.19414546 -1.1950309 0.22810741
0.2371269 -1.1814783 0.21460682
0.36956251 -1.545077 0.26736137
0.51161605 -1.838262 0.30276427
0.19937733 -1.2279118 0.18720362
0.228196 -1.1399707 0.16330805
0 -0 0
0.72884285 -2.6278219 0.33068228
0.19965304 -1.2309679 0.14100361
0.23934704 -1.195785 0.12604494
0.6406883 -2.6896014 0.25940862
0.74650455 -2.6966166 0.2363348
0.20126557 -1.2421446 0.095984876
0.23873554 -1.1946801 0.081154339
1.7911016 -7.5271802 0.44274524
0.74529159 -2.6957114 0.13297199
0.20114252 -1.2438601 0.049748536
0.24345745 -1.2214154 0.037268464
0.64526504 -2.7178614 0.057440538
0.74921548 -2.7143304 0.030717188
0.2017626 -1.2488011 0.0035987771
0.24233243 -1.2181 -0.008475638
1.2125943 -5.1165943 -0.084623843
0.7400502 -2.684962 -0.071422115
0.1959098 -1.2166208 -0.041740648
0.23368753 -1.1768997 -0.051947113
0 -0 -0
0 -0 -0
0.19788878 -1.2341248 -0.088233843
0.23815981 -1.2027192 -0.098216705
0 -0 -0
0 -0 -0
0.19611327 -1.2252405 -0.13352717
0.22368769 -1.1322267 -0.13516855
0 -0 -0
0 -0 -0
0.19031639 -1.1953058 -0.17536473
0 -0 -0
0.19565614 -0.83081222 -0.14033854
0.21652441 -0.78846824 -0.14260127
0.17455465 -1.1017601 -0.2039884
0.19216664 -0.97797376 -0.19200148
0.19562967 -0.83297998 -0.17321201
0.21834967 -0.79609418 -0.17576563
0.18099748 -1.1495652 -0.25807726
0.18309249 -0.93403375 -0.22042511
0 -0 -0
0 -0 -0
0.16033736 -1.0246315 -0.27130455
0.17678311 -0.90544611 -0.25070116
0.18278089 -0.77955425 -0.22607604
0.2145052 -0.78090179 -0.23773089
0.18090418 -1.1650559 0.36424533
0.23342961 -1.1987548 0.36273089
0.27340686 -1.1662139 0.34308878
0.74680465 -2.7238567 0.77960771
0.19483592 -1.2495999 0.33766854
0.2342885 -1.2048467 0.31423327
0.29362985 -1.2567184 0.31730381
0.72546196 -2.658381 0.6490587
0.19832821 -1.2718523 0.2923317
0.23559935 -1.2106856 0.26716551
0.29941365 -1.2836972 0.2723766
0.49854538 -1.8320291 0.37329221
0.19423912 -1.2437757 0.23717983
0.22874618 -1.1771125 0.21355483
0.26731837 -1.1487209 0.19848803
0.51198065 -1.8842556 0.30981624
0.18528195 -1.1870996 0.18080477
0.23777734 -1.226902 0.17554922
0 -0 0
0.71114838 -2.6264951 0.32995999
0.19439217 -1.2468969 0.1426889
0.2272744 -1.1728178 0.12347469
0 -0 0
0.71278751 -2.6376579 0.23077992
0.19256605 -1.2364596 0.095452473
0.23215869 -1.2000409 0.081420191
1.7410544 -7.521493 0.44177404
0.72405219 -2.6828749 0.13211717
0.1916651 -1.2332225 0.049275119
0.23236033 -1.2042388 0.036700163
1.6976513 -7.3509207 0.15513468
0.72292143 -2.6831524 0.030313587
0.19271538 -1.2411221 0.003573173
0.23239554 -1.2067988 -0.008386923
1.1874654 -5.1512194 -0.085074395
0.72096449 -2.6797988 -0.071165755
0.1934845 -1.2503932 -0.042857796
0.23683266 -1.2322723 -0.054326039
0.76938128 -3.3469114 -0.18154177
0 -0 -0
0.19198336 -1.2461605 -0.089008443
0.22702314 -1.1845781 -0.096619688
0 -0 -0
0 -0 -0
0.18798719 -1.22249 -0.13309921
0.223451 -1.1686975 -0.13935621
0 -0 -0
0 -0 -0
0.1792382 -1.1719939 -0.17178002
0.20651871 -1.083418 -0.17032798
0 -0 -0
0 -0 -0
0.16719922 -1.0989205 -0.20326886
0.19313191 -1.0157917 -0.19918971
0.19422483 -0.85040843 -0.17658497
0.21017291 -0.7851364 -0.17305835
0 -0 -0
0.17772098 -0.93705386 -0.22087634
0.19577533 -0.857611 -0.21260403
0 -0 -0
0 -0 -0
0 -0 -0
0.18205896 -0.79848868 -0.23123883
0.2039948 -0.76088732 -0.23125245
0.17037283 -1.1434636 0.35716113
0.2173748 -1.1540043 0.34877971
0 -0 0
0.73356581 -2.7414246 0.78333282
0.18487713 -1.2354836 0.33354121
0.22742853 -1.2091178 0.31497732
0 -0 0
0 -0 0
0.19095354 -1.2759385 0.29299608
0.23033585 -1.223634 0.26970592
0.36062393 -1.5901743 0.33692944
0.48880589 -1.8407438 0.37444973
0.18631247 -1.2430004 0.23680954
0.22588417 -1.2017155 0.21776281
0.27027509 -1.1945833 0.20612217
0.51914001 -1.9580064 0.3214128
0.18502644 -1.2351558 0.18794768
0.21437207 -1.1436585 0.16344717
0.27287841 -1.2090305 0.16211945
0.59511489 -2.2526484 0.28253049
0.18629658 -1.2451179 0.14235184
0.23015216 -1.2279624 0.12912923
0.27570024 -1.2238203 0.11770071
0.70802176 -2.6853404 0.23456734
0.18247001 -1.2208533 0.094159484
0.22662604 -1.2112505 0.082084849
0.25709081 -1.142516 0.067011632
0.70732242 -2.6863012 0.13206968
0.18674766 -1.2521645 0.049985249
0.23138404 -1.2400326 0.037747029
0.26454252 -1.1784161 0.024834706
0.70695275 -2.689472 0.030335404
0.18789639 -1.2610737 0.003627226
0.22663395 -1.2170496 -0.0084483409
0.27392891 -1.2225243 -0.020162325
0.70679206 -2.6928744 -0.071396478
0.18008463 -1.2130018 -0.041537534
0.22707668 -1.2219154 -0.053807002
0.26260242 -1.1753396 -0.063663676
0 -0 -0
0.18418761 -1.2463282 -0.08893802
0.22465396 -1.2124121 -0.09877567
0 -0 -0
0 -0 -0
0.18164326 -1.2314893 -0.13395517
0.21844216 -1.1817665 -0.14075211
0 -0 -0
0 -0 -0
0.1782188 -1.2151767 -0.17794573
0.21132901 -1.1468678 -0.18009588
0.1938072 -0.8707146 -0.14666593
0.21829538 -0.83490813 -0.15050447
0.16641699 -1.140808 -0.210824
0.18423316 -1.002471 -0.19635224
0.19855951 -0.89464182 -0.18551344
0.20881103 -0.79966003 -0.17597389
0.15973705 -1.102424 -0.24703537
0.18654749 -1.0176615 -0.23960233
0.18482573 -0.83317453 -0.20626114
0 -0 -0
0 -0 -0
0.17033723 -0.93317896 -0.25778165
0.17507437 -0.79019487 -0.22852157
0.19956501 -0.76305294 -0.23153411
0.16308345 -1.1425958 0.35657078
0.21217819 -1.1656907 0.3519116
0.25969881 -1.172297 0.34391484
0.70772302 -2.7113638 0.77348793
0.17811556 -1.2423331 0.33508894
0.22173755 -1.220022 0.31745747
0.2645801 -1.1985906 0.30178481
0.44758165 -1.7230998 0.41933182
0.18187521 -1.2683985 0.2910029
0.22054972 -1.2125241 0.2669538
0.26825511 -1.2174598 0.2576043
0.49324661 -1.9045004 0.38679633
0.18049821 -1.2567657 0.23921652
0.21674702 -1.1933922 0.21600948
0.26315188 -1.1971823 0.20628813
0.517748 -2.0022712 0.32815132
0.17744417 -1.2362679 0.18794768
0.21758585 -1.2014691 0.1715152
0.26970211 -1.2300531 0.16471337
0.57930034 -2.2485669 0.28156748
0.17893519 -1.2482048 0.14257655
0.21889114 -1.208797 0.12697023
0.26222613 -1.1982559 0.11508514
0.69227588 -2.6925294 0.23481984
0.17483422 -1.220963 0.094083436
0.21865726 -1.2096727 0.081885457
0.26904982 -1.2308772 0.072096065
0.70150787 -2.7321928 0.13411175
0.17948499 -1.2562543 0.050103605
0.2253668 -1.2502822 0.038016222
0.26412299 -1.2112758 0.025492577
0.70036793 -2.7325041 0.030771727
0.18170932 -1.2730924 0.0036585194
0.21367411 -1.1879077 -0.008236791
0.26344571 -1.2105041 -0.01993705
0.69769102 -2.7262144 -0.072165564
0.17587449 -1.2368418 -0.042316146
0.21480918 -1.1967353 -0.05263916
0.25835037 -1.1905912 -0.064402722
0 -0 -0
0.17527884 -1.2385459 -0.088304259
0.21246944 -1.1872748 -0.096619688
0.22604413 -1.0425001 -0.095596783
0 -0 -0
0.17895012 -1.2670377 -0.1376999
0.21275769 -1.1918844 -0.14179903
0 -0 -0
0 -0 -0
0.16855767 -1.2005665 -0.17565151
0.20186421 -1.1345208 -0.17795914
0 -0 -0
0 -0 -0
0.16118222 -1.1544727 -0.21316248
0.18236762 -1.0277536 -0.20108135
0.19347933 -0.89775956 -0.18591025
0.20679611 -0.81230038 -0.17847294
0.15886863 -1.1459328 -0.25656173
0.1719808 -0.97178072 -0.22854722
0.18462235 -0.85709822 -0.21189928
0 -0 -0
0.12456053 -0.90473354 -0.23890999
0.16711996 -0.94846195 -0.26171523
0.17042494 -0.79219508 -0.22879331
0.19725004 -0.7735607 -0.23435083
0.16201259 -1.1871217 0.37014881
0.20717803 -1.1792446 0.35561296
0.24764892 -1.1513121 0.33730638
0.68917131 -2.7081821 0.77135932
0.16904569 -1.2328734 0.33225143
0.21508437 -1.2261304 0.31869754
0.26373261 -1.230576 0.30942491
0 -0 0
0.17382407 -1.2675583 0.29055998
0.21395065 -1.2186675 0.26801232
0.26344299 -1.2315322 0.26023498
0.42991385 -1.7029471 0.34531942
0.17438823 -1.2695323 0.24143833
0.20687065 -1.1801537 0.21337949
0.25230268 -1.1823792 0.20346682
0.47334883 -1.8780371 0.30730885
0.16703106 -1.2167603 0.18482266
0.20833433 -1.1920512 0.16998504
0.25492495 -1.1977407 0.16017401
0.58652622 -2.3358459 0.29204047
0.17181283 -1.253217 0.14302595
0.21078508 -1.206198 0.12655899
0.25611007 -1.2056856 0.11564562
0.67283535 -2.6851275 0.23380986
0.16598646 -1.2121339 0.093322858
0.21637432 -1.2404799 0.083879419
0.24305102 -1.1455849 0.067011632
0.6837604 -2.7325697 0.13392179
0.17055608 -1.2484217 0.049748536
0.21306655 -1.2250528 0.037208643
0.24923362 -1.1776613 0.024752473
0.68480003 -2.741601 0.030826269
0.17186603 -1.2593212 0.0036158462
0.21493058 -1.2384589 -0.0085780006
0.25621986 -1.213076 -0.019953139
0.68022442 -2.7275341 -0.072088651
0.16882056 -1.241859 -0.04245156
0.20916682 -1.207875 -0.0530717
0.25289214 -1.2009486 -0.064877823
0 -0 -0
0.16687368 -1.2336669 -0.087881751
0.21179372 -1.2268651 -0.099733874
0.20897894 -0.9931848 -0.090955295
0 -0 -0
0.17037433 -1.2622 -0.13705795
0.20308097 -1.1794641 -0.14017048
0 -0 -0
0.2119924 -0.85289025 -0.12002694
0.15776683 -1.1760752 -0.1719234
0.1964035 -1.1445045 -0.17933276
0 -0 -0
0 -0 -0
0.14681333 -1.1008369 -0.20308898
0.18566419 -1.0849901 -0.21205285
0.19338347 -0.92483282 -0.19126733
0.20110159 -0.81070602 -0.17784818
0.15824082 -1.1952778 -0.26738709
0.16650648 -0.97569871 -0.22922407
0.19109176 -0.91435093 -0.22575964
0 -0 -0
0 -0 -0
0.1624285 -0.95612913 -0.26355091
0.17716196 -0.84880817 -0.24482514
0.19088027 -0.76823807 -0.23237914
0.15904398 -1.2212539 0.3804799
0.19977833 -1.1795485 0.35532823
0.24765006 -1.1866884 0.34721905
0 -0 0
0.1624807 -1.2415513 0.33431506
0.20658778 -1.2216959 0.31720945
0.25044462 -1.2045994 0.30250108
0 -0 0
0.16060124 -1.2270235 0.28103706
0.20973077 -1.23923 0.2722463
0.25150406 -1.2120301 0.25578305
0.36462268 -1.4825925 0.3001771
0.16544545 -1.2618092 0.23977198
0.20831911 -1.2328506 0.22267212
0.24764132 -1.1964588 0.2056243
0.45757747 -1.8636414 0.30448806
0.16200297 -1.2363913 0.18765005
0.2029901 -1.2050253 0.17165431
0.25218159 -1.2216171 0.16315702
0.64529753 -2.6383348 0.32935807
0.16051014 -1.2266601 0.13988006
0.20387566 -1.2104113 0.12686743
0.25413147 -1.2335634 0.11816778
0.65729213 -2.6930776 0.23414651
0.16190538 -1.2388356 0.095300354
0.20495416 -1.2191527 0.082350716
0.24245593 -1.1783469 0.068839736
0.66130435 -2.7134228 0.13278203
0.16134258 -1.2375548 0.049275119
0.20554575 -1.2263371 0.037208643
0.24541992 -1.1958178 0.025101967
0.66914678 -2.7506092 0.030880809
0.16439402 -1.2623353 0.0036215358
0.21029639 -1.2575074 -0.0087008355
0.25037673 -1.2224616 -0.02008187
0.6592288 -2.7141709 -0.071627207
0.15914074 -1.2270133 -0.041909914
0.2042179 -1.2239172 -0.053720497
0.24491918 -1.1995425 -0.064719461
0 -0 -0
0.15993913 -1.2396141 -0.088233843
0.20197226 -1.2143753 -0.098615959
0.23194925 -1.1369307 -0.10398716
0 -0 -0
0.16491157 -1.2809718 -0.13898382
0.19974063 -1.2042037 -0.14296226
0 -0 -0
0 -0 -0
0.15255658 -1.1927279 -0.17421763
0.19098897 -1.1554387 -0.180859
0.18797176 -0.92441654 -0.15510246
0 -0 -0
0.14476998 -1.1387987 -0.20992458
0.18219694 -1.1054864 -0.21583612
0 -0 -0
0.20163506 -0.83474225 -0.18284623
0.13844046 -1.0974286 -0.2453033
0.15640888 -0.95170772 -0.22335811
0.19570708 -0.96599722 -0.23821048
0 -0 -0
0.1296728 -1.0357873 -0.27307612
0.15515673 -0.94853669 -0.26119077
0.16450754 -0.81309205 -0.23422782
0.18616286 -0.76939481 -0.23237914
0.14672716 -1.1833314 0.36837775
0.19145708 -1.1741292 0.3533352
0.23731418 -1.1731095 0.3428134
0 -0 0
0.15342574 -1.23102 0.33121955
0.19924337 -1.2238966 0.31745747
0.24113034 -1.196594 0.30011353
0.3059881 -1.2739139 0.30859521
0.15306935 -1.2279857 0.28103706
0.20243742 -1.2424228 0.27266973
0.24077997 -1.197229 0.25234294
0.4021292 -1.6794673 0.33953196
0.15660402 -1.2540243 0.2381056
0.19901177 -1.2234164 0.22074345
0.23796801 -1.1863533 0.20363279
0.42569843 -1.7809221 0.29054087
0.15490338 -1.2412872 0.18824531
0.19289783 -1.1896304 0.16928953
0.24059664 -1.2027234 0.16043341
0 -0 0
0.15654388 -1.2562171 0.1431383
0.19883278 -1.2263677 0.12840956
0.24032062 -1.2038559 0.11517855
0.62693602 -2.6388919 0.22909662
0.1565176 -1.2576162 0.096669391
0.20113543 -1.2430419 0.083879419
0.23736842 -1.1905825 0.069468156
0.64072311 -2.7009068 0.1319747
0.15337676 -1.2355466 0.049156763
0.19610709 -1.2157336 0.036849719
0.23866285 -1.2002429 0.025163643
1.7314411 -7.3123608 0.081974313
0.15676844 -1.2643127 0.0036243808
0.1986044 -1.2340922 -0.0085302303
0.24053583 -1.2122059 -0.019888775
1.2046324 -5.0958295 -0.13428178
0.15405817 -1.2478046 -0.042586971
0.19670424 -1.2251472 -0.053720497
0.23619798 -1.1941653 -0.064349934
0 -0 -0
0.15220842 -1.2395822 -0.088163428
0.19577722 -1.2234659 -0.099254765
0.20044433 -1.0142397 -0.092651226
0 -0 -0
0.15753217 -1.2859071 -0.13941179
0.19688673 -1.2338499 -0.14633566
0 -0 -0
0 -0 -0
0.14511575 -1.1926591 -0.17407425
0.18172313 -1.1429243 -0.17872226
0 -0 -0
0 -0 -0
0.14025904 -1.1601737 -0.21370214
0.17525665 -1.1056137 -0.21564698
0 -0 -0
0.20188095 -0.85881472 -0.18784432
0.13856253 -1.1554482 -0.25807726
0.16045204 -1.0151972 -0.23802303
0.1879046 -0.9576416 -0.23586127
0 -0 -0
0.11577199 -0.97315925 -0.25637269
0.15758003 -1.0019014 -0.27561393
0.1770954 -0.90380555 -0.2600418
0.18231814 -0.77425849 -0.23350582
0.14639209 -1.2430403 0.38667858
0.19063328 -1.2160048 0.36557809
0.22992684 -1.1736002 0.34253806
0.2875213 -1.2236677 0.34696534
0.14552863 -1.2290598 0.33044568
0.19487551 -1.2451954 0.32266575
0.23452757 -1.2018634 0.30106854
0.3141152 -1.3440105 0.32510254
0.14966024 -1.2637644 0.28900975
0.19541523 -1.2475038 0.27351651
0.23773481 -1.2207927 0.25699723
0.39382023 -1.6905037 0.34126818
0.1492539 -1.2578892 0.23866105
0.19712919 -1.2606039 0.22723074
0.23181224 -1.1935993 0.20462853
0.32259333 -1.387167 0.22597621
0.14518833 -1.2245386 0.18556672
0.18833978 -1.2084039 0.1717934
0.2317041 -1.1963893 0.15939584
0 -0 0
0.15151986 -1.2798499 0.14572245
0.19023204 -1.2206848 0.1276899
0.23500744 -1.2160608 0.1162061
0 -0 0
0.15055414 -1.2734059 0.097810254
0.19212449 -1.2353791 0.083281226
0.23819397 -1.2341684 0.071924672
0 -0 0
0.14895192 -1.2632577 0.050221954
0.19323739 -1.2465467 0.037747029
0.23526207 -1.2223018 0.025595371
1.6750951 -7.2731509 0.081418
0.15064527 -1.2791548 0.0036642095
0.19240384 -1.2441818 -0.0085916482
0.22988738 -1.1969663 -0.019615225
1.166846 -5.0748715 -0.13353834
0.14779539 -1.2606381 -0.04299321
0.19024941 -1.2332428 -0.054023266
0.23149474 -1.2093233 -0.06508898
0 -0 -0
0.14529258 -1.2464375 -0.088585928
0.1878121 -1.2216884 -0.099015214
0.212928 -1.1132779 -0.10157716
0 -0 -0
0.14849061 -1.2769735 -0.13834187
0.18615207 -1.2144182 -0.14389285
0.2227795 -1.1664407 -0.15031406
0 -0 -0
0.1447188 -1.2534984 -0.18282098
0.17485605 -1.1449949 -0.17887489
0.20617235 -1.081742 -0.18106104
0 -0 -0
0.14187908 -1.2372406 -0.22773308
0.16758275 -1.1008437 -0.21451199
0.19187512 -1.0100821 -0.20813218
0.19660756 -0.86003727 -0.18784432
0.13522021 -1.1892577 -0.26543856
0.15465842 -1.0190521 -0.23869988
0.18855187 -0.993155 -0.24431846
0.19216746 -0.83926594 -0.21736717
0.12876679 -1.1420883 -0.30066216
0.1446577 -0.95800281 -0.26328868
0.1731597 -0.91338497 -0.26248732
0 -0 -0
0.13441925 -1.2049835 0.37457642
0.17945941 -1.1925052 0.3581754
0.22558603 -1.1901014 0.34694371
0.27614248 -1.2084937 0.34217593
0.13884626 -1.2376107 0.33250937
0.18564841 -1.2358296 0.31993759
0.22552747 -1.1946918 0.29891977
0.26984069 -1.1874024 0.28681472
0.13820602 -1.2317098 0.28147998
0.18455991 -1.2274171 0.26885912
0.22498223 -1.1943192 0.25112879
0.29283637 -1.2928729 0.26062936
0.14285044 -1.2705001 0.2408829
0.18865988 -1.2569218 0.22635408
0.22448409 -1.1949992 0.20462853
0.30492795 -1.3486606 0.2193944
0.14043203 -1.2499734 0.18928698
0.1819471 -1.2163926 0.17276715
0.22746223 -1.2143568 0.16160066
0 -0 0
0.14488243 -1.2916178 0.14695834
0.18200281 -1.2169102 0.12717585
0.2310167 -1.2360748 0.11798094
0.27104387 -1.2065268 0.10444853
0.14196087 -1.2673694 0.097277857
0.1848353 -1.2385085 0.083414167
0.22841868 -1.2238297 0.071239136
0.26496115 -1.1812818 0.057557873
0.14186342 -1.2701062 0.050458666
0.18132046 -1.2190373 0.036879625
0.22903833 -1.2306027 0.025739282
0.27370536 -1.2226641 0.013667839
0.1436806 -1.2880056 0.0036869682
0.18403228 -1.2403932 -0.0085575273
0.22509441 -1.2121172 -0.019840501
0.2716575 -1.215606 -0.031942554
0.14237338 -1.2823809 -0.043704119
0.18297131 -1.2363635 -0.054109775
0.22407012 -1.2107209 -0.06508898
0.26548707 -1.18936 -0.076029167
0.13972071 -1.2661442 -0.089923881
0.18263905 -1.2385962 -0.10029283
0.22347875 -1.2085865 -0.11014605
0 -0 -0
0.14097878 -1.2808254 -0.13866284
0.18649785 -1.2686005 -0.15017435
0.21669896 -1.1736393 -0.15106751
0 -0 -0
0.13820691 -1.2651846 -0.18439823
0.1681136 -1.1480019 -0.17918013
0.20721905 -1.1247147 -0.18803741
0 -0 -0
0.1355577 -1.2498233 -0.2298917
0.16167589 -1.1076812 -0.21564698
0.19682482 -1.0719728 -0.22063203
0.1934479 -0.8707754 -0.18992685
0.12948562 -1.2046254 -0.26868615
0.16846094 -1.1578434 -0.27096272
0.18824387 -1.0258429 -0.25207087
0.18933082 -0.85083997 -0.22005978
0.11991185 -1.1255409 -0.29610667
0 -0 -0
0.16599098 -0.90591073 -0.2600418
0.17467909 -0.78486687 -0.23604088
0.12722327 -1.2076859 0.37516677
0.17186528 -1.1916864 0.35760596
0.21914564 -1.1961912 0.34832048
0 -0 0
0.13226804 -1.2480471 0.33508894
0.17902823 -1.2436576 0.32167369
0.22028403 -1.2075169 0.30178481
0.28059882 -1.270776 0.30653179
0.13280436 -1.2528992 0.28613073
0.18009172 -1.249808 0.27351651
0.21870209 -1.2014581 0.25234294
0.27793893 -1.2630219 0.25426313
0.13411784 -1.2625577 0.23921652
0.1780007 -1.2375916 0.22267212
0.21679525 -1.1944137 0.20429662
0.26126122 -1.1894101 0.19322377
0.13275969 -1.2508116 0.18928698
0.17644678 -1.2312098 0.1747146
0.21771139 -1.2030454 0.15991463
0 -0 0
0.13716389 -1.2944587 0.14718303
0 -0 0
0 -0 0
0 -0 0
0.13575545 -1.2830901 0.09841872
0 -0 0
0 -0 0
0 -0 0
0.13752666 -1.3037452 0.051760569
0 -0 0
0 -0 0
0 -0 0
0.1409083 -1.3375931 0.0038263674
0 -0 -0
0 -0 -0
0 -0 -0
0.13741933 -1.3110619 -0.044652
0 -0 -0
0 -0 -0
0 -0 -0
0.13515231 -1.2977344 -0.092106842
0 -0 -0
0 -0 -0
0 -0 -0
0.13424699 -1.2925446 -0.13983977
0.17746451 -1.2608694 -0.14912744
0.21245398 -1.1915504 -0.1532023
0 -0 -0
0.13287565 -1.2896358 -0.18783958
0.16312434 -1.1636925 -0.18146949
0.19720303 -1.1084781 -0.18511707
0.19847181 -0.91861856 -0.16390555
0.12788637 -1.2506316 -0.2298917
0 -0 -0
0.18699303 -1.0548239 -0.21686223
0.19532008 -0.9054088 -0.19721571
0.12258365 -1.2102538 -0.26976869
0.15423286 -1.107715 -0.25900513
0.18092845 -1.0212359 -0.25066134
0 -0 -0
0.11696335 -1.1657225 -0.30648306
0 -0 -0
0.16244094 -0.91828418 -0.26330251
0.17513005 -0.81030816 -0.24336432
0.11962213 -1.2065423 0.37457642
0.17070752 -1.2373505 0.37098774
0.21163438 -1.1965666 0.34804511
0.25885344 -1.2004839 0.338983
0.12633434 -1.2661401 0.33973223
0.17192252 -1.2485715 0.32266575
0.21472321 -1.2193658 0.30441111
0.25932983 -1.2096591 0.29140007
0.12724465 -1.2750381 0.2910029
0.16961716 -1.2305576 0.2690708
0.21200383 -1.2066356 0.25315237
0.26362407 -1.2339975 0.24808981
0.12744431 -1.2741131 0.2412532
0.17348967 -1.261093 0.22670476
0.21286552 -1.2151482 0.20761581
0.25581193 -1.1996841 0.19463417
0.12734407 -1.2742338 0.19270962
0.17251949 -1.2587591 0.1784704
0.21203133 -1.2141262 0.16121158
0.26017839 -1.2255089 0.15191883
0.1288241 -1.291321 0.14673363
0.17394325 -1.2693121 0.13241915
0.20660286 -1.1858507 0.11293664
0.26199841 -1.2370572 0.10680515
0.12797883 -1.2848912 0.098494783
0.17138001 -1.253535 0.084278211
0.21594997 -1.2412945 0.072096065
0.25643757 -1.212785 0.058935083
0.12863594 -1.2956156 0.051405508
0.16931543 -1.2429596 0.037537657
0.2161409 -1.2461268 0.026006542
0.25228083 -1.1956005 0.013329688
0.13042915 -1.3155448 0.0037609353
0.17027757 -1.2534578 -0.0086325938
0.21241917 -1.2275962 -0.020049687
0.25115675 -1.1924366 -0.03125038
0.12799905 -1.297956 -0.044178061
0.16510303 -1.2187153 -0.05324471
0.21072282 -1.2222363 -0.065564089
0.24922808 -1.184715 -0.075531021
0.12446436 -1.2707417 -0.090135135
0.16689262 -1.2367928 -0.099973433
0.20930699 -1.2151641 -0.11050309
0 -0 -0
0.12486389 -1.2785008 -0.13823487
0.17197526 -1.2786684 -0.15110494
0.20396174 -1.1859875 -0.15232328
0 -0 -0
0.12438775 -1.2845165 -0.18697923
0.15794881 -1.1793647 -0.18375885
0.19423582 -1.1320356 -0.18884861
0 -0 -0
0.12058647 -1.2553093 -0.23061123
0.15625361 -1.1709007 -0.22756431
0.18018693 -1.0540192 -0.21646541
0.18915978 -0.90371823 -0.19659096
0.11367664 -1.1954328 -0.26630455
0.15359761 -1.154995 -0.26983464
0.17433149 -1.0204107 -0.25019148
0 -0 -0
0.10436785 -1.108627 -0.29129809
0.12143377 -0.91840941 -0.25175014
0.16845442 -0.98756796 -0.28286678
0.16877624 -0.80479395 -0.24139263
0.11345468 -1.2205724 0.3787089
0.1601077 -1.215565 0.36415449
0.20574299 -1.2063715 0.35052326
0.24970599 -1.1935579 0.33658832
0.11802293 -1.2611198 0.33818448
0.16438444 -1.2505633 0.32291377
0.20544934 -1.2101291 0.30178481
0.25428092 -1.2226633 0.29415131
0.11787378 -1.2592891 0.28723803
0.16627119 -1.2635516 0.27605692
0.20116159 -1.187637 0.24890281
0.25783938 -1.2442391 0.24982606
0.1183388 -1.2611732 0.23866105
0.1631847 -1.2426111 0.2231981
0.21016711 -1.2446301 0.21242866
0.25064638 -1.2118701 0.19635798
0.11804639 -1.2592384 0.19032864
0.16132466 -1.2332823 0.1747146
0.20803387 -1.2359382 0.16393518
0.25145271 -1.2212483 0.15119654
0.119232 -1.2742789 0.14471127
0.16215263 -1.2397802 0.12923205
0.20492814 -1.22048 0.11611268
0.2564078 -1.2484024 0.1076468
0.11925784 -1.2767172 0.097810254
0.16291071 -1.2486267 0.083879419
0.20882469 -1.24555 0.07226745
0.24858998 -1.2123787 0.058840107
0.11994281 -1.288421 0.051089894
0.1614279 -1.2419926 0.037477836
0.2081611 -1.2454573 0.025965424
0.2533586 -1.2382711 0.013787828
0.12346529 -1.3282689 0.0037950741
0.16258329 -1.2544789 -0.0086325938
0.20554051 -1.2328213 -0.020114051
0.24463546 -1.197873 -0.031352926
0.11837691 -1.2808036 -0.043568708
0.16005486 -1.2385311 -0.054066516
0.20469195 -1.2323722 -0.066039182
0.24275197 -1.1901336 -0.075780094
0.11775862 -1.2834016 -0.09098015
0.15968238 -1.2407595 -0.10021298
0.20282519 -1.2223209 -0.11103865
0 -0 -0
0.1167451 -1.2762724 -0.1379139
0.16286278 -1.2698481 -0.1499417
0.20089658 -1.212664 -0.15558824
0.20124419 -0.98936772 -0.13788889
0.11632508 -1.2832843 -0.18669246
0.15546599 -1.217564 -0.18955855
0.18825151 -1.1390475 -0.18982206
0 -0 -0
0.11103269 -1.2354511 -0.22683366
0.15315525 -1.2039826 -0.23380671
0.17865223 -1.0850852 -0.22261612
0 -0 -0
0.10564782 -1.1883283 -0.2645725
0.15042773 -1.186843 -0.27705428
0.16585773 -1.0080334 -0.24690257
0 -0 -0
0.10163216 -1.1555053 -0.30344605
0.12484282 -0.9909448 -0.27141812
0.15927173 -0.96959007 -0.27743226
0.17434944 -0.8575294 -0.25688457
0.10596326 -1.2212455 0.3787089
0.14858828 -1.1841853 0.35447407
0.19833694 -1.2076112 0.35052326
0.24122812 -1.1893992 0.33499184
0.10801135 -1.235833 0.33121955
0.15550444 -1.241936 0.32043362
0.19676697 -1.2037001 0.29987478
0.24485059 -1.2146587 0.29185861
0.11005978 -1.2590172 0.28701657
0.15729946 -1.2548505 0.27393991
0.1997025 -1.224611 0.25639015
0.25020003 -1.2457978 0.24982606
0.10999755 -1.2550229 0.23736499
0.15775666 -1.2611731 0.22635408
0.20173512 -1.2410295 0.21159886
0.24339989 -1.2143536 0.1965147
0.11256021 -1.2855514 0.19419771
0.15461124 -1.2411277 0.17568831
0.2018736 -1.2460005 0.16510244
0.24337183 -1.2198474 0.15083541
0.11002693 -1.2591481 0.14291361
0.15319002 -1.2298939 0.12810114
0.19854742 -1.2285945 0.11676657
0.24174154 -1.2147697 0.10461687
0.11107524 -1.2734516 0.097506031
0.15069462 -1.2129662 0.081420191
0.20308661 -1.2586353 0.072952986
0.24406572 -1.228577 0.059552453
0.11039119 -1.2702187 0.05034031
0.15638188 -1.2637914 0.038105953
0.19861007 -1.2348659 0.025718722
0.24050641 -1.2133193 0.013493311
0.11427556 -1.3170463 0.0037609353
0.15684187 -1.271332 -0.0087417802
0.20066462 -1.2508426 -0.020387603
0.2429073 -1.2277907 -0.032096371
0.11025821 -1.2785186 -0.043467149
0.15537946 -1.2632881 -0.055104598
0.19618094 -1.2276883 -0.065722451
0.24163571 -1.2229328 -0.077772669
0.10835075 -1.2662101 -0.08971262
0.15206622 -1.2417159 -0.10021298
0.19579239 -1.2264931 -0.11130643
0.22958013 -1.1637344 -0.11780949
0.10924982 -1.2809275 -0.13834187
0.15675229 -1.2846261 -0.15157025
0.19969745 -1.2530627 -0.16061126
0 -0 -0
0.10928175 -1.2938354 -0.18812636
0.1502562 -1.2371354 -0.19245839
0.18203351 -1.1450536 -0.19063327
0.20759812 -1.0545374 -0.18744336
0.10205536 -1.2194446 -0.22377564
0.1497746 -1.2380441 -0.24023829
0.17214417 -1.0871289 -0.22281452
0.19333361 -0.9837085 -0.21345946
0.10141288 -1.2259265 -0.27279982
0.14430822 -1.1974159 -0.27931044
0.1516176 -0.95814848 -0.23445174
0.19574063 -0.99412179 -0.25579807
0.096826829 -1.1840698 -0.31078544
0.13436534 -1.1220014 -0.30708268
0.16323039 -1.0332878 -0.29536617
0.16463487 -0.83598876 -0.25012445
0.098544583 -1.2228251 0.37900403
0.14381668 -1.2060158 0.36073789
0.19347312 -1.2249483 0.35520428
0.23615518 -1.2022074 0.33818477
0.10324208 -1.27114 0.34050611
0.15017031 -1.2621061 0.32539389
0.19299619 -1.2279081 0.30560488
0.23981726 -1.2285576 0.29483908
0.10280629 -1.2655007 0.28834537
0.14763154 -1.2392941 0.27034101
