# .PCD v0.7 - Point Cloud Data file format
VERSION 0.7
FIELDS x y z
SIZE 4 4 4
TYPE F F F
COUNT 1 1 1
WIDTH 1646
HEIGHT 1
VIEWPOINT 0 0 0 1 0 0 0
POINTS 1646
DATA ascii
3.8197019 -3.1863258 -0.81785733
3.6502719 -2.8243303 -0.80492407
3.2376974 -3.1357121 -0.82422829
3.3101842 -2.977288 -0.85766965
3.0293131 -2.5301378 -0.79899746
2.9944963 -2.3184407 -0.80635613
0 -0 -0
0 -0 -0
0 -0 -0
0 -0 -0
0 -0 -0
0 -0 -0
0 -0 -0
0 -0 -0
4.4012361 -4.2889638 1.8985623
4.6989493 -4.2408853 1.8799938
5.0547543 -4.2252035 1.8869882
5.4264884 -4.2022138 1.8944733
5.1013632 -4.9649854 1.9006432
5.491004 -4.9583378 1.8940802
5.9381871 -4.9712286 1.9040616
6.3609505 -4.9379387 1.8967372
6.0351658 -5.8736191 1.9125581
6.5806308 -5.9405951 1.9203315
7.1538873 -5.9936409 1.928491
7.7705388 -6.0411034 1.9351391
7.4011083 -7.1997299 1.9453932
8.0929785 -7.3096972 1.9421567
8.8924017 -7.457859 1.9531819
0 -0 0
9.4412603 -9.1859751 1.9823049
0 -0 0
0 -0 0
0 -0 0
11.386021 -11.082019 1.7965319
12.059752 -10.904017 1.6804279
12.802939 -10.75773 1.5689692
0 -0 0
9.1053305 -8.8650074 0.969356
9.0978746 -8.231184 0.81725937
9.3591766 -7.8679938 0.69965172
0 -0 0
9.1261749 -8.8908882 0.50304806
9.1002951 -8.2414656 0.36739048
9.2683058 -7.7996111 0.24908715
9.4641438 -7.3960118 0.13102801
4.4675283 -4.3535647 0.01774638
9.1055794 -8.2523279 -0.083862409
9.2322826 -7.7756295 -0.19425347
9.309269 -7.280478 -0.30306971
0 -0 -0
0 -0 -0
1.9573776 -1.6505908 -0.1353513
9.2390318 -7.229187 -0.73189747
0 -0 -0
6.841341 -6.2113633 -0.74021858
6.4674253 -5.4555016 -0.75825834
3.5932386 -2.8132901 -0.45325029
3.065351 -2.9959304 -0.46124655
3.2739365 -2.9750667 -0.5181073
4.7445288 -4.0043039 -0.78585243
4.5371847 -3.554132 -0.78714401
3.8641443 -3.7828362 -0.78347743
3.7699614 -3.4296567 -0.78708005
3.7314799 -3.1517615 -0.80309337
3.5747161 -2.8011036 -0.79203832
3.1811688 -3.1190193 -0.81469446
3.1321251 -2.8520951 -0.81605351
3.0249572 -2.558171 -0.80197358
2.9802144 -2.3367708 -0.80635613
0 -0 -0
0 -0 -0
0 -0 -0
0 -0 -0
0 -0 -0
0 -0 -0
0 -0 -0
0 -0 -0
4.3836789 -4.3246112 1.9023995
4.677793 -4.2741642 1.8819869
5.0346045 -4.2611079 1.8891912
5.3930163 -4.2294822 1.8918126
5.0687375 -4.9941592 1.8998692
5.4604769 -4.9919367 1.8940802
5.9083133 -5.0081987 1.9043003
6.3305321 -4.9768758 1.8967372
5.9892874 -5.9009581 1.9094576
6.5519919 -5.9881144 1.9226604
7.1087613 -6.0304546 1.9262649
7.7402639 -6.0941319 1.9368755
7.3644938 -7.2525916 1.9474299
8.0799427 -7.3884492 1.9498712
8.8276806 -7.4963236 1.9490328
0 -0 0
9.3678102 -9.2270784 1.9787334
0 -0 0
9.4290476 -8.0154953 1.6187303
0 -0 0
11.310022 -11.144002 1.7952961
11.965471 -10.952958 1.6766238
9.4531775 -8.0425472 1.1644897
0 -0 0
9.1097059 -8.9788046 0.97566879
9.0170298 -8.2592211 0.81453425
9.3479748 -7.9569812 0.70245099
0 -0 0
9.141881 -9.016181 0.50695378
9.0215588 -8.2714796 0.36625388
9.2415819 -7.8744898 0.24966282
9.3981981 -7.437809 0.1307444
4.41012 -4.3506961 0.01762405
8.9449873 -8.2073107 -0.082845598
4.3974342 -3.7499766 -0.093007378
9.4282055 -7.4671793 -0.30842766
0 -0 -0
0 -0 -0
0 -0 -0
9.1725979 -7.2683849 -0.73015398
7.4836926 -7.4004011 -0.74298108
4.1926765 -3.8537941 -0.45618865
6.4565501 -5.5144877 -0.76093608
3.5735693 -2.8334301 -0.45295379
3.0348954 -3.0027943 -0.45942765
3.2680464 -3.0065308 -0.52008486
4.477767 -3.8264527 -0.74554265
4.5230536 -3.588062 -0.78849715
3.8598399 -3.8252842 -0.78734893
3.7619314 -3.4647758 -0.78982729
3.6723256 -3.1406076 -0.79449457
3.5219641 -2.7948163 -0.78413516
3.1270628 -3.1038311 -0.80570018
3.138391 -2.8932235 -0.8222959
3.074718 -2.6327815 -0.81943363
2.9750118 -2.3623116 -0.80885518
0 -0 -0
0 -0 -0
0 -0 -0
0 -0 -0
0 -0 -0
0 -0 -0
0 -0 -0
0 -0 -0
4.3394837 -4.3338733 1.894725
4.6613317 -4.3118997 1.885973
5.0178537 -4.3000517 1.8927706
5.3646989 -4.260695 1.8910143
5.040051 -5.0272131 1.9006432
5.4396977 -5.0345597 1.8975524
5.8546286 -5.0247517 1.896899
6.3067288 -5.0210819 1.8988006
5.9709182 -5.9555016 1.9152156
6.5309081 -6.0428061 1.9273176
7.0634537 -6.0669408 1.924039
7.6751056 -6.1194892 1.9299304
7.2899289 -7.267808 1.9394683
7.9723244 -7.3803701 1.9347928
8.781518 -7.5503478 1.9490328
9.6931601 -7.7346072 1.9676543
9.3054161 -9.2787981 1.9775429
0 -0 0
9.3887062 -8.0809622 1.6202867
13.225499 -10.572501 2.0531914
11.133794 -11.105823 1.778106
11.883449 -11.012649 1.6745676
12.602071 -10.855549 1.560562
0 -0 0
9.1624346 -9.1422873 0.98730558
9.0188608 -8.3632412 0.81931978
9.3988028 -8.1002235 0.70999193
0 -0 0
9.13447 -9.1201134 0.50963646
8.9977417 -8.35184 0.36736056
9.2354832 -7.9676194 0.25081408
9.3203917 -7.469696 0.13029715
4.3890018 -4.3833275 0.017646808
4.4604177 -4.1432714 -0.041545637
4.3569355 -3.7618592 -0.092637286
0 -0 -0
0 -0 -0
0 -0 -0
1.9263985 -1.6653435 -0.13461225
9.1075878 -7.3082895 -0.728535
7.409945 -7.4179516 -0.74016434
4.1864648 -3.8957448 -0.45810509
6.3917031 -5.5272889 -0.75727642
3.5374939 -2.8403511 -0.45058176
3.0136037 -3.0185454 -0.45899972
3.2408154 -3.0184035 -0.51868892
4.4196925 -3.8239961 -0.73976618
4.5341673 -3.6424298 -0.79431581
3.816035 -3.8285685 -0.78319067
3.7752967 -3.5201437 -0.79715317
3.6373208 -3.1495171 -0.79108751
3.5631106 -2.8632727 -0.79719263
3.1933084 -3.2087212 -0.82782596
3.1212971 -2.9130957 -0.82248509
2.9259458 -2.5366743 -0.78391826
2.9703696 -2.3884892 -0.81156242
0 -0 -0
0 -0 -0
0 -0 -0
0 -0 -0
0 -0 -0
0 -0 -0
0 -0 -0
0 -0 -0
4.2859349 -4.3332467 1.882918
4.6389842 -4.3443508 1.8876811
4.9921007 -4.3313899 1.893046
5.3602381 -4.3110518 1.8987305
5.0091095 -5.058044 1.9006432
5.4101176 -5.0691671 1.8980484
5.8126922 -5.0510263 1.8933177
6.2985339 -5.0780125 1.9056785
5.9418116 -5.9996481 1.9176517
6.4915676 -6.0807614 1.9266826
7.0305285 -6.1140232 1.9252533
7.6458101 -6.1732478 1.9320525
7.2403555 -7.3075147 1.9381722
7.9462843 -7.4473252 1.9395267
8.7573385 -7.6235127 1.9540116
0 -0 0
9.25805 -9.3455553 1.9796263
9.6320715 -9.0364218 1.8552297
0 -0 0
13.216705 -10.699049 2.0619791
9.7838182 -9.8797417 1.572162
9.6553497 -9.0585766 1.3683997
12.487202 -10.890786 1.5545834
13.078325 -10.597613 1.4217963
9.1826286 -9.2755718 0.99559581
9.0292091 -8.4764709 0.82496935
9.3489237 -8.1577406 0.70999193
0 -0 0
9.1795368 -9.2782764 0.5153175
9.057045 -8.5109339 0.37190697
9.2617188 -8.0899086 0.25286993
9.300005 -7.5475383 0.13065712
4.3071737 -4.3547196 0.017424909
4.4283547 -4.1643968 -0.041484222
4.2840877 -3.7450893 -0.091575257
0 -0 -0
0 -0 -0
1.9003657 -1.7884047 -0.11297741
1.9289182 -1.6883132 -0.13550967
9.0532789 -7.356482 -0.72778779
7.2725072 -7.3702621 -0.73093957
4.2807465 -4.0327725 -0.47112077
6.3531723 -5.5624671 -0.75674093
3.5115063 -2.855098 -0.44949463
2.9901383 -3.0320239 -0.45825073
3.2070584 -3.0239232 -0.51624614
4.6058416 -4.0347371 -0.77505296
4.5140381 -3.6720581 -0.79472172
3.8410749 -3.9012764 -0.79322785
3.8254938 -3.6110818 -0.8124156
3.8331034 -3.3604171 -0.83813745
3.5439463 -2.8838377 -0.79684895
0 -0 -0
3.1154978 -2.9436574 -0.82570088
2.9780936 -2.6140637 -0.80217201
2.9207697 -2.3782618 -0.80198276
0 -0 -0
0 -0 -0
0 -0 -0
0 -0 -0
0 -0 -0
0 -0 -0
0 -0 -0
0 -0 -0
4.2719522 -4.372448 1.8885263
4.6275454 -4.3872437 1.8939451
4.9704857 -4.3663807 1.8949735
5.30902 -4.3237724 1.88995
4.9658184 -5.0762525 1.8959999
5.373992 -5.0976005 1.8963122
5.7969007 -5.1000671 1.8983315
6.2921391 -5.1368775 1.9132444
5.9103422 -6.0415702 1.9194235
6.4442062 -6.111063 1.9237188
6.995821 -6.1596351 1.9260627
7.6123462 -6.223772 1.93321
7.1981306 -7.3546124 1.9389127
7.9061527 -7.5013638 1.9409293
8.712616 -7.6790595 1.9545095
0 -0 0
9.1949997 -9.3965321 1.9784359
9.59583 -9.1137648 1.8589854
9.4085398 -8.3011847 1.6411676
13.064052 -10.708828 2.0483761
9.8411369 -10.060343 1.5912621
9.5952587 -9.1135406 1.367783
9.2669697 -8.1828957 1.1599125
13.060812 -10.716848 1.4270144
9.2238388 -9.4322586 1.00632
9.0739441 -8.6238222 0.83387572
9.2635269 -8.1838846 0.70730692
9.337904 -7.6672559 0.57443899
9.2237005 -9.4380474 0.521038
9.057519 -8.6166401 0.37409043
9.2538471 -8.1836758 0.25402123
9.326911 -7.6647725 0.13169339
4.5654974 -4.6728988 0.01858562
4.3904071 -4.1797686 -0.041368209
4.2318268 -3.745461 -0.090947703
9.0058012 -7.4064193 -0.29901922
0 -0 -0
0 -0 -0
1.9274912 -1.7080647 -0.13614313
8.9964094 -7.4023809 -0.72685373
3.903913 -4.0052495 -0.39483413
6.6543856 -6.3464293 -0.73662531
4.3795691 -3.8822248 -0.52448803
3.4816298 -2.8664703 -0.44791326
2.9569085 -3.035358 -0.45600387
3.1877253 -3.0428586 -0.51612985
4.580256 -4.062264 -0.77492738
4.4791856 -3.6896074 -0.7925567
3.9260845 -4.0368671 -0.81588334
3.6810858 -3.5177295 -0.78631699
3.5843759 -3.1814699 -0.78800493
3.5048969 -2.8879879 -0.79203832
0 -0 -0
2.9661024 -2.8371506 -0.79070556
3.0601695 -2.7195313 -0.8287589
2.906122 -2.3961387 -0.80198276
0 -0 -0
0 -0 -0
0 -0 -0
0 -0 -0
0 -0 -0
0 -0 -0
0 -0 -0
0 -0 -0
4.2457066 -4.3992653 1.8888215
4.5832486 -4.3989601 1.8868271
4.9443188 -4.3974357 1.8952488
5.280159 -4.3544269 1.8891518
4.9365916 -5.1087108 1.8967737
5.3433113 -5.1311498 1.8965603
5.77565 -5.1445827 1.901674
6.2537498 -5.169807 1.911181
5.8650289 -6.0693064 1.9167659
6.3953075 -6.1396589 1.9203315
6.9673977 -6.210916 1.9286933
7.5777931 -6.2734919 1.9341745
7.1494532 -7.3951087 1.9379872
7.8763065 -7.5654197 1.9449619
8.6506186 -7.7192435 1.9511904
0 -0 0
9.1296101 -9.444953 1.9767989
0 -0 0
9.5275097 -8.5106878 1.6709976
12.968307 -10.764058 2.0436814
9.8033895 -10.145548 1.5951945
11.462191 -11.021309 1.6435192
9.1772461 -8.2044325 1.1549616
12.886744 -10.707 1.4151472
9.2406073 -9.5661297 1.0145342
9.0798187 -8.736064 0.8393259
9.1833715 -8.2139473 0.7050218
9.3091164 -7.7397337 0.57557875
9.2294645 -9.5606031 0.52466756
9.1167908 -8.78022 0.37875646
9.1691952 -8.2096243 0.25307551
9.3119879 -7.7487202 0.13215153
4.3554916 -4.513021 0.017843107
4.3430772 -4.1858106 -0.041163482
4.1521721 -3.7206447 -0.089724764
8.843421 -7.3643026 -0.29512253
0 -0 -0
0 -0 -0
1.921434 -1.7238605 -0.13645986
8.9676895 -7.4714975 -0.72822368
3.873729 -4.0233793 -0.39427081
4.146317 -4.0033002 -0.46169835
4.2340984 -3.7999229 -0.50984949
3.43646 -2.8648403 -0.44435528
2.9271979 -3.0419812 -0.454292
3.137569 -3.0319927 -0.51101154
4.5818181 -4.1141529 -0.77944809
4.4534187 -3.714483 -0.79201537
3.768914 -3.9231396 -0.78820926
3.6367025 -3.518261 -0.78143299
3.5743287 -3.2119775 -0.79011405
3.539304 -2.9529862 -0.80389321
0.6884346 -0.71770805 -0.18186268
0 -0 -0
2.9487054 -2.6530349 -0.80296564
2.895119 -2.4170594 -0.80302405
0 -0 -0
0 -0 -0
0 -0 -0
0 -0 -0
0 -0 -0
0 -0 -0
0 -0 -0
0 -0 -0
4.2212701 -4.428 1.8900023
4.5527329 -4.4236593 1.8854034
4.8979545 -4.4103217 1.8878143
5.2659197 -4.3972464 1.8936751
4.9131575 -5.1472912 1.8998692
5.3145051 -5.1665401 1.8975524
5.7295513 -5.1669178 1.896899
6.2092218 -5.1974607 1.9072834
5.8344107 -6.1122327 1.9189804
6.3554125 -6.1767411 1.9196965
6.9167986 -6.2423964 1.9252533
7.549685 -6.3286953 1.9368755
7.0991917 -7.4338622 1.9366909
7.8339729 -7.6177239 1.946014
8.58992 -7.7602777 1.948203
9.3808737 -7.8698659 1.9428941
9.0571451 -9.485775 1.9736738
10.060893 -9.7930841 1.9722161
0 -0 0
12.833618 -10.785944 2.0328472
0 -0 0
11.405753 -11.102533 1.645164
9.1031113 -8.2392092 1.1519724
12.819279 -10.784586 1.4149789
9.285675 -9.7315798 1.026019
9.1368332 -8.8995237 0.84962809
9.1068983 -8.246686 0.7030223
9.4310913 -7.9395189 0.58612156
9.2892342 -9.7414351 0.53145325
9.1214304 -8.8932123 0.38120911
9.0912418 -8.2408867 0.25231487
9.2994423 -7.8353491 0.1326533
4.2531981 -4.4614911 0.01753586
4.3029971 -4.1984134 -0.041026998
9.0931196 -8.2492409 -0.19758436
9.2153502 -7.7702732 -0.30911985
0 -0 -0
0 -0 -0
1.9226477 -1.7463604 -0.13730448
8.8957386 -7.5045004 -0.72610652
3.8221591 -4.0188823 -0.39152449
4.1238141 -4.030757 -0.46193793
6.2379146 -5.6677494 -0.7553128
3.4005671 -2.8704669 -0.44198325
2.9077926 -3.0591643 -0.45418504
3.1224558 -3.0546601 -0.51159316
4.5711699 -4.1555357 -0.78195959
4.4063201 -3.7212818 -0.78768522
3.735234 -3.936141 -0.78620183
3.6150465 -3.5405092 -0.78143299
3.5392253 -3.2199039 -0.78670704
3.4947791 -2.9523962 -0.79787982
0 -0 -0
0 -0 -0
2.9323711 -2.671078 -0.80296564
3.008709 -2.5433834 -0.83884364
0 -0 -0
0 -0 -0
0 -0 -0
0 -0 -0
0 -0 -0
0 -0 -0
0 -0 -0
0 -0 -0
4.2045012 -4.4649467 1.894725
4.5296049 -4.4555445 1.8871118
4.8665385 -4.4364061 1.8861622
5.2432561 -4.4332089 1.8952715
4.8841333 -5.1801529 1.9009011
5.2792516 -5.1956544 1.8963122
5.6869831 -5.1921554 1.8933177
6.1638484 -5.224134 1.9031566
5.8021493 -6.1535935 1.9207522
6.3236632 -6.2217898 1.9216018
6.875473 -6.2820768 1.9244437
7.5084662 -6.3729954 1.9362967
7.0473757 -7.4708486 1.9350246
7.7716489 -7.650454 1.9421567
8.5523291 -7.822156 1.9505265
9.3971434 -7.9822659 1.9563711
8.9967356 -9.539011 1.9732274
10.056338 -9.9095421 1.9832054
0 -0 0
9.4421444 -8.0349712 1.5034186
0 -0 0
11.155331 -10.992876 1.6187419
9.019352 -8.2646418 1.1477687
9.4326591 -8.0348511 1.0465895
9.3133278 -9.8812494 1.0357544
9.1580753 -9.0303793 0.85673982
9.0156507 -8.2653027 0.69988018
9.4209671 -8.0302839 0.58854353
9.3361664 -9.9117165 0.53760773
9.1598835 -9.0409956 0.38512737
9.0250359 -8.2823181 0.25188312
9.2633629 -7.9026461 0.13282785
4.2826433 -4.5479293 0.017771984
4.2778668 -4.22544 -0.041033823
9.0121403 -8.2771502 -0.19692463
4.4073639 -3.762748 -0.14861235
3.7882071 -4.0270882 -0.18727435
0 -0 -0
0 -0 -0
8.9504585 -7.6451564 -0.73438817
3.7571311 -3.9993644 -0.38736981
6.4691281 -6.4012332 -0.72903943
4.1519623 -3.8192291 -0.50556499
3.3533881 -2.8660636 -0.43812874
2.8828418 -3.0704248 -0.45322207
3.1057708 -3.0758581 -0.51194215
4.1083279 -3.7810776 -0.70673978
4.457201 -3.8113523 -0.80094635
3.7171032 -3.9654841 -0.78749233
3.5672872 -3.5368783 -0.77578592
3.6943192 -3.402668 -0.82580709
3.4533908 -2.9539335 -0.79255378
0 -0 -0
0 -0 -0
2.8993545 -2.673738 -0.79840219
2.8838165 -2.4683049 -0.8082304
0 -0 -0
0 -0 -0
0 -0 -0
0 -0 -0
0 -0 -0
0 -0 -0
0 -0 -0
0 -0 -0
4.1653128 -4.4780688 1.8894119
4.4838405 -4.4649906 1.8794245
4.8349867 -4.4622712 1.88451
5.2020431 -4.4533873 1.8902161
4.840404 -5.1972976 1.8962579
5.2445269 -5.2252145 1.8953202
5.6521649 -5.2243161 1.8923627
6.1375866 -5.2669272 1.9049907
5.7602944 -6.1847978 1.9194235
6.2860599 -6.2611637 1.9218134
6.8598032 -6.3454261 1.9309194
7.4483843 -6.4010396 1.9308951
7.0054231 -7.5182638 1.9361356
7.7140994 -7.6875715 1.9395267
8.4846363 -7.8563952 1.9460456
9.3667088 -8.0558758 1.9602889
8.9488211 -9.6056118 1.9756085
10.040215 -10.015821 1.9921081
0 -0 0
12.466395 -10.741094 1.9954091
0 -0 0
11.038376 -11.011941 1.6115452
11.83923 -10.982958 1.5151632
9.3960085 -8.1036406 1.0480202
9.2796993 -9.9674006 1.0387967
9.1554565 -9.1392717 0.86172473
8.9874506 -8.3415203 0.70165122
9.3873968 -8.1016436 0.58954078
9.3214569 -10.018561 0.54029042
9.1480751 -9.1408329 0.38698184
9.0201912 -8.3804111 0.2531783
9.3070192 -8.0390797 0.13415863
4.2492085 -4.568264 0.017749226
4.2405457 -4.2402959 -0.040924635
9.0373363 -8.403101 -0.19859812
4.3667984 -3.774684 -0.14802271
3.7545822 -4.0407386 -0.18683426
0 -0 -0
9.0339308 -8.4102306 -0.65247351
8.98491 -7.7704415 -0.74111313
3.7230215 -4.0121055 -0.38638398
6.4156446 -6.4266977 -0.72744244
4.1320944 -3.8480272 -0.50601131
3.3485315 -2.8976555 -0.43980893
2.857187 -3.080766 -0.45215216
3.0812283 -3.0892313 -0.51101154
4.0567422 -3.779839 -0.70184231
4.3670645 -3.7809107 -0.78890312
3.7249758 -4.0230746 -0.79437506
3.6529374 -3.6665187 -0.79929
3.7101772 -3.4595919 -0.83408141
3.5402002 -3.0660026 -0.81677878
0.68846256 -0.74470448 -0.18546034
0 -0 -0
2.8929241 -2.7008417 -0.80117989
2.8774867 -2.4936397 -0.81072938
0 -0 -0
0 -0 -0
0 -0 -0
0 -0 -0
0 -0 -0
0 -0 -0
0 -0 -0
0.49541804 -0.42899796 -0.19238175
4.1332326 -4.4986172 1.8873458
4.4793129 -4.5155582 1.8891048
4.8138375 -4.4977608 1.8869882
5.1738906 -4.484591 1.88995
4.7953405 -5.2126789 1.8910986
5.2089567 -5.2538562 1.8940802
5.6278024 -5.2661972 1.8949889
6.0904589 -5.2917199 1.9004054
5.7162943 -6.2135663 1.9174302
6.2316952 -6.2836556 1.9169443
6.8171649 -6.3840504 1.9299076
7.4119291 -6.4491978 1.9316666
6.955832 -7.5574918 1.9352099
7.6619329 -7.7298651 1.9382993
8.4204426 -7.8934708 1.9423945
9.3103991 -8.1073599 1.9588785
8.8930616 -9.6639786 1.9763525
9.933279 -10.031499 1.9830662
9.6816397 -9.085268 1.7366235
12.481797 -10.888517 2.0085306
10.167003 -11.052224 1.6979979
10.929307 -11.037762 1.6054795
9.6480808 -9.0610619 1.241836
9.3438568 -8.1591749 1.0477678
9.3034086 -10.116628 1.0483799
9.1918478 -9.2888966 0.87049824
9.04669 -8.5004234 0.71033472
9.3457832 -8.1663208 0.59006315
9.3436508 -10.166796 0.54518241
9.1634932 -9.2692976 0.39003271
9.0334158 -8.496563 0.25500801
9.3493471 -8.1763439 0.1354894
4.2163625 -4.5890961 0.01772931
4.1779041 -4.2292428 -0.040569779
9.0533133 -8.522131 -0.2000946
4.280365 -3.7461042 -0.14586928
3.7128232 -4.0452929 -0.18598795
0 -0 -0
9.0715427 -8.5497475 -0.65896654
4.3536453 -3.8121171 -0.36102957
3.6888971 -4.024579 -0.38539809
6.37889 -6.468781 -0.72776186
4.3562574 -4.1069779 -0.536538
3.4115233 -2.9889696 -0.45048293
2.8375585 -3.0975063 -0.45204517
3.0134206 -3.0585539 -0.50286889
3.2251911 -3.0422301 -0.56119764
4.3869972 -3.8455157 -0.79675156
3.6641531 -4.0064182 -0.786632
3.6955333 -3.7550757 -0.8136366
3.8288004 -3.6143768 -0.86571842
3.4761379 -3.0480485 -0.80629849
0 -0 -0
0 -0 -0
0 -0 -0
2.8863933 -2.5325358 -0.81760174
0 -0 -0
0 -0 -0
0 -0 -0
0 -0 -0
0 -0 -0
0 -0 -0
0 -0 -0
0 -0 -0
4.1138988 -4.5330915 1.891183
4.450851 -4.542273 1.8888201
4.7672925 -4.509377 1.8795537
5.1433787 -4.5137095 1.8888857
4.7697635 -5.249155 1.8936783
5.1766214 -5.2857189 1.8940802
5.6010232 -5.3059721 1.896899
6.0483737 -5.3206325 1.8974248
5.6747828 -6.244916 1.9163229
6.1950741 -6.3238688 1.9175794
6.7700467 -6.4183478 1.9276814
7.3862071 -6.5068789 1.9353321
6.9020581 -7.592031 1.9331732
7.6122932 -7.7746224 1.9377735
8.371851 -7.9449887 1.9423945
9.260478 -8.1643353 1.9588785
8.8156385 -9.6986055 1.9723345
9.8348398 -10.05474 1.9756938
9.6278687 -9.1465511 1.7370126
12.291236 -10.855809 1.9885476
10.09365 -11.108516 1.6970991
10.869025 -11.112436 1.6066103
9.611783 -9.1386137 1.2443581
9.2510643 -8.1787338 1.0429704
9.3571434 -10.301208 1.061538
9.2127953 -9.4250364 0.87794232
9.0638056 -8.62183 0.71581906
9.275301 -8.2056417 0.588781
9.3583288 -10.309019 0.54971939
4.3618755 -4.4667277 0.18682088
9.0672741 -8.6338749 0.25745448
9.2518377 -8.1917953 0.13480221
4.156539 -4.5800767 0.017595602
4.2042542 -4.308476 -0.041081592
9.0797501 -8.6527071 -0.20184854
4.2318597 -3.7497568 -0.14499766
3.6839042 -4.0635552 -0.18578483
0 -0 -0
9.0297489 -8.6155882 -0.65975839
4.3040338 -3.8155861 -0.35885021
3.6373537 -4.0175591 -0.38258138
6.5087881 -6.6820264 -0.74724549
6.0601959 -5.7840567 -0.7507605
3.7936232 -3.3651109 -0.50365531
2.7998202 -3.0942159 -0.44904932
2.9689665 -3.0506506 -0.4985649
3.2035935 -3.0592215 -0.56069529
4.3351588 -3.8473699 -0.79160947
3.6295502 -4.0178103 -0.78448117
3.5718465 -3.674221 -0.79135352
3.5668578 -3.4087346 -0.81120533
3.4551597 -3.067358 -0.80578303
0 -0 -0
0 -0 -0
0 -0 -0
2.8649499 -2.5450022 -0.81593573
0 -0 -0
0 -0 -0
0 -0 -0
0 -0 -0
0 -0 -0
0 -0 -0
0 -0 -0
0 -0 -0
-0 0 0
-0.68610787 2.4020753 0.74197549
-0.77151746 2.3582304 0.71068388
-0.83892995 2.2735302 0.66891938
-0 0 0
-0.66641718 2.3354528 0.6217702
-0.75585312 2.316231 0.5990333
-0.85514379 2.3259664 0.58371723
-0.5618524 2.2900412 0.53549856
-0.66325635 2.3231463 0.52332264
-0.76045251 2.3333631 0.50711417
-0.83806086 2.2845476 0.47843134
-0 0 0
-0.66913283 2.346056 0.4344736
-0.73893237 2.2712324 0.40195483
-0.84334874 2.3016953 0.38895491
-0.57714111 2.3509376 0.36428815
-0.65911585 2.315378 0.33816177
-0.76201302 2.3463497 0.32268256
-0.85142171 2.330147 0.30082816
-0.58331954 2.3778973 0.27683896
-0.65575588 2.3037274 0.24756625
-0.74791867 2.3061016 0.22746129
-0.82000291 2.2475677 0.20207971
-0.57712698 2.3542514 0.18489638
-0.66688859 2.3456361 0.1624416
-0.75864446 2.3411224 0.14082155
-0.83800727 2.299284 0.11635049
-0.56834519 2.3215821 0.094368361
-0.67264962 2.3703022 0.073729344
-0.75053728 2.3201079 0.050142258
-0.85401452 2.3462582 0.027237507
-0.5777297 2.3613434 0.0069159106
-0.65870637 2.3244119 -0.01648723
-0.74167573 2.2958612 -0.038828168
-0.85019219 2.3384233 -0.063808203
-0.57118791 2.3399122 -0.081585534
-0.65181315 2.3033054 -0.10363471
-0.74546462 2.3124177 -0.12843592
-0.83666366 2.3029656 -0.15286781
-0.56618857 2.3261275 -0.16900337
-0.64642781 2.2888486 -0.19052444
-0.72575277 2.2524834 -0.21208026
-0.77103436 2.1242809 -0.22445081
-0.47256181 1.9438335 -0.21526979
-0.52181202 1.8507004 -0.22520337
-0.5377773 1.6705714 -0.22214334
-0.56956095 1.5703968 -0.22814591
-0.27936417 1.1532558 -0.1719234
-0.30674142 1.0902447 -0.17490667
-0.35817906 1.1141272 -0.19241793
-0.40020034 1.1039757 -0.20479603
-0 0 -0
-0 0 -0
-0 0 -0
-0.35502613 0.98032117 -0.22199784
-0.20880893 0.86854959 -0.19810462
-0.23642355 0.84330666 -0.20282722
-0.27575815 0.85986561 -0.21824215
-0 0 -0
-0 0 -0
-0.22836453 0.81691891 -0.23050871
-0.2431419 0.75884521 -0.22498915
-0 0 -0
-0 0 0
-0.67805421 2.4302468 0.74937814
-0.71538311 2.2329183 0.67158389
-0.83841807 2.3157966 0.67982852
-0 0 0
-0.66612005 2.38989 0.63516295
-0.73807973 2.3097255 0.59616828
-0.83590186 2.3174355 0.58027822
-0.56274247 2.3560457 0.55011511
-0.63953799 2.2932813 0.51570141
-0.74493003 2.3342535 0.50630474
-0.82635331 2.2961097 0.47978181
-0.57745916 2.415235 0.46787938
-0.64732707 2.3235624 0.4295643
-0.72139043 2.2644482 0.39996332
-0.844244 2.3486507 0.39600688
-0 0 0
-0.64012152 2.3022051 0.33565789
-0.73107517 2.29901 0.31554928
-0.84347278 2.3530829 0.30311537
-0.56710231 2.3746662 0.27605245
-0.64613777 2.3239996 0.24931403
-0.73827463 2.3248813 0.22886248
-0.81996351 2.2910221 0.20553048
-0 0 0
-0.65061468 2.3429539 0.16197634
-0.72282803 2.2781684 0.13676542
-0.82119316 2.2968581 0.11597057
-0.55733252 2.3386335 0.09492068
-0.6575591 2.3724582 0.073669516
-0.73326844 2.3151383 0.049936671
-0.83321339 2.3335617 0.027030252
-0.55952293 2.3492792 0.0068703927
-0.64576524 2.3332286 -0.01652135
-0.72275025 2.2851157 -0.038570706
-0.8334772 2.3370049 -0.063628748
-0.55774391 2.3472621 -0.081720948
-0.64219242 2.323632 -0.10437001
-0.72945851 2.3112345 -0.12811919
-0.81916678 2.2986546 -0.15224513
-0.55029535 2.3227632 -0.16851045
-0.62283033 2.2581787 -0.18764982
-0.70592552 2.2378967 -0.21029507
-0.73962831 2.0774117 -0.21901496
-0.47069907 1.9892683 -0.21997747
-0.50411868 1.8308855 -0.22241159
-0.52721858 1.6728936 -0.22201777
-0.52736902 1.48238 -0.21488476
-0.27546197 1.1684339 -0.17393085
-0.30475879 1.1092597 -0.17765389
-0.34037539 1.0814782 -0.186415
-0.41685244 1.1723125 -0.21699445
-0.22610921 0.96240169 -0.18078336
-0 0 -0
-0.29661074 0.94443858 -0.20039417
-0.36471933 1.0267204 -0.23199399
-0.20102952 0.85935771 -0.19572304
-0.23201635 0.84756041 -0.20350406
-0.26145133 0.83279252 -0.21095958
-0 0 -0
-0.19292042 0.82821167 -0.22245963
-0.20683165 0.75779295 -0.21346313
-0.23473686 0.74838537 -0.22145671
-0 0 -0
-0 0 0
-0.64146209 2.3548193 0.72489232
-0.70972389 2.2629497 0.67929369
-0.81257993 2.2881958 0.67024976
-0.53988725 2.3235404 0.6369012
-0 0 0
-0.70041132 2.2391403 0.5768292
-0.81971878 2.3170149 0.5789026
-0.5409916 2.3281088 0.54280686
-0.63290054 2.3245096 0.52184075
-0.70372897 2.2527821 0.48768765
-0.81159586 2.2992864 0.47939596
-0.55350012 2.3794892 0.46028811
-0.63977593 2.3521905 0.43412295
-0.71012455 2.2773049 0.40145695
-0.813398 2.307214 0.38817137
-0.54690427 2.3520639 0.36339527
-0.62753993 2.3118236 0.33649251
-0.72108048 2.3167071 0.31736502
-0.8234216 2.342293 0.30106893
-0.55387026 2.3839085 0.27672657
-0.63212633 2.3288805 0.24941683
-0.73079222 2.3512349 0.23101099
-0.81282085 2.3157547 0.20729794
-0.54210466 2.3349319 0.18284281
-0.63727069 2.3507543 0.1622422
-0.70676321 2.2758865 0.13636553
-0.80510139 2.2961979 0.11568563
-0.53958732 2.3274081 0.094328903
-0.63437462 2.3446078 0.07268247
-0.71934521 2.3205488 0.049957231
-0.81821829 2.3367426 0.027008435
-0.54916024 2.3702035 0.0069216001
-0.62256896 2.3043246 -0.016289329
-0.71433318 2.3076553 -0.03887644
-0.79932046 2.2854576 -0.062090583
-0.54108012 2.3409028 -0.081382416
-0.62792283 2.3275287 -0.10437001
-0.7170316 2.3213916 -0.12843592
-0.80175447 2.2942159 -0.15162246
-0.53065681 2.302767 -0.16682042
-0.61647755 2.2898712 -0.18996549
-0.69423735 2.248848 -0.21091987
-0.71112323 2.0368154 -0.21427096
-0.4555853 1.9795229 -0.21858655
-0.49210173 1.8310667 -0.22206262
-0.51168096 1.6590327 -0.21975741
-0.56460685 1.6184304 -0.23409989
-0.266518 1.1623851 -0.17278373
-0.29487517 1.0996542 -0.17582242
-0.34506094 1.1203247 -0.19274241
-0.46706101 1.3394943 -0.24740461
-0.22370544 0.97911459 -0.18366151
-0 0 -0
-0 0 -0
-0.3500475 1.0049242 -0.2265794
-0 0 -0
-0.22655998 0.84802681 -0.20327844
-0.24862926 0.80929387 -0.20461671
-0 0 -0
-0 0 -0
-0.21236144 0.79727995 -0.22421496
-0.23324662 0.75993168 -0.22444569
-0 0 -0
-0.53640133 2.3814964 0.75417084
-0.61493397 2.3133156 0.7109412
-0.67354316 2.194658 0.65754092
-0.84575766 2.4287791 0.70989537
-0 0 0
-0.60392302 2.2742918 0.60242516
-0.71564877 2.3381085 0.6011821
-0.79783028 2.2999306 0.57340014
-0 0 0
-0.6033169 2.2707307 0.50892699
-0.70735496 2.3141866 0.50003165
-0.80421162 2.3236952 0.48344716
-0.52458262 2.3195794 0.44806808
-0.63720125 2.4007952 0.44236356
-0.70851237 2.3221772 0.40859324
-0.79470867 2.299093 0.38597742
-0.52134174 2.3061843 0.35580593
-0.61359656 2.3165877 0.3366316
-0.69963026 2.2973745 0.31412265
-0.80612272 2.3388543 0.2999855
-0.53572953 2.3717539 0.27492893
-0.60687399 2.2913687 0.244996
-0.69781274 2.2947111 0.22503255
-0.79762363 2.3178716 0.20704544
-0.53698814 2.379065 0.18603724
-0.62206924 2.3517263 0.16204281
-0.69800955 2.297375 0.13739385
-0.7845028 2.2822025 0.11473583
-0.53144801 2.3579688 0.095433556
-0.60951596 2.3088322 0.071456149
-0.70596355 2.3277893 0.050018907
-0.79964429 2.3294241 0.02686663
-0.53372771 2.3696263 0.0069102207
-0.61071217 2.3168039 -0.016350746
-0.69668257 2.3005116 -0.038683344
-0.79792702 2.3271987 -0.063090391
-0.52583009 2.3402781 -0.081247009
-0.61464673 2.3352022 -0.10454302
-0.69930804 2.3142765 -0.12780245
-0.78151631 2.2811525 -0.15043937
-0.52240413 2.3322616 -0.16872171
-0.59963006 2.2830055 -0.18908712
-0.68042558 2.2530653 -0.21091987
-0.70989048 2.0740921 -0.21773012
-0.42259395 1.8891344 -0.20831525
-0.44735596 1.7062734 -0.20659153
-0.50292456 1.6668901 -0.22038528
-0.54600906 1.5965519 -0.23044631
-0.26217902 1.1765562 -0.17464779
-0.29637575 1.1329945 -0.180859
-0.32907102 1.0921873 -0.18755068
-0.3884151 1.1363239 -0.20943488
-0 0 -0
-0 0 -0
-0.26919681 0.89544463 -0.18928322
-0 0 -0
-0 0 -0
-0.22159801 0.85034376 -0.20350406
-0.251212 0.83593822 -0.21095958
-0 0 -0
-0.18586093 0.84468937 -0.22625586
-0.20989195 0.807908 -0.22683737
-0.22387496 0.74567914 -0.21982634
-0.24584562 0.71906716 -0.22308397
-0 0 0
-0 0 0
-0.70484257 2.3479111 0.70214796
-0.81371152 2.3837483 0.69526106
-0 0 0
-0.60817295 2.3482907 0.62102616
-0.66118342 2.2084947 0.56680155
-0.78276312 2.3020182 0.57271236
-0.51635331 2.3526697 0.54701459
-0.58937258 2.27439 0.50892699
-0.692581 2.3166065 0.49962687
-0.76125365 2.2440283 0.46589187
-0 0 0
-0.61653715 2.3817856 0.43815559
-0.68212503 2.2858477 0.40145695
-0.77868515 2.2983134 0.38503715
-0.5211814 2.3730857 0.36562741
-0.60234278 2.3318148 0.33830088
-0.67646337 2.2712145 0.30997241
-0.77841234 2.304255 0.29492956
-0.52052766 2.3720849 0.27459186
-0.59379804 2.2989016 0.24540724
-0.67747551 2.2779546 0.22297746
-0.77478826 2.2972288 0.20477299
-0.51234281 2.3365388 0.18246253
-0.605883 2.348736 0.16157755
-0.68901855 2.3188407 0.13842215
-0.77048475 2.286973 0.11473583
-0.5201754 2.3758268 0.096025325
-0.60181695 2.3376963 0.072233818
-0.69849008 2.3550816 0.05051231
-0.78661156 2.3380775 0.026910262
-0.51340693 2.3464806 0.006833409
-0.60221088 2.3427827 -0.016507704
-0.67886275 2.2922797 -0.038474157
-0.77407998 2.303623 -0.062321313
-0.51188672 2.3454137 -0.081314713
-0.60080338 2.3408651 -0.10462953
-0.68396282 2.3146932 -0.1275913
-0.77195215 2.2991509 -0.15131111
-0.50617534 2.3266504 -0.16808793
-0.58635241 2.2895386 -0.18932667
-0.66997331 2.2686605 -0.21199098
-0.6955685 2.0736918 -0.21723597
-0.45131287 2.077266 -0.22875088
-0.48312411 1.8898925 -0.22846045
-0.49156427 1.6661384 -0.21988297
-0.53462821 1.5951748 -0.22976972
-0.25537351 1.1800773 -0.17493457
-0.28355661 1.1118085 -0.17719603
-0.31985354 1.0856671 -0.18609051
-0.38612905 1.1526974 -0.21201201
-0 0 -0
-0 0 -0
-0.26342097 0.8961392 -0.18908481
-0 0 -0
-0.18804529 0.87627614 -0.19875415
-0.21565656 0.84885478 -0.20282722
-0.2447079 0.83280092 -0.20978498
-0.27104056 0.80903405 -0.21540891
-0.17481372 0.81837696 -0.21891648
-0.20848447 0.82321268 -0.23077096
-0.22173497 0.75534946 -0.22227187
-0.24142887 0.7205621 -0.22308397
-0 0 0
-0.60740417 2.4034033 0.7362811
-0.68338323 2.3282084 0.69498885
-0.72170103 2.157414 0.6279434
-0 0 0
-0.5745458 2.2758956 0.60093707
-0.65225744 2.2283537 0.57086033
-0.77785432 2.3344812 0.57959038
-0.50048548 2.3491173 0.54546434
-0.58091122 2.2997575 0.51379609
-0.67588079 2.3123527 0.49780563
-0.76542187 2.3026621 0.47708094
-0.50612289 2.3729358 0.45714054
-0.59926176 2.3750234 0.43622693
-0.66836268 2.2909367 0.40162292
-0.772659 2.327419 0.38911161
-0.50846636 2.3849432 0.36696672
-0.58995795 2.3431492 0.33941367
-0.68385935 2.3486276 0.31995893
-0.76269937 2.3042758 0.29432768
-0.50824028 2.3859246 0.27582777
-0.58890933 2.3391566 0.24931403
-0.67738336 2.3298707 0.22764811
-0.76349205 2.3104548 0.20553048
-0.5011102 2.3542674 0.18360339
-0.58829713 2.3398297 0.16071351
-0.68090421 2.3441172 0.13967898
-0.75612456 2.290709 0.11468834
-0.50621098 2.381906 0.096143678
-0.58502924 2.33165 0.071934715
-0.67289048 2.3209133 0.049689967
-0.76661605 2.3257661 0.026713917
-0.50024599 2.3554559 0.0068504787
-0.59098357 2.3590438 -0.016596418
-0.66645306 2.3021646 -0.038570706
-0.7605558 2.3102281 -0.06237258
-0.49955705 2.3582876 -0.081653245
-0.58691365 2.3464458 -0.10471603
-0.66808468 2.3130898 -0.12727456
-0.75502348 2.2953115 -0.1507507
-0.49065331 2.3238564 -0.16766542
-0.56818974 2.2766521 -0.18796921
-0.66349864 2.2985661 -0.21440099
-0.68655932 2.0892651 -0.21842195
-0.44245592 2.0984807 -0.23078376
-0.47920144 1.9236615 -0.2321828
-0.48490536 1.6815153 -0.22151545
-0.53070301 1.6163111 -0.23234077
-0.26927978 1.2823505 -0.18984704
-0.28411832 1.1432599 -0.18192737
-0.31455123 1.0923504 -0.18690172
-0.39102861 1.1915497 -0.21871254
-0.21652168 1.0350602 -0.19337524
-0 0 -0
-0 0 -0
-0.28761706 0.87736225 -0.19659096
-0.18246605 0.87645769 -0.19853763
-0.2109122 0.8520534 -0.20327844
-0.23878841 0.83148402 -0.20908022
-0.29056194 0.88530147 -0.2352363
-0 0 -0
-0.19926834 0.80761212 -0.22605065
-0.21125729 0.73634464 -0.21629392
-0 0 -0
-0 0 0
-0.57499927 2.3354123 0.71435779
-0 0 0
-0.73126423 2.2314191 0.64816535
-0.47683698 2.3077052 0.62916243
-0.57306349 2.3301775 0.61432981
-0.67489421 2.359288 0.60333091
-0.76079732 2.3308821 0.57752699
-0.48250994 2.3349543 0.54147804
-0.56982523 2.3156159 0.51654822
-0.64016175 2.2411244 0.48161685
-0.74581033 2.2905214 0.47360849
-0.47920972 2.3163319 0.4456611
-0.58561754 2.3824799 0.43692827
-0.65483391 2.2968912 0.40195483
-0.76844257 2.3631108 0.39428306
-0.49362284 2.3870499 0.36681792
-0.58005148 2.3649988 0.34205666
-0.65234011 2.2926965 0.31178811
-0.74517852 2.2985244 0.2930035
-0.48956987 2.3695359 0.2735807
-0.56554222 2.3060153 0.24540724
-0.66661191 2.3464336 0.22886248
-0.74316418 2.2961354 0.20384718
-0.49149361 2.3807342 0.18542878
-0.58033776 2.3695621 0.16250807
-0.66732597 2.3511322 0.13985036
-0.7380603 2.2829497 0.11407097
-0.48613998 2.3585436 0.095078491
-0.56928766 2.32937 0.071755253
-0.67471457 2.3817527 0.050902922
-0.75478852 2.3380387 0.02680118
-0.49042371 2.3810079 0.0069159106
-0.57317895 2.349025 -0.016500879
-0.65639675 2.3206425 -0.038812079
-0.74667293 2.3158026 -0.062398214
-0.48547965 2.3632662 -0.081720948
-0.56777555 2.3305893 -0.10385097
-0.6622867 2.3469391 -0.12891102
-0.74827057 2.3227007 -0.15224513
-0.47998658 2.3444138 -0.16893296
-0.55585778 2.2868757 -0.18852817
-0.64586788 2.290132 -0.21324062
-0.7142725 2.2194238 -0.23156682
-0.43156308 2.1108971 -0.23185369
-0 0 -0
-0.47135022 1.6730002 -0.22000855
-0.51834911 1.611991 -0.23125821
-0.26772434 1.3150113 -0.19443548
-0.2743085 1.1334552 -0.18009588
-0.31238559 1.1104078 -0.18965982
-0.3387982 1.0541818 -0.19311304
-0 0 -0
-0 0 -0
-0.24869621 0.88609314 -0.18630707
-0.28163028 0.87724799 -0.19617444
-0 0 -0
-0.20636497 0.8561728 -0.20395528
-0.23630767 0.84229231 -0.21142943
-0.25901517 0.80583775 -0.21369542
-0.16742441 0.8337397 -0.22245963
-0.19566168 0.81444943 -0.22762407
-0.20959209 0.74782032 -0.2192829
-0.2308064 0.71798968 -0.22139393
-0 0 0
-0.54367572 2.268049 0.69271922
-0.67240113 2.3993654 0.71371275
-0.73287612 2.2835917 0.66200137
-0 0 0
-0.5492807 2.2940805 0.60391325
-0.65726912 2.3521614 0.60046583
-0.74499929 2.3308706 0.57638067
-0.46568456 2.3254406 0.53859901
-0.56061572 2.3399785 0.5212056
-0.63587332 2.2789683 0.48890179
-0.73263609 2.297859 0.47418723
-0.46769246 2.3327181 0.44825321
-0.57419568 2.3994329 0.43938291
-0.64231539 2.306566 0.40295061
-0.73055542 2.2943766 0.38205969
-0.4744978 2.3677332 0.36339527
-0.56345934 2.3598444 0.34080473
-0.64357013 2.3157628 0.31438202
-0.73736846 2.3229237 0.29553148
-0.46780345 2.3364449 0.2694236
-0.5541541 2.3210521 0.24664097
-0.64820886 2.3360891 0.22746129
-0.73508173 2.3196502 0.20553048
-0.47981045 2.398371 0.18656965
-0.55491138 2.3274608 0.15938418
-0.64808643 2.3378649 0.13882205
-0.72705281 2.2969584 0.11454587
-0.46931055 2.3497238 0.094605066
-0.54966336 2.3104537 0.071067311
-0.6494239 2.3473041 0.050080582
-0.73892164 2.3378589 0.026746642
-0.46895453 2.3496492 0.0068163397
-0.56337649 2.3719559 -0.016637363
-0.63841796 2.3111334 -0.038586795
-0.7282365 2.3069944 -0.062039312
-0.47136 2.3681612 -0.081788652
-0.55530882 2.3418064 -0.104197
-0.64044511 2.3240023 -0.12743293
-0.72830069 2.3091633 -0.15106204
-0.46908587 2.3649271 -0.17020047
-0.54020894 2.2834532 -0.18796921
-0.62730783 2.2777276 -0.21172322
-0.66894311 2.1231587 -0.22109045
-0.43753356 2.2090862 -0.242339
-0.46217793 1.9574295 -0.23555622
-0.46133921 1.6768174 -0.22013412
-0.51558864 1.6378231 -0.23450583
-0.24222562 1.2282715 -0.18138708
-0.26598918 1.1293451 -0.17918013
-0.30059996 1.0942252 -0.18657725
-0.32374927 1.028989 -0.18813059
-0.19337645 0.98455077 -0.18348165
-0 0 -0
-0 0 -0
-0.27536255 0.87616032 -0.1955497
-0.17132235 0.87671447 -0.19810462
-0.20399974 0.86975312 -0.20688826
-0.23241909 0.84841377 -0.21260403
-0.27880299 0.88602585 -0.23450197
-0.16267481 0.83665061 -0.22296578
-0.1913196 0.81845367 -0.2284108
-0.20169725 0.73702508 -0.21575046
-0.2275487 0.7230534 -0.22252062
-0.46744704 2.4193442 0.76125503
-0.55108708 2.3628309 0.72062159
-0.63381577 2.3162842 0.68782967
-0.72000617 2.2917242 0.66306567
-0 0 0
-0.54376608 2.334204 0.61358577
-0.62058735 2.2746453 0.57969427
-0.71498841 2.2852342 0.56400013
-0.45623308 2.3531451 0.54435706
-0.53737247 2.3053017 0.51273763
-0.62625366 2.2988901 0.49234194
-0.71793824 2.3004377 0.47380137
-0.45880109 2.3635204 0.45362264
-0.55120206 2.3674331 0.4328956
-0.64108604 2.3580432 0.41124859
-0.71381879 2.2903297 0.38064927
-0.45864227 2.3638048 0.36235362
-0.5442636 2.3430009 0.33788356
-0.6283102 2.3158402 0.31386325
-0.7127924 2.2942233 0.29131818
-0.46442622 2.3958509 0.27594009
-0.55363017 2.383512 0.25291234
-0.63151985 2.3313735 0.22662057
-0.71552145 2.3069856 0.20401551
-0.45484698 2.3484087 0.18246253
-0.54760873 2.3609536 0.16144462
-0.63138223 2.3331242 0.13830788
-0.71383196 2.3042388 0.11468834
-0.45431504 2.3496161 0.094486721
-0.53840613 2.3264425 0.071456149
-0.63031673 2.3338711 0.049710531
-0.7230854 2.3375723 0.0266921
-0.45794317 2.3701556 0.0068675471
-0.54746115 2.3695223 -0.016596418
-0.62708855 2.3256266 -0.038763802
-0.71613282 2.3181052 -0.062218763
-0.45549679 2.3641391 -0.081551686
-0.54003114 2.3412757 -0.10402399
-0.62721086 2.3317459 -0.12764409
-0.71882802 2.3288472 -0.15205833
-0.46020824 2.3971496 -0.17231302
-0.52864653 2.2974105 -0.18884756
-0.61176878 2.2757626 -0.21118766
-0.6447612 2.0910883 -0.21733479
-0.426404 2.2244234 -0.2437299
-0.44282275 1.928284 -0.23171751
-0.44795418 1.6681188 -0.21862721
-0.5055294 1.6409559 -0.23450583
-0.26102853 1.3677759 -0.20174831
-0.25662741 1.1203593 -0.17750129
-0.27803627 1.0369577 -0.17651829
-0.30496418 0.99047107 -0.18074282
-0.18402587 0.96832377 -0.18024373
-0 0 -0
-0.24565455 0.91843015 -0.19245778
-0.2722815 0.88531226 -0.19721571
-0 0 -0
-0.19714272 0.86433965 -0.20530896
-0.22796212 0.85264105 -0.2133088
-0.2522456 0.8191486 -0.21638803
-0 0 -0
-0.18565241 0.81678915 -0.22762407
-0.19841278 0.74289775 -0.21710908
-0.2242375 0.72810405 -0.22364731
-0 0 0
-0.52619046 2.3203588 0.7066704
-0.62380797 2.3359191 0.69251066
-0.70281482 2.2859638 0.66013885
-0 0 0
-0.52857739 2.3337171 0.61259365
-0.62011015 2.3290832 0.59258693
-0.68243194 2.2290814 0.54909772
-0.4378317 2.3348138 0.53948486
-0.52775383 2.3285718 0.5171833
-0.60811061 2.2875462 0.48910415
-0.70667517 2.314184 0.47573054
-0 0 0
-0.54036051 2.3870943 0.43587625
-0.61598486 2.3218997 0.40427828
-0.713292 2.3390672 0.38801464
-0.44504154 2.3714337 0.36309764
-0.53380352 2.3636835 0.3403874
-0.60901356 2.3004813 0.31126934
-0.70591992 2.3222992 0.29432768
-0.44147685 2.354706 0.27088419
-0.54315776 2.4052992 0.25486574
-0.61745733 2.3361671 0.22671399
-0.69874859 2.3027511 0.20325804
-0.44924107 2.3981979 0.1861133
-0.52323538 2.3204684 0.15845367
-0.62189722 2.3552947 0.13939333
-0.69910049 2.3066635 0.11459336
-0.44209352 2.3641458 0.094960131
-0.52960593 2.3540816 0.072203904
-0.61343706 2.328027 0.049504947
-0.70496351 2.3295231 0.026550295
-0.44155481 2.363091 0.0068390984
-0.52852923 2.3533235 -0.016459934
-0.61128068 2.3236287 -0.038667254
-0.70131731 2.3205421 -0.062167495
-0.44061601 2.3649244 -0.081483975
-0.52609223 2.3464947 -0.10411049
-0.61618686 2.3481071 -0.12833035
-0.70654446 2.3399022 -0.15249421
-0.44549093 2.3999281 -0.17231302
-0.51453996 2.3006108 -0.18884756
-0.59930938 2.2852542 -0.21172322
-0.66151708 2.1931338 -0.22751464
-0.41582736 2.2436173 -0.24554878
-0.44742578 2.0046363 -0.24055815
-0.44148156 1.6852314 -0.22051084
-0.49173459 1.6316943 -0.23274671
-0.23467581 1.2720275 -0.18740942
-0.25833794 1.1604997 -0.18360622
-0.26292905 1.005232 -0.17083986
-0.30314264 1.0064727 -0.18331994
-0.17914721 0.97523957 -0.18132302
-0 0 -0
-0 0 -0
-0.26318109 0.87479037 -0.19450842
-0 0 -0
-0.19225714 0.86743534 -0.2057602
-0.22100908 0.84743983 -0.21166435
-0.2438588 0.80954045 -0.21345064
-0.15256855 0.83953571 -0.22321886
-0.17876421 0.80943227 -0.22526391
-0.20331277 0.78042156 -0.2277064
-0.2200425 0.73038495 -0.22392897
-0.4117547 2.2810404 0.7160933
-0.52431887 2.3797133 0.72375345
-0.59928536 2.3006301 0.68094581
-0.68350041 2.2726939 0.65508336
-0.42109281 2.3244164 0.63071018
-0 0 0
-0.59433573 2.2886689 0.58136553
-0.68186522 2.2770522 0.55987334
-0.42367116 2.3384159 0.53970629
-0.51303577 2.3298573 0.51675993
-0.59062207 2.2779629 0.48627111
-0.69386637 2.3231773 0.47669515
-0.41923773 2.310957 0.44251353
-0.51703334 2.3509421 0.42868766
-0.6051845 2.3390012 0.4066017
-0.68848193 2.3083816 0.38221636
-0.42765948 2.358552 0.36071667
-0.51547039 2.3495035 0.33788356
-0.60108334 2.3281767 0.31451175
-0.6862824 2.3085072 0.29204047
-0.42896864 2.3681262 0.27212009
-0.52455229 2.391098 0.25301519
-0.59665024 2.3148446 0.22428523
-0.68177122 2.2974424 0.20241639
-0.42404082 2.3430207 0.18162589
-0.51283044 2.3411796 0.15965006
-0.60618895 2.3542323 0.13910769
-0.69288182 2.3377252 0.11592308
-0.41994059 2.3245318 0.093263708
-0.51387125 2.351428 0.07202445
-0.59988737 2.3346519 0.049566615
-0.69292659 2.3414755 0.026637562
-0.42580336 2.3588672 0.0068191844
-0.51514518 2.3614068 -0.016494054
-0.59328496 2.312808 -0.038425885
-0.68508226 2.3180907 -0.061988041
-0.42946029 2.3862724 -0.082127184
-0.51040906 2.3438213 -0.10385097
-0.60151994 2.3508761 -0.12827756
-0.69132584 2.3413217 -0.15230741
-0.43181306 2.4085076 -0.17273553
-0.49935603 2.2988544 -0.18844832
-0.57762694 2.2589746 -0.20895617
-0.60441303 2.0492115 -0.21219546
-0.40415522 2.2578712 -0.24683271
-0.4193368 1.9345437 -0.23183385
-0.42818663 1.676374 -0.21900395
-0.47835267 1.6232761 -0.2311229
-0.38829386 2.1795664 -0.32076114
-0.24828888 1.1485393 -0.18146949
-0.27967641 1.0967045 -0.18609051
-0.29946616 1.0168189 -0.18486622
-0 0 -0
-0 0 -0
-0 0 -0
-0.25256401 0.85856074 -0.19055161
-0 0 -0
-0.18857077 0.8762179 -0.2075651
-0.21580511 0.84877992 -0.21166435
-0.24929717 0.8463642 -0.22275238
-0 0 -0
-0.17419891 0.81240106 -0.2257884
-0.19780967 0.77885604 -0.22689122
-0.21474339 0.72896016 -0.22308397
-0.39824262 2.2863476 0.71697885
-0.51030886 2.3856978 0.72460765
-0.59059989 2.3256946 0.68727893
-0.67688519 2.3018146 0.66226745
-0.40965116 2.3431356 0.63509548
-0.50333995 2.3561335 0.61680996
-0.58862233 2.3252208 0.58972186
-0.66596621 2.2746542 0.55826849
-0.41049063 2.3476956 0.54125655
-0.50118208 2.3444302 0.51930034
-0.58215278 2.3033817 0.4909254
-0.68207377 2.3358679 0.47843134
-0.40691432 2.3241336 0.44455019
-0.50321519 2.3569589 0.42921364
-0.59443861 2.3570135 0.40909111
-0.67154032 2.3030808 0.38064927
-0.41624781 2.3786647 0.36339527
-0.50125062 2.3535907 0.33802265
-0.59622359 2.3693225 0.31956989
-0.67598331 2.3260207 0.29372576
-0.41049445 2.3482008 0.26953596
-0.50883502 2.3894072 0.25250113
-0.58801472 2.3406713 0.22643374
-0.67210335 2.3168943 0.20376301
-0.41394505 2.3701344 0.18352734
-0.50260592 2.3638015 0.16097936
-0.58371288 2.3259523 0.13722245
-0.68047053 2.3486483 0.11625551
-0.40978807 2.3506896 0.09421055
-0.50565565 2.3838708 0.07292176
-0.58506525 2.3363492 0.049525503
-0.67048842 2.317827 0.026321227
-0.41166481 2.3634059 0.0068248743
-0 0 -0
-0.57835525 2.3134949 -0.038377613
-0.67167807 2.3251317 -0.062064946
-0 0 -0
-0 0 -0
-0.58418477 2.3428957 -0.12764409
-0.67667001 2.3445606 -0.15224513
-0.41719666 2.4120951 -0.17280595
-0.48729724 2.3116288 -0.18924683
-0.56784916 2.2789059 -0.21047357
-0 0 -0
-0.39300042 2.2759848 -0.2485446
-0.41052544 1.9516594 -0.2335787
-0.42915455 1.7242173 -0.224906
-0.47112569 1.6357015 -0.23247607
-0.33167315 1.9302619 -0.28376681
-0.24691784 1.1771237 -0.18574294
-0.26223361 1.0553064 -0.17878966
-0.27959588 0.97130275 -0.17627577
-0.17313625 1.0122705 -0.18779884
-0.20274544 0.96881396 -0.19067731
-0 0 -0
-0.25269651 0.87889421 -0.19471668
-0.1482821 0.87199271 -0.19615604
-0.18080141 0.8659147 -0.20485774
-0.21293038 0.85952312 -0.21401358
-0.23846623 0.82831156 -0.21761195
-0.1419321 0.83943695 -0.22271271
-0.1654768 0.7955038 -0.22080585
-0.18932825 0.76510799 -0.22254361
-0.21212494 0.73671842 -0.22505566
-0 0 0
-0.48631254 2.3437304 0.7109412
-0.56592828 2.2872808 0.67488813
-0.66274875 2.3059244 0.66226745
-0 0 0
-0.48690778 2.3496914 0.61432981
-0.56597292 2.294847 0.58112675
-0.6487835 2.2674677 0.5555172
-0.39429504 2.3395925 0.53882045
-0.474087 2.2862148 0.50575155
-0.57292533 2.3268793 0.49517494
-0.65803552 2.3060412 0.47148639
-0.39019305 2.3120515 0.44177294
-0.48914295 2.3619301 0.4295643
-0.58090615 2.3644471 0.40975493
-0.65496045 2.2986093 0.37923887
-0.39194083 2.3236437 0.35461545
-0.49200842 2.3818369 0.34163937
-0.58096629 2.3700473 0.31918079
-0.66061366 2.3263047 0.29324427
-0.39838985 2.3643932 0.2711089
-0.48189068 2.3330619 0.24622972
-0.57151175 2.3355317 0.22559303
-0.66521144 2.3468592 0.20603548
-0.39393231 2.3401818 0.18101743
-0.48889855 2.37075 0.16124523
-0.58389103 2.3886485 0.14070728
-0.66958374 2.365274 0.11687288
-0.39601907 2.3571017 0.094368361
-0.48256007 2.3458083 0.071665518
-0.56716496 2.3253253 0.049217124
-0.66359699 2.347878 0.026615744
-0.39947319 2.379694 0.0068647028
-0.48110014 2.3430624 -0.016323451
-0.56651443 2.326715 -0.038538527
-0.65658414 2.3263233 -0.061988041
-0.39635107 2.3686912 -0.081348568
-0.48000363 2.3420787 -0.10350495
-0.56579196 2.3299391 -0.12674667
-0.65875006 2.3361807 -0.15143566
-0.40353626 2.4214971 -0.17329888
-0.47649774 2.3311777 -0.19060428
-0.55385542 2.2823472 -0.21047357
-0.59001178 2.0947876 -0.21614878
-0.38473853 2.3126805 -0.25228932
-0.44379538 2.1760261 -0.26010057
-0.46437317 1.9157941 -0.24951883
-0.46242228 1.6433303 -0.23315266
-0.36830553 2.2251751 -0.32678351
-0.24402346 1.1999228 -0.18910068
-0.27664074 1.1432121 -0.19339137
-0.3107017 1.1048198 -0.2001572
-0.19362292 1.1754051 -0.21783948
-0 0 -0
-0 0 -0
-0.24703446 0.8794865 -0.19450842
-0.14355989 0.87673992 -0.19702208
-0.17645118 0.871782 -0.20598581
-0.20651272 0.85608882 -0.21283895
-0.23495443 0.83535928 -0.21908064
-0.13833304 0.84984082 -0.22524352
-0.16307202 0.80880171 -0.22421496
-0.18913874 0.78496724 -0.22797813
-0.20682105 0.73523515 -0.22421066
-0.37747037 2.3363369 0.73114723
-0.46568564 2.3156571 0.70154554
-0.56426722 2.342113 0.69003248
-0.63607955 2.2654006 0.64949572
-0 0 0
-0 0 0
-0.55528247 2.3124402 0.58470809
-0.64429086 2.3051536 0.56377089
-0.37993217 2.3419678 0.53882045
-0.47025633 2.339864 0.51697165
-0.54813552 2.2865438 0.4858664
-0.64387351 2.3100355 0.47148639
-0.37820539 2.3279822 0.44436505
-0.4663108 2.3233807 0.422025
-0.5636344 2.3564579 0.40776342
-0.63793123 2.2921185 0.37751508
-0.38084558 2.3455265 0.35759166
-0.47349697 2.3653905 0.33885729
-0.55697662 2.334024 0.31386325
-0.6423474 2.3159652 0.29143855
-0.38021573 2.3442335 0.26852477
-0.47459435 2.3710878 0.24993089
-0.54978764 2.3080015 0.2226038
-0.65319145 2.3595395 0.20679295
-0.38211751 2.3583031 0.18223436
-0.47434267 2.3737049 0.16124523
-0.55535704 2.3339114 0.13727959
-0.65319484 2.3625987 0.11654045
-0.38378185 2.373297 0.09492068
-0.47069746 2.3614686 0.072054356
-0.55311733 2.3297346 0.049237683
-0.64013225 2.319133 0.026244869
-0.38598061 2.3890107 0.0068846168
-0.46866545 2.3557777 -0.016391693
-0.54899919 2.3165262 -0.038313247
-0.63671941 2.3100696 -0.06144968
-0.37990293 2.3592379 -0.080942325
-0.46562386 2.34498 -0.10350495
-0.55653828 2.3547471 -0.12790804
-0.64148843 2.3295939 -0.1507507
-0.38819686 2.4209726 -0.17308763
-0.46431482 2.3448133 -0.19148265
-0.54098547 2.2905495 -0.21091987
-0.59799528 2.1741667 -0.22395663
-0.38342658 2.3955021 -0.26106277
-0.43678775 2.2108626 -0.26393926
-0.41206357 1.7467343 -0.22716637
-0.4599435 1.6738431 -0.23707688
-0.34453025 2.1638651 -0.31746322
-0.21965675 1.1150986 -0.17551719
-0.26962093 1.1448879 -0.19339137
-0.30026457 1.0934058 -0.19775186
-0.17547822 1.1075897 -0.20506771
-0.18572952 0.94521397 -0.1855699
-0.22072764 0.93984574 -0.19543394
-0.24266821 0.88475865 -0.19534142
-0 0 -0
-0.17128611 0.87380433 -0.20621142
-0.20192239 0.86017877 -0.21354373
-0.23598723 0.85922414 -0.22495542
-0 0 -0
-0.15940067 0.81641692 -0.22605065
-0.18453841 0.78704995 -0.22824985
-0.20281415 0.7383408 -0.224774
-0.37104413 2.3895919 0.74708664
-0 0 0
-0.56107652 2.3932657 0.70407546
-0.63669556 2.3222506 0.66466212
-0.37642479 2.4142385 0.65237874
-0.45304403 2.329814 0.60763341
-0.54373449 2.3271513 0.58757311
-0.62116557 2.2761977 0.5557465
-0.3645032 2.3375103 0.53727025
-0.4551436 2.3388681 0.51612484
-0.54210335 2.3241978 0.49315134
-0.62917203 2.3120492 0.47110057
-0.37043417 2.3720093 0.4523266
-0.45617774 2.3474598 0.42588234
-0.54156554 2.3272161 0.4021208
-0.61712182 2.2712095 0.37344059
-0.36583656 2.3439109 0.35699642
-0.4576554 2.3614461 0.33788356
-0.54668105 2.3547831 0.31619778
-0.62734658 2.3169885 0.29107744
-0.36689606 2.353395 0.26931125
-0.44811469 2.3124332 0.24345385
-0.53786331 2.3210306 0.22353794
-0.64338046 2.3808181 0.20830792
-0.36687285 2.3556771 0.18185405
-0 0 0
-0.54147625 2.3392205 0.13739385
-0.63894618 2.3675263 0.11658794
-0.36921236 2.375607 0.09492068
-0.45506266 2.3584235 0.071874894
-0.54196155 2.3467226 0.049525503
-0.6342147 2.3539135 0.026593929
