# .PCD v0.7 - Point Cloud Data file format
VERSION 0.7
FIELDS x y z
SIZE 4 4 4
TYPE F F F
COUNT 1 1 1
WIDTH 1415
HEIGHT 1
VIEWPOINT 0 0 0 1 0 0 0
POINTS 1415
DATA ascii
0.88365489 0.17534205 -0.014498209
0.89794779 0.21227103 -0.023662101
0.89072227 0.10997158 -0.030399922
0.89863861 0.14428145 -0.039403681
0.89537907 0.17710003 -0.048249252
0.91889262 0.21698524 -0.058905479
0.87919247 0.10795613 -0.062531248
0.87995058 0.1408084 -0.071386777
0.86083341 0.17012662 -0.078637496
0.9346379 0.22041054 -0.095374294
0.87733805 0.10747974 -0.09511672
0.85820246 0.13694428 -0.10178355
0.86429918 0.17057647 -0.11151119
0.91522068 0.21559542 -0.12841664
0.87533712 0.10650586 -0.12775959
0.86475748 0.13749504 -0.13522454
0.86843157 0.17104562 -0.14553024
0.87837076 0.20676918 -0.15737683
0.88087261 0.10649298 -0.16225533
0.84375781 0.1337485 -0.16457269
0.87520123 0.17182367 -0.18055317
0.87119228 0.20479053 -0.19055161
0.87046355 0.10438688 -0.19442399
0.8458373 0.13368468 -0.19831493
0.86321276 0.16937615 -0.21260403
0.88525963 0.20842347 -0.2296063
0.88477761 0.10525765 -0.23308909
0.86939502 0.1367393 -0.23916262
0.86130691 0.16876803 -0.24781413
0.86858916 0.2045306 -0.26195467
0.8834126 0.10403896 0.27480745
0.90348023 0.14163876 0.27162111
0.87265295 0.17096651 0.25470075
0.85112476 0.19998609 0.2413325
0.89900792 0.10644835 0.24170774
0.92265052 0.1443966 0.23908515
0.92546344 0.18059182 0.23182996
0.89853454 0.21000084 0.21734641
0.90642411 0.10734252 0.20728976
0.91148889 0.14278017 0.1998449
0.94395149 0.18382329 0.19871753
0.95658237 0.2228457 0.1931088
0.91536081 0.10861145 0.17367268
0.90460008 0.14145845 0.1630591
0.91093022 0.17691429 0.15616825
0.97832799 0.22751556 0.15937436
0.90048259 0.1067664 0.13645925
0.90312302 0.14075921 0.12839296
0.90629655 0.17552197 0.12074657
0.99130356 0.2296032 0.12338891
0.89796716 0.10630923 0.10224165
0.91305643 0.1422911 0.095510393
0.90813541 0.17549992 0.086780921
0.91940725 0.2124774 0.079704076
0.90405881 0.10688642 0.069440722
0.90607613 0.14091174 0.061081763
0.89793348 0.17330077 0.05232963
0.89056516 0.20550084 0.043453343
0.90303582 0.10647781 0.035901006
0.91466105 0.14178909 0.027697109
0.88948226 0.17120276 0.018626029
0.87796211 0.20220535 0.0098281903
0.89083987 0.10491367 0.0025518599
0.8943482 0.13830458 -0.0061758873
0.87293112 0.16765371 -0.014305115
0.89143932 0.20496528 -0.023457011
0.89634341 0.10508601 -0.030569186
0.89358264 0.13785085 -0.039144158
0.89742965 0.1717905 -0.04830204
0.91923398 0.21111953 -0.05884321
0.886774 0.10336794 -0.063024171
0.88670939 0.13631524 -0.071865886
0.86186105 0.16484144 -0.078637496
0.91269463 0.20933259 -0.09300229
0.87600577 0.10186478 -0.094902731
0.87277102 0.13378268 -0.10341208
0.85071242 0.16247828 -0.10962754
0.88562131 0.20289536 -0.12408648
0.86909223 0.10033836 -0.12675588
0.87633139 0.13382754 -0.13690339
0.883035 0.1683002 -0.14780162
0.88922578 0.20357414 -0.15909491
0.88835043 0.10187052 -0.16351451
0.84456259 0.12856878 -0.16457269
0.8704617 0.16535282 -0.17936271
0.88578111 0.2024927 -0.19346716
0.88951826 0.10113943 -0.19853763
0.87072128 0.1321467 -0.20395528
0.86614573 0.16443899 -0.21307388
0.88274139 0.20212206 -0.22862716
0.8825227 0.09950161 -0.23232985
0.87212604 0.13169037 -0.2396871
0.86232626 0.16347997 -0.24781413
0.8773101 0.2009107 -0.26420802
0.87358922 0.097451307 0.27156052
0.89959264 0.13537917 0.27019751
0.88879788 0.16847336 0.25910637
0.85233581 0.19475991 0.2413325
0.90156442 0.10114557 0.24222367
0.90435904 0.13585433 0.23412488
0.93037099 0.17563041 0.23278496
0.88556868 0.20124808 0.21390738
0.90706569 0.10177878 0.20728976
0.91041481 0.13689405 0.19942148
0.92773873 0.1747646 0.19507506
0.96750146 0.21913958 0.19503795
0.91796315 0.10321246 0.17404298
0.89960939 0.13502845 0.16200711
0.90715271 0.17041127 0.15533845
0.98163223 0.22194397 0.15968777
0.89620733 0.10068712 0.13571519
0.90788722 0.13580109 0.12894939
0.91028023 0.17050539 0.12113565
0.973324 0.21915503 0.12098131
0.88971531 0.099800505 0.10123047
0.91194481 0.13639176 0.09530478
0.90625912 0.16937567 0.086500682
0.93624926 0.21032655 0.081050716
0.90172493 0.10100422 0.069212548
0.90692371 0.13534951 0.061081763
0.90290558 0.16852058 0.052558139
0.9132517 0.20484209 0.044498127
0.900693 0.10060214 0.035782654
0.91749114 0.13646828 0.027756928
0.89444768 0.16647354 0.018708263
0.88113791 0.19725135 0.0098500075
0.8914668 0.099445596 0.0025518599
0.8991366 0.13340138 -0.0062031839
0.87590945 0.16265947 -0.014337297
0.88194853 0.1970934 -0.023175016
0.89299804 0.099143051 -0.030433776
0.89144677 0.13192657 -0.039014403
0.90141267 0.16682594 -0.048460409
0.90590078 0.20221373 -0.057909194
0.88243407 0.097377785 -0.062672086
0.87963992 0.12970862 -0.071227074
0.86579454 0.16009337 -0.078905277
0.88870895 0.19809939 -0.090432622
0.88056749 0.096922912 -0.095330708
0.87652338 0.12885831 -0.10376105
0.86437613 0.15959707 -0.11126003
0.87621123 0.19508883 -0.12259798
0.87854582 0.095971055 -0.12804638
0.87126893 0.12758878 -0.13598765
0.86270183 0.15894541 -0.14423232
0.8885349 0.19768623 -0.15875128
0.87917924 0.09535709 -0.16171567
0.84144896 0.12281694 -0.16381603
0.86953187 0.15965466 -0.1789659
0.87268496 0.19387214 -0.19034335
0.8775031 0.094323128 -0.19572304
0.86283916 0.12553917 -0.20192476
0.86522627 0.15877044 -0.21260403
0.87071496 0.19375344 -0.22520021
0.89947069 0.095826991 -0.23663224
0.86718732 0.12550728 -0.23811367
0.86331314 0.15818577 -0.24781413
0.87758976 0.19531539 -0.26392636
0.88557297 0.093290396 0.27510262
0.89566243 0.12917264 0.26877391
0.89454293 0.16388282 0.26048312
0.85539681 0.18994433 0.24186464
0.89063871 0.094389893 0.23912814
0.90805215 0.13071683 0.23486891
0.93525237 0.17061555 0.23373997
0.9086476 0.20063759 0.21918054
0.90864283 0.096314006 0.20751122
0.90156424 0.12991136 0.19730449
0.92879361 0.16906881 0.19507506
0.97170275 0.21383162 0.19561671
0.90587538 0.096228518 0.171636
0.89652306 0.12894538 0.16130577
0.9062407 0.16448966 0.15500653
0.96754116 0.21252635 0.15718041
0.90270829 0.095812425 0.13660805
0.90772313 0.13008736 0.12881029
0.90643078 0.16403396 0.12048718
0.9562242 0.20914848 0.1186941
0.88833463 0.094130032 0.10100576
0.91079527 0.13051142 0.095099166
0.90532172 0.16345797 0.086313851
0.91999835 0.20075399 0.079535753
0.90232772 0.095469438 0.069212548
0.90576166 0.12949973 0.060948834
0.91080028 0.16421734 0.052958041
0.89204389 0.19434413 0.043405857
0.90328074 0.095283337 0.035861555
0.9123739 0.12999016 0.027577465
0.89938837 0.16168979 0.018790497
0.88135451 0.19162863 0.0098390989
0.9029997 0.095126204 0.0025831538
0.89894819 0.12774119 -0.0061963596
0.88181186 0.15816453 -0.014417753
0.88704896 0.19252628 -0.02327756
0.89756548 0.094078586 -0.030569186
0.89817452 0.12729542 -0.039273921
0.90241933 0.16129182 -0.048460409
0.90712452 0.19665143 -0.057909194
0.89095217 0.092788056 -0.063235432
0.87647122 0.12375138 -0.070907675
0.87950701 0.15705408 -0.080065645
0.89185292 0.19306374 -0.090630293
0.8821345 0.091620743 -0.095437698
0.87533051 0.1232008 -0.10352841
0.84678215 0.15098165 -0.10887409
0.88417077 0.19117458 -0.1235452
0.87321138 0.08997 -0.12718603
0.87986511 0.12333792 -0.13720864
0.87726182 0.15606865 -0.1465037
0.86950999 0.18786168 -0.15514331
0.88855505 0.090861358 -0.16333464
0.84413171 0.1179233 -0.16419436
0.86856496 0.15397413 -0.17856908
0.87863851 0.18954505 -0.19138461
0.88583589 0.089724153 -0.19745511
0.87903178 0.12239211 -0.20553458
0.8652271 0.15328896 -0.21236911
0.87662596 0.18943115 -0.22642413
0.88271469 0.088567622 -0.23207676
0.87272054 0.12084576 -0.23942487
0.86047679 0.15221505 -0.24672723
0.87220675 0.18850806 -0.26195467
0.88042408 0.087289274 0.27333158
0.89074039 0.12288845 0.26706561
0.90878475 0.16073497 0.26433805
0.86408454 0.18631759 0.24399327
0.89985359 0.089786597 0.24144979
0.90019983 0.12395335 0.23263679
0.9324562 0.1642001 0.23278496
0.92604119 0.19852708 0.22307812
0.91115743 0.090930544 0.20795415
0.9062171 0.12491083 0.19815129
0.92595536 0.16268879 0.19426562
0.96915823 0.20704535 0.19484502
0.9074266 0.090766162 0.17182115
0.90119869 0.1239787 0.16200711
0.90626156 0.15875581 0.15484057
0.94854254 0.20226032 0.15388949
0.89835942 0.089780025 0.135864
0.90850425 0.12451523 0.12881029
0.9113273 0.15915143 0.12100596
0.92738587 0.19688618 0.11496235
0.88988423 0.088776179 0.10111812
0.9145354 0.12532556 0.09540759
0.90925026 0.15841261 0.08659409
0.92901152 0.19675688 0.080209069
0.89396673 0.089041635 0.068528026
0.9065392 0.12393966 0.060948834
0.92064309 0.16016574 0.053472199
0.89615142 0.18948692 0.043548327
0.90683138 0.090035282 0.035979912
0.91711599 0.12492914 0.027697109
0.90824419 0.15753511 0.018954966
0.88740569 0.18724938 0.0098936399
0.900581 0.089287728 0.0025746191
0.89674246 0.12181912 -0.0061758873
0.88867718 0.15377375 -0.014514301
0.87940973 0.18522552 -0.023046834
0.90210426 0.088961795 -0.030704599
0.89596862 0.12137957 -0.039144158
0.90339202 0.15575165 -0.048460409
0.89171046 0.18758881 -0.056850638
0.88554811 0.086736098 -0.062812917
0.88412899 0.11930422 -0.071466632
0.88438034 0.15233085 -0.080422685
0.86770064 0.18226905 -0.088060617
0.87278461 0.085239902 -0.094367765
0.88394481 0.11888667 -0.104459
0.86822504 0.14931412 -0.11151119
0.87756962 0.18411824 -0.12246266
0.86882174 0.084133431 -0.12646909
0.87864625 0.11767448 -0.13690339
0.87139517 0.14951485 -0.14536801
0.86871797 0.18211867 -0.15479968
0.89007503 0.085501634 -0.16351451
0.86819899 0.11585887 -0.16873428
0.86659509 0.14814635 -0.17797384
0.87499839 0.18314834 -0.19034335
0.88539785 0.084194653 -0.19723859
0.8884576 0.11815199 -0.2075651
0.87477458 0.14945036 -0.21448341
0.87112916 0.1826559 -0.22471064
0.88613105 0.083421744 -0.23283599
0.87440228 0.11561507 -0.2396871
0.86613792 0.14774148 -0.24808586
0.87334698 0.18315275 -0.26195467
0.88474846 0.082239173 0.27451229
0.887676 0.11691993 0.26592672
0.91354454 0.15580224 0.26543948
0.86521155 0.18101215 0.24399327
0.89269191 0.083543308 0.23938611
0.90190399 0.11855376 0.23288481
0.93057406 0.15798795 0.2320687
0.93867755 0.19521958 0.22582933
0.91169822 0.085338078 0.20795415
0.90599751 0.11922053 0.19793959
0.91921169 0.15569581 0.19264673
0.96560633 0.20009929 0.19388044
0.90405279 0.084829368 0.17108054
0.90779924 0.11921585 0.1630591
0.90527391 0.15286373 0.15450865
0.92945498 0.19223559 0.15059857
0.89692432 0.084081523 0.13556638
0.90925115 0.11893841 0.12881029
0.90837544 0.15289831 0.12048718
0.93246585 0.19199295 0.11544386
0.89338028 0.083591998 0.10145518
0.90739673 0.11867972 0.094585106
0.90725946 0.15233597 0.086313851
0.90579933 0.186041 0.07810495
0.89648187 0.083740152 0.068680145
0.90629321 0.11824581 0.060882367
0.92456245 0.155009 0.053643584
0.8972972 0.18398467 0.043548327
0.90637189 0.08437676 0.035940457
0.9148916 0.11891297 0.027607376
0.91017979 0.15212406 0.018975524
0.88853794 0.18180084 0.0098936399
0.90907753 0.084500611 0.0025973781
0.89152294 0.11554337 -0.0061349422
0.89059019 0.14848247 -0.014530391
0.88836533 0.1814263 -0.023251925
0.91656578 0.084712617 -0.03117854
0.89669651 0.11587972 -0.039144158
0.90728599 0.15069647 -0.048618779
0.90262389 0.18410853 -0.057473317
0.88308364 0.081027418 -0.062601663
0.88187844 0.11349535 -0.071227074
0.88628095 0.14706457 -0.08051195
0.87952864 0.17912598 -0.089147791
0.87725168 0.080245279 -0.094795741
0.88564277 0.113587 -0.10457533
0.8701036 0.14414613 -0.11163676
0.86606085 0.17616272 -0.12070353
0.86833596 0.078711517 -0.1263257
0.87445009 0.11165512 -0.13614027
0.87716389 0.14496975 -0.14617921
0.85726899 0.17423417 -0.15256618
0.88078552 0.07915812 -0.16171567
0.87473816 0.11127299 -0.16986927
0.86361939 0.14218934 -0.17718022
0.87898129 0.17835952 -0.19096813
0.90048444 0.080057196 -0.20048621
0.88819933 0.1125758 -0.2073395
0.87567508 0.14408004 -0.21448341
0.87603414 0.17807989 -0.22568978
0.89240861 0.078491561 -0.23435451
0.87892497 0.11073015 -0.24073607
0.86417919 0.1419562 -0.24727067
0.85940993 0.17473178 -0.2574479
0.88714015 0.076974086 0.27510262
0.8769629 0.11003888 0.26251012
0.9135347 0.15003809 0.26516411
0.88236606 0.17895715 0.24851657
0.89992517 0.078653127 0.24119182
0.90069193 0.11277682 0.23238878
0.923859 0.15102179 0.23015867
0.94367439 0.19022565 0.2267464
0.90637583 0.079232857 0.20662536
0.906712 0.1136592 0.19793959
0.91241741 0.14879176 0.19102786
0.96489197 0.19378427 0.19349462
0.91434586 0.080138616 0.17293206
0.9055829 0.11327686 0.1625331
0.90619481 0.14730619 0.15450865
0.91512293 0.18342336 0.14809121
0.8993935 0.078749016 0.135864
0.90898114 0.11323469 0.12867118
0.91614807 0.14843182 0.12139504
0.92291737 0.18413129 0.11411969
0.88397741 0.077243753 0.10033165
0.90613371 0.11286392 0.094379492
0.91407436 0.14771929 0.086874336
0.90594655 0.18028513 0.078020781
0.88903213 0.077544734 0.068071678
0.90502131 0.11243664 0.060749434
0.92352486 0.14901501 0.053529326
0.89644974 0.17808622 0.043453343
0.90289068 0.078467719 0.035782654
0.90568411 0.11206958 0.02730827
0.9110961 0.14653644 0.018975524
0.89257926 0.17692871 0.0099263638
0.91057515 0.079007462 0.0026002231
0.8971774 0.11068311 -0.006169063
0.89938253 0.14428215 -0.014659122
0.88063586 0.17422585 -0.023021199
0.9140811 0.078829467 -0.031076981
0.88846636 0.10927786 -0.03875488
0.90227699 0.14418118 -0.04830204
0.89688271 0.17721243 -0.057037443
0.87760085 0.075097099 -0.062179156
0.87958997 0.10771861 -0.070987523
0.89011729 0.14209472 -0.080779724
0.8708483 0.1717999 -0.088159449
0.8985315 0.076635413 -0.097042598
0.88139355 0.10754915 -0.10399371
0.86705279 0.13818002 -0.11113445
0.86323702 0.17007925 -0.12016226
0.88852566 0.075047903 -0.12919348
0.86628908 0.10521508 -0.13476665
0.87511337 0.13912009 -0.1456925
0.85832196 0.16897079 -0.15256618
0.8851757 0.074080385 -0.16243522
0.88027865 0.10649327 -0.1708151
0.85673112 0.13566127 -0.17559293
0.8743009 0.17183113 -0.1897186
0 0 -0
0.88693899 0.10689066 -0.20688826
0.86886209 0.13748892 -0.21260403
0.86569452 0.17045355 -0.22275238
0 0 -0
0.87096441 0.10430238 -0.2383759
0.86503398 0.13665102 -0.24727067
0.85387594 0.16815746 -0.25547621
0.8704533 0.070147783 0.26978949
0.87762159 0.10465587 0.26251012
0.91443813 0.14442992 0.26516411
0.88250166 0.1733539 0.2482505
0.88402009 0.071800172 0.23680651
0.90425289 0.10759154 0.23313282
0.91421598 0.14369169 0.22753239
0.94960046 0.1853642 0.22789274
0.90684497 0.073669948 0.20662536
0.90836281 0.10820918 0.19815129
0.9084757 0.14243205 0.19001606
0.94583625 0.1839269 0.18944339
0.91188198 0.074287415 0.17237662
0.90821618 0.10795058 0.16288377
0.90513295 0.14143862 0.15417673
0.91817027 0.17818113 0.14840463
0.90281659 0.073469579 0.13631043
0.90769202 0.10742239 0.12839296
0.91214287 0.14204478 0.12074657
0.92013097 0.17771189 0.11363817
0.88344431 0.071737885 0.10021929
0.90779698 0.10741875 0.094482303
0.91693121 0.14241347 0.087061159
0.90997112 0.17528841 0.078273281
0.89545423 0.072571546 0.068528026
0.90569419 0.10688142 0.060749434
0.92540842 0.14349854 0.053586453
0.9014492 0.17333682 0.043643307
0.89937121 0.072604597 0.035624847
0.91131836 0.10709359 0.027457824
0.91593033 0.14155412 0.019057758
0.89659417 0.17201385 0.0099590877
0.90107518 0.072615527 0.0025717742
0.89982599 0.10540873 -0.0061827111
0.90222728 0.13906555 -0.014691304
0.86990625 0.16656315 -0.022713566
0.90857011 0.072740726 -0.030873863
0.89805102 0.10486715 -0.039144158
0.90610582 0.13909677 -0.048460409
0.90775615 0.17358044 -0.057660121
0.87903953 0.069789782 -0.062249575
0.89211601 0.10370066 -0.071945734
0.88801897 0.13617747 -0.08051195
0.87579584 0.16719967 -0.088554785
0.88907313 0.07033655 -0.095972657
0.88894314 0.10293874 -0.10480797
0.8796522 0.13465872 -0.11264136
0.86134458 0.16422263 -0.1197563
0.88403624 0.069208398 -0.12847653
0.86593658 0.099784523 -0.13461404
0.87595052 0.13374788 -0.1456925
0.86708438 0.16517581 -0.15394065
0.90326703 0.070016041 -0.16567312
0.87018448 0.09985853 -0.16873428
0.86045438 0.13084395 -0.17618816
0.87245619 0.1659151 -0.18909384
0.91015995 0.069671474 -0.20243478
0.89822519 0.10266341 -0.20937002
0.87737727 0.13332331 -0.21448341
0.86958146 0.16568296 -0.22348674
0 0 -0
0.86967033 0.098738559 -0.23785143
0.87537104 0.13278399 -0.24998793
0.85583419 0.16309462 -0.25575787
0.85085839 0.063316494 0.26359081
0.87919974 0.099376574 0.26279482
0.90960425 0.13795142 0.26351199
0.89964771 0.17099562 0.25277382
0.884444 0.066374578 0.23680651
0.90297067 0.10182401 0.23263679
0.8968364 0.13532656 0.22299604
0.95167649 0.17971469 0.22812201
0.90727991 0.06810426 0.20662536
0.9070673 0.10241423 0.19772787
0.90158528 0.13568909 0.18839718
0.92283934 0.17358527 0.18462048
0.90448117 0.068100557 0.1708954
0.9108181 0.10259624 0.16323444
0.9089095 0.13632096 0.1546746
0.90953934 0.17072198 0.14683753
0.9012782 0.067780301 0.13601281
0.90439761 0.10140948 0.12783656
0.91790062 0.13717809 0.12139504
0.92120403 0.17206272 0.11363817
0.8838678 0.06631583 0.10021929
0.90250796 0.10118165 0.093865439
0.92074203 0.1372249 0.087341398
0.9022131 0.16805935 0.077515796
0.88395089 0.066182427 0.067615338
0.90335816 0.10098961 0.060550041
0.92330903 0.13737686 0.053415071
0.91133416 0.16944569 0.044070717
0.89979976 0.067084789 0.035624847
0.90202409 0.10039417 0.027158719
0.91875952 0.13622467 0.019098874
0.89763278 0.16650921 0.0099590877
0.90648997 0.067456312 0.0025859985
0.90045583 0.099885516 -0.0061827111
0.89811796 0.13279571 -0.014610847
0.88270754 0.16340597 -0.023021199
0.90700591 0.067017183 -0.030806156
0.89867759 0.099354841 -0.039144158
0.89903861 0.13237068 -0.048038095
0.89800841 0.16601151 -0.056975171
0.87945122 0.064394787 -0.062249575
0.89075392 0.098006755 -0.071786031
0.88785237 0.13058119 -0.080422685
0.87582672 0.16164213 -0.088455953
0.89047962 0.064952306 -0.096079655
0.88955808 0.097482353 -0.10480797
0.87849879 0.12897055 -0.11239021
0.8750031 0.16126905 -0.12151544
0.89332813 0.06442342 -0.12976703
0.86260271 0.094040923 -0.13400355
0.87968367 0.12879947 -0.14617921
0.87098807 0.16038761 -0.15445606
0.88699931 0.063282341 -0.16261509
0.8815192 0.095682874 -0.1708151
0.8602711 0.12542044 -0.17598975
0.88307738 0.16232696 -0.19117637
0.91641355 0.064496763 -0.20373382
0.88915247 0.096103199 -0.20711388
0.88779742 0.12933859 -0.21683262
0.8753494 0.16122231 -0.22471064
0 0 -0
0.87889528 0.094327301 -0.24021159
0.87616932 0.12741032 -0.24998793
0.85493147 0.15749258 -0.25519451
0.88078088 0.060111251 0.27274123
0.88265258 0.094285503 0.26364899
0.89806616 0.1305695 0.25993243
0.90542036 0.16634318 0.25410423
0.88483459 0.060946483 0.23680651
0.90550512 0.096486859 0.23313282
0.89476663 0.12940416 0.2222798
0.94988859 0.1733477 0.2274342
0.90281641 0.062200882 0.20551804
0.90573502 0.096639261 0.19730449
0.90530872 0.13057391 0.18900426
0.92581791 0.1682705 0.18500632
0.89899975 0.062142879 0.16978449
0.91338843 0.097214021 0.1635851
0.90582442 0.13018031 0.15401077
0.9144569 0.16584291 0.14746438
0.90660971 0.062589414 0.13675687
0.90401804 0.095753983 0.12769745
0.92265123 0.13210553 0.12191383
0.92224246 0.16640709 0.11363817
0.88425809 0.060891267 0.10021929
0.89915514 0.095223032 0.093454204
0.9186098 0.13115059 0.087061159
0.9091115 0.16357908 0.078020781
0.88931412 0.061099079 0.067995623
0.90098393 0.095130496 0.060350645
0.91721588 0.1307229 0.053015169
0.91628933 0.16455692 0.044260677
0.89820063 0.061426107 0.035545941
0.90063494 0.094648629 0.027098898
0.92353755 0.13114697 0.01918111
0.89765328 0.16082196 0.0099481801
0.90688682 0.061892923 0.0025859985
0.90502989 0.09477514 -0.0062100082
0.89990586 0.12742265 -0.014626939
0.88369358 0.1579867 -0.023021199
0.91238576 0.06178828 -0.03097542
0.9022513 0.094149858 -0.039273921
0.904778 0.12754878 -0.04830204
0.90981793 0.1624278 -0.057660121
0.8828156 0.059197575 -0.062460829
0.89034706 0.09243641 -0.071706183
0.88765061 0.12499209 -0.080333427
0.87484276 0.15591593 -0.088258289
0.89879781 0.060017154 -0.0969356
0.88717562 0.091715895 -0.104459
0.87239665 0.12261123 -0.11151119
0.85841757 0.15277222 -0.11907972
0.8996318 0.059331622 -0.13062738
0.85431558 0.087836623 -0.13262993
0.88338906 0.12381028 -0.14666593
0.86225665 0.15331572 -0.15273799
0.87853646 0.057262793 -0.16099614
0.88795072 0.09087199 -0.17195009
0.87267309 0.12176489 -0.17837067
0.88020468 0.15622176 -0.19034335
0 0 -0
0.8994174 0.091633074 -0.20937002
0.8885743 0.12388874 -0.21683262
0.87727678 0.15601799 -0.22495542
0 0 -0
0.88521814 0.089515254 -0.24178502
0.87598145 0.12189921 -0.24971621
0.86343926 0.15358818 -0.2574479
0.87827229 0.054528136 0.27185571
0.87367654 0.087908179 0.26080182
0.89313734 0.12426176 0.25828031
0.92161018 0.16347827 0.25836146
0.88229913 0.055334665 0.23603263
0.89644092 0.089961641 0.23065269
0.88977236 0.12311296 0.22084728
0.94805855 0.16700941 0.2267464
0.89636832 0.056232743 0.20396781
0.91020066 0.09147086 0.19815129
0.89930207 0.12407964 0.18758774
0.9277994 0.16275615 0.18519925
0.90230644 0.0568108 0.17033993
0.90809011 0.091018625 0.1625331
0.90172136 0.12394838 0.15318097
0.91740298 0.16056933 0.1477778
0.90598977 0.056963336 0.13660805
0.90458858 0.09020523 0.12769745
0.92344445 0.12644176 0.12191383
0.92324615 0.16074519 0.11363817
0.88163996 0.055277877 0.09988223
0.90170211 0.089901499 0.093659826
0.91939723 0.12551163 0.087061159
0.91009808 0.15799779 0.078020781
0.88867712 0.055578962 0.067919567
0.90155071 0.089600369 0.060350645
0.9180007 0.12509251 0.053015169
0.91925013 0.15927263 0.044355653
0.9015525 0.056099869 0.035664298
0.90517753 0.089514121 0.027218539
0.91937137 0.12480534 0.019078316
0.90847647 0.15701401 0.010057261
0.90625143 0.056265239 0.0025831538
0.90459925 0.089122154 -0.0062031839
0.89769828 0.12149622 -0.014578665
0.88858688 0.15324105 -0.023123745
0.90077728 0.055451922 -0.030569186
0.90281206 0.088611975 -0.039273921
0.90455395 0.12186144 -0.048249252
0.90391231 0.15565658 -0.057224244
0.88814056 0.054082759 -0.062812917
0.88692909 0.086584203 -0.071386777
0.88050389 0.11848061 -0.079619348
0.90128165 0.15492822 -0.090827957
0.89617187 0.054320641 -0.096614622
0.89266449 0.08675091 -0.10504062
0.88001531 0.11818031 -0.11239021
0.86324495 0.14817265 -0.11962099
0.90590632 0.054164872 -0.13148771
0.87156141 0.084208727 -0.13522454
0.87532991 0.11720894 -0.14520577
0.86706495 0.14868814 -0.15342522
0.92797023 0.054768946 -0.16999033
0.88653678 0.085233971 -0.17157176
0.87437528 0.11653747 -0.17856908
0.869578 0.14883788 -0.18784432
0 0 -0
0.87765759 0.08397837 -0.2041809
0.88835424 0.11830591 -0.21659771
0.89733005 0.15391037 -0.2298511
0 0 -0
0.88286865 0.083808385 -0.2409983
0.87480497 0.11626841 -0.24917276
0.86341971 0.14812508 -0.25716624
0.8814522 0.04929819 0.27274123
0.88088 0.083176546 0.26279482
0.88911819 0.11814608 0.25690356
0.92259592 0.1578203 0.25836146
0.88455129 0.050029054 0.23654856
0.89794052 0.084550306 0.2309007
0.89051098 0.1176511 0.22084728
0.94426733 0.16037419 0.22560006
0.9035117 0.051117253 0.20551804
0.90490669 0.085333712 0.19688109
0.90004647 0.11855929 0.18758774
0.91039848 0.15395173 0.18153384
0.89773238 0.050994623 0.16941418
0.9115721 0.0857215 0.1630591
0.90246493 0.11841319 0.15318097
0.92031878 0.15526582 0.14809121
0.90237314 0.051179234 0.13601281
0.9011811 0.084284224 0.12714103
0.92125326 0.12038779 0.12152474
0.92519414 0.1552415 0.11375855
0.87898624 0.049698915 0.099545166
0.89827526 0.083996631 0.093248583
0.91126448 0.11871044 0.086220443
0.91105044 0.15241055 0.078020781
0.89298344 0.050349616 0.068223797
0.90009654 0.083881699 0.060217712
0.91677094 0.11919996 0.052900914
0.92513633 0.15445165 0.044593107
0.90088212 0.050511055 0.035624847
0.90172863 0.083589323 0.027098898
0.91516232 0.1185198 0.018975524
0.91731369 0.15275073 0.010144526
0.89759368 0.050200958 0.0025575499
0.90313762 0.083386086 -0.0061895358
0.89644361 0.11572972 -0.014546483
0.89246881 0.14827742 -0.023200652
0.90409422 0.050089672 -0.030670745
0.90632337 0.083345219 -0.039403681
0.90033233 0.11567265 -0.047985308
0.90091199 0.14945398 -0.056975171
0.88646364 0.048523173 -0.062672086
0.88545829 0.080958948 -0.071227074
0.88516599 0.11358277 -0.079976387
0.89141619 0.14760697 -0.08974079
0.89946663 0.048983004 -0.0969356
0.89219081 0.081181988 -0.1049243
0.87678766 0.11227437 -0.11188791
0.87000299 0.14384282 -0.12043289
0.9091863 0.048764329 -0.13191786
0.87501454 0.079126365 -0.1356824
0.88288426 0.11271051 -0.14634146
0.87962449 0.14529164 -0.15548693
0.88703156 0.04689293 -0.16243522
0.89193302 0.080232553 -0.17251758
0.88965845 0.11302304 -0.18154523
0.86371952 0.14238581 -0.18638654
1.022742 0.053082813 -0.22711666
0.90144449 0.080675781 -0.20959564
0.89195627 0.11322004 -0.21730247
0.8791253 0.14524071 -0.22495542
0.97585297 0.049727 -0.25561342
0.87856013 0.077963136 -0.2396871
0.88791358 0.11247069 -0.25270522
0.85863233 0.14188585 -0.25547621
0.87314969 0.043461286 0.27008465
0.88232869 0.077854261 0.26307955
0.88505775 0.11208443 0.25552678
0.91879123 0.15137286 0.25703105
0.88387668 0.044551972 0.2362906
0.89458233 0.07869947 0.22990865
0.88543522 0.11145712 0.21941474
0.93082458 0.15222089 0.22216104
0.90283442 0.045523338 0.20529658
0.901519 0.079436563 0.19603428
0.89978528 0.11291254 0.18738538
0.91132599 0.14836274 0.18153384
0.89606547 0.04538586 0.16904387
0.90913868 0.079868108 0.1625331
0.90611011 0.11324041 0.15367885
0.91832948 0.14914097 0.14762108
0.90563303 0.045791224 0.13645925
0.9016813 0.078753091 0.12714103
0.91311896 0.11363079 0.12035748
0.92710924 0.14971995 0.11387893
0.8812595 0.044404633 0.099769883
0.89877373 0.078483336 0.093248583
0.91493988 0.11348445 0.086500682
0.91590357 0.1474511 0.078357443
0.89227974 0.044819403 0.068147741
0.89960021 0.078270748 0.060151245
0.91649431 0.11344986 0.052843787
0.92409414 0.14845534 0.044498127
0.90416902 0.045131836 0.035743199
0.90322042 0.078141004 0.027128808
0.91686457 0.11302456 0.018996082
0.91329694 0.14632836 0.010089985
0.90986997 0.045289043 0.0025916884
0.90462852 0.077928796 -0.0061963596
0.90209883 0.11083673 -0.014626939
0.90915608 0.14532316 -0.023610828
0.90138996 0.044393826 -0.030569186
0.90681773 0.077782556 -0.039403681
0.90102512 0.11014614 -0.047985308
0.9027977 0.14408058 -0.057037443
0.88973373 0.043228246 -0.06288334
0.88494521 0.075439692 -0.071147226
0.88485759 0.10802866 -0.079887129
0.8844434 0.14088227 -0.08895012
0.89478475 0.043223195 -0.096400633
0.87683761 0.07436318 -0.10306311
0.88632333 0.10797212 -0.11301809
0.87967581 0.13990244 -0.12165076
0.90057147 0.042762291 -0.13062738
0.89320987 0.075249255 -0.13842964
0.88257962 0.10717216 -0.14617921
0.85714918 0.1361818 -0.15136351
0.96394664 0.045029666 -0.17646617
0.88849443 0.074430354 -0.17176092
0.89520043 0.10814984 -0.18253727
0.85781491 0.13601129 -0.18492877
1.0006175 0.045780126 -0.22213697
0.88347632 0.073606268 -0.20530896
0.89552915 0.10809441 -0.21800724
0.88191503 0.14014812 -0.225445
0.9674415 0.043348599 -0.25333568
0 0 -0
0.88572055 0.10667522 -0.25189
0.86422479 0.13736781 -0.25688457
0.87530905 0.038186207 0.270675
0.87992364 0.07220374 0.26222542
0.87713879 0.10561737 0.25304863
0.91303825 0.1446764 0.25516853
0.88895947 0.039341345 0.2375804
0.89408284 0.073129959 0.22966063
0.89092344 0.10659893 0.22060852
0.92212558 0.14499466 0.21986836
0.89432883 0.039594609 0.20330341
0.90783387 0.074382305 0.19730449
0.89948875 0.10727347 0.18718302
0.91124976 0.14261644 0.18134093
0.8914184 0.039668415 0.16811812
0.90078044 0.073566996 0.16095512
0.90678787 0.1076785 0.15367885
0.92020315 0.14365573 0.1477778
0.90688479 0.040277377 0.13660805
0.90116054 0.073138893 0.12700193
0.91872245 0.1086079 0.12100596
0.92702949 0.14387625 0.11375855
0.89342773 0.039523467 0.10111812
0.89428115 0.072564848 0.092734538
0.90770864 0.10693643 0.085753374
0.92368424 0.14289483 0.078946598
0.89751863 0.039563186 0.068528026
0.90006357 0.072749428 0.060151245
0.91618156 0.10770766 0.052786656
0.9240005 0.14263003 0.044450637
0.91141677 0.039888941 0.036019363
0.90169019 0.072437391 0.027068987
0.91356879 0.10693173 0.018913848
0.92406058 0.14224304 0.010199066
0.91312778 0.039836086 0.0026002231
0.90209925 0.072137497 -0.0061758873
0.90474826 0.10553116 -0.014659122
0.90113789 0.13837638 -0.023380104
0.90364236 0.038948238 -0.030636892
0.91026562 0.072454773 -0.03953344
0.89870816 0.1042702 -0.047826938
0.9007051 0.13808468 -0.056850638
0.88400245 0.037514366 -0.062460829
0.87644809 0.069301195 -0.070428565
0.89242953 0.10339968 -0.08051195
0.89316046 0.13665681 -0.08974079
0.89999998 0.037941474 -0.0969356
0.88618881 0.069682322 -0.10411002
0.88401252 0.10218993 -0.11264136
0.86974382 0.13285649 -0.12016226
0.91762686 0.03793053 -0.13306499
0.87591964 0.068382636 -0.1356824
0.88322061 0.10175473 -0.14617921
0.86478567 0.13196009 -0.15256618
0.97501647 0.039552741 -0.17844488
0.90459847 0.07019271 -0.17478754
0.89974213 0.10310128 -0.18333091
0.85766631 0.13059804 -0.18472052
1.0281941 0.040721372 -0.2281992
0.90528065 0.069832377 -0.21027248
0.89810699 0.10281863 -0.21847709
0.88755077 0.13546559 -0.22666891
1.0063581 0.038906645 -0.263459
0 0 -0
0.89018309 0.10167537 -0.25297692
0.85461766 0.13046959 -0.25378618
0.87361729 0.032743122 0.27008465
0.87270319 0.066223003 0.25994766
0.88063574 0.10056056 0.25387469
0.91486174 0.13921639 0.2554346
0.89304596 0.034033224 0.23861223
0.89934468 0.068007834 0.2309007
0.88384163 0.10025474 0.21869849
0.90856099 0.13715452 0.21642934
0.90235066 0.034403592 0.20507511
0.90340042 0.068441384 0.19624598
0.90110314 0.10186229 0.18738538
0.90919667 0.13658512 0.18076217
0.89557302 0.034348678 0.16885872
0.89925146 0.067890294 0.16060445
0.90645158 0.10200225 0.1535129
0.91520685 0.13712868 0.14683753
0.90810299 0.034749888 0.13675687
0.90060484 0.067534052 0.12686282
0.91345924 0.1023065 0.12022778
0.92102152 0.13716181 0.11291589
0.88372391 0.033662524 0.099994585
0.89867717 0.067373723 0.093145773
0.91032666 0.10158566 0.085940197
0.91665846 0.13605417 0.078273281
0.89774448 0.034055371 0.068528026
0.89850301 0.06707681 0.060018316
0.91682523 0.10208404 0.052786656
0.93177491 0.13798204 0.044783063
0.91364139 0.03437097 0.036098264
0.90510809 0.067125142 0.027158719
0.9142077 0.10132416 0.018913848
0.92194831 0.13613224 0.010166341
0.91235578 0.034195036 0.0025973781
0.89654136 0.066159412 -0.0061349422
0.90339106 0.099758245 -0.014626939
0.90691495 0.13357282 -0.023508284
0.91385174 0.033771951 -0.03097542
0.90072924 0.066136532 -0.039100908
0.89833838 0.098644875 -0.047774151
0.89956057 0.13226509 -0.056726102
0.88720661 0.032198057 -0.062672086
0.88779271 0.064719319 -0.071306929
0.8841365 0.096944839 -0.079708613
0.88905936 0.13045157 -0.089246623
0.90319669 0.032525811 -0.097256579
0.89452457 0.064817697 -0.10504062
0.88265055 0.096548058 -0.11239021
0.89603144 0.13125095 -0.12368052
0.93861246 0.033030275 -0.13607615
0.90195191 0.064849518 -0.13965061
0.87794274 0.095691971 -0.14520577
0.86362952 0.12636614 -0.15222256
0.97622389 0.033603247 -0.17862476
0.92656004 0.066179946 -0.17894915
0.88574165 0.095994562 -0.18035477
0.86619407 0.12646344 -0.18638654
1.0352547 0.034640271 -0.22971477
0.9260993 0.065724656 -0.21501037
0.89775461 0.097201377 -0.21824215
0.8854872 0.12959592 -0.22593457
1.0065778 0.032731015 -0.263459
2.7993362 0.19655569 -0.76259315
0.90705597 0.097968213 -0.25759628
0.86869359 0.12716906 -0.25772959
0.87666672 0.027471868 0.2709702
0.8750056 0.06100028 0.26051709
0.88219196 0.095258392 0.25415003
0.91379106 0.13332196 0.25490245
0.89130658 0.02849122 0.23809631
0.89394653 0.062085561 0.22941263
0.88637125 0.095036753 0.21917599
0.90938544 0.1315771 0.21642934
0.90351939 0.028897395 0.20529658
0.90477836 0.06296479 0.19645768
0.89684236 0.095811158 0.18637358
0.90419042 0.13016495 0.17960468
0.89871347 0.028947808 0.16941418
0.89768678 0.062235128 0.16025378
0.90902156 0.096646957 0.1538448
0.91994148 0.1320719 0.14746438
0.89545047 0.028764483 0.13482232
0.89902633 0.061870787 0.12658462
0.90913951 0.096178122 0.11957931
0.93363917 0.13319035 0.11436044
0.88292068 0.028207732 0.09988223
0.89311957 0.061448622 0.092528909
0.90301174 0.09516333 0.085192896
0.91944903 0.13070758 0.078441605
0.89793658 0.028546272 0.068528026
0.89690667 0.061426084 0.059885383
0.91544855 0.096247807 0.052672401
0.91678041 0.13001807 0.044023227
0.90085167 0.028355652 0.035585392
0.90450573 0.061502434 0.027128808
0.9098404 0.095192604 0.018811056
0.91979599 0.13005273 0.010133618
0.91354787 0.028627604 0.0026002231
0.90291661 0.061061922 -0.0061758873
0.90398616 0.094213262 -0.014626939
0.91464657 0.12898272 -0.023687737
0.91703862 0.028256368 -0.031076981
0.90211487 0.060675558 -0.039144158
0.89694023 0.092925109 -0.047668573
0.89837855 0.12646474 -0.056601565
0.88738745 0.026753653 -0.062672086
0.88717842 0.059204333 -0.071227074
0.88174254 0.091210604 -0.079440832
0.89378476 0.12554765 -0.089641958
0.90437311 0.027012972 -0.097363569
0.89490545 0.059327781 -0.10504062
0.89112109 0.091944978 -0.11339482
0.89093274 0.12492504 -0.12286861
0.96649647 0.028075043 -0.14009105
0.90627748 0.059573323 -0.14026111
0.8814581 0.090605907 -0.1456925
0.87707156 0.12284097 -0.15445606
0.99902749 0.028252184 -0.1827621
0.89559311 0.058447145 -0.17289589
0.89216423 0.091155685 -0.18154523
0.86114174 0.12033404 -0.18513703
1.0276405 0.028074125 -0.2279827
0.93134606 0.060355991 -0.21613845
0.90510309 0.092381924 -0.2198866
0.88818616 0.12442927 -0.22642413
1.0144967 0.02675822 -0.26548365
2.9304984 0.18770286 -0.79799551
0.90285283 0.091913424 -0.25623763
0.87040782 0.12196962 -0.25801125
0.87586367 0.02206816 0.270675
0.8734501 0.055508606 0.25994766
0.8846727 0.090038255 0.25470075
0.8954981 0.12504628 0.24958089
0.88663548 0.022897018 0.23680651
0.90397882 0.057211123 0.23189276
0.88597155 0.089498691 0.21893725
0.90053397 0.12466005 0.21413665
0.8988055 0.023227001 0.20418927
0.90514767 0.057411987 0.19645768
0.89546454 0.090110324 0.18596886
0.9098323 0.12528375 0.18056926
0.90771556 0.023663349 0.17108054
0.89412153 0.056477599 0.15955245
0.90469134 0.090576291 0.15301502
0.91290683 0.12534994 0.14621069
0.8965987 0.023295246 0.13497114
0.89840072 0.056291375 0.12644552
0.90773916 0.090401404 0.11931992
0.92853713 0.12665413 0.11363817
0.87910378 0.022687161 0.099432819
0.88752329 0.055594269 0.091912054
0.9085325 0.090112105 0.085659958
0.91727155 0.12466092 0.078189112
0.89510453 0.022959398 0.068299852
0.89228743 0.055611283 0.059553057
0.91701537 0.090727203 0.052729528
0.91756094 0.12439036 0.044023227
0.9119966 0.023105981 0.036019363
0.90287071 0.055827953 0.027068987
0.91239738 0.089804009 0.018852172
0.9106673 0.12306737 0.010024536
0.90770829 0.022870515 0.0025831538
0.90427232 0.055581927 -0.0061827111
0.90753257 0.088957362 -0.014675213
0.91046721 0.12270055 -0.023559555
0.91719478 0.022628993 -0.031076981
0.90147299 0.055078216 -0.039100908
0.89848739 0.087516643 -0.047721364
0.89122438 0.11988554 -0.05610342
0.88853216 0.021332184 -0.062742501
0.89050996 0.0539404 -0.071466632
0.88525957 0.08608783 -0.079708613
0.88960701 0.11939926 -0.089147791
0.91545564 0.021722782 -0.098540492
0.8893041 0.053477913 -0.10434267
0.89364338 0.086666957 -0.11364596
0.89659262 0.12011382 -0.1235452
0.94488358 0.021645563 -0.13693649
0.90366638 0.053835072 -0.13980325
0.8839618 0.085385419 -0.14601697
0.88854945 0.11889423 -0.15634596
1.01 0.022361243 -0.18474083
0.94494665 0.05584744 -0.18235411
0.89856058 0.086241595 -0.1827357
0.87155861 0.11634204 -0.18721956
1.0151045 0.021499371 -0.22516809
1.0085299 0.059146047 -0.23396197
0.90081501 0.086362757 -0.218712
0.90142596 0.12064923 -0.2296063
1.0107728 0.020454587 -0.26447135
0 0 -0
0.90339983 0.086371891 -0.25623763
0.89016032 0.11917303 -0.2636447
0.88458002 0.016857387 0.27333158
0.86611795 0.049708758 0.2576699
0.87659568 0.083785087 0.25222257
0.89051563 0.11878455 0.24798442
0.8896572 0.01751334 0.2375804
0.90141129 0.051497571 0.2311487
0.88747072 0.084152453 0.21917599
0.89935201 0.11887704 0.21367811
0.89698112 0.017673178 0.20374633
0.90548289 0.051857024 0.19645768
0.89795059 0.084798306 0.18637358
0.9057197 0.11905934 0.17960468
0.90096611 0.017956195 0.16978449
0.89445126 0.05099031 0.15955245
0.9042483 0.084931292 0.15284905
0.91855514 0.12038782 0.14699423
0.90661144 0.017989559 0.13645925
0.90070665 0.050889555 0.12672372
0.90827674 0.084829919 0.11931992
0.9243747 0.1203137 0.11303627
0.88717431 0.017448973 0.10033165
0.890827 0.05031576 0.092220478
0.90807694 0.084443569 0.08556655
0.91011381 0.11800528 0.077515796
0.88625634 0.017291652 0.067615338
0.89560056 0.050303128 0.059752453
0.91755486 0.085098796 0.052729528
0.91929752 0.11888608 0.044070717
0.89713567 0.017221969 0.035427585
0.9091844 0.050620388 0.027248451
0.9129312 0.084203951 0.018852172
0.90843016 0.11709382 0.0099918125
0.91283059 0.017395757 0.0025973781
0.90359789 0.049977146 -0.0061758873
0.90407854 0.083021432 -0.014610847
0.90426236 0.11621968 -0.023380104
0.91831559 0.017019285 -0.031110832
0.90578425 0.049765076 -0.039273921
0.90994668 0.082999796 -0.04830204
0.89689296 0.11504977 -0.056414761
0.89363313 0.015968964 -0.063094594
0.8908242 0.048475321 -0.071466632
0.87981969 0.080112442 -0.079173051
0.87847823 0.11242267 -0.087961785
0.94241256 0.016577385 -0.10142931
0.8906073 0.048073776 -0.104459
0.89415836 0.081182033 -0.11364596
0.89829558 0.1147357 -0.12368052
1.0043703 0.016843112 -0.14553984
0.90200591 0.048183829 -0.139498
0.88545179 0.08004877 -0.14617921
0.88730788 0.11319064 -0.15600234
1.0120853 0.016195055 -0.18510059
0.98841667 0.052332666 -0.19067731
0.90200138 0.08098945 -0.18333091
0.88098836 0.11210322 -0.18909384
1.0249791 0.015417232 -0.22733317
1.0254128 0.053824849 -0.23779741
0.91004109 0.081615262 -0.2208263
0.9031111 0.11523864 -0.2298511
1.0166833 0.014334046 -0.26598981
0.97720581 0.050559048 -0.26591107
0 0 -0
0.89658546 0.11443777 -0.26533473
0.88275605 0.011404702 0.27274123
0.86832142 0.044491529 0.25823936
0.88283837 0.07891839 0.25387469
0.8921839 0.11343981 0.2482505
0.90134072 0.012211234 0.2406759
0.89687282 0.04571905 0.22990865
0.88893765 0.078791186 0.21941474
0.89909875 0.11323486 0.21344884
0.90779859 0.012314572 0.20618244
0.90578407 0.046300109 0.19645768
0.90138054 0.079545252 0.18698065
0.90448588 0.11325588 0.17921884
0.91383332 0.012603816 0.17219146
0.89573056 0.045551103 0.1597278
0.90180528 0.079122759 0.15235117
0.90849608 0.11340373 0.14527044
0.90274966 0.012372153 0.135864
0.90100193 0.045361966 0.12672372
0.90482903 0.078910656 0.11880114
0.92016947 0.11402915 0.11243437
0.87136739 0.011789949 0.098533988
0.89310586 0.044948801 0.092426106
0.9046104 0.078525715 0.085192896
0.92367703 0.11400551 0.078609936
0.89033383 0.011906694 0.067919567
0.89489579 0.044757038 0.05968599
0.91507572 0.079208896 0.052558139
0.91306996 0.11238894 0.043738287
0.88423568 0.011547302 0.034914713
0.90648288 0.04489246 0.027158719
0.90944624 0.078257866 0.018769938
0.90714645 0.1112741 0.0099699963
0.89892137 0.01161355 0.0025575499
0.90388757 0.044431835 -0.0061758873
0.90556717 0.077557869 -0.014626939
0.90198159 0.110305 -0.023303196
0.92040145 0.011409062 -0.03117854
0.90607256 0.044206351 -0.039273921
0.90745384 0.077161089 -0.048143677
0.89460993 0.10918164 -0.05622796
0.89670664 0.010520542 -0.063305847
0.885131 0.042720091 -0.070987523
0.88724178 0.075302079 -0.079797871
0.87520021 0.10654928 -0.08756645
0.97232234 0.011136137 -0.10463909
0.89981419 0.043035235 -0.10550592
0.88178843 0.074606732 -0.11201348
0.88717985 0.10778773 -0.12205671
1.0232573 0.010880017 -0.14826421
0.91610515 0.043301575 -0.14163473
0.8869096 0.074697047 -0.14634146
0.87820613 0.10655748 -0.15428427
1.011182 0.0099750087 -0.1849207
0.98087215 0.045899671 -0.189164
0.91224849 0.076269947 -0.18531501
0.88457263 0.10704798 -0.1897186
1.0328643 0.0091973338 -0.22906524
1.0111262 0.046855569 -0.23441319
0.90083832 0.075220987 -0.21847709
0.90187615 0.10946143 -0.22936152
0.99933869 0.0079568764 -0.26143432
0.97556967 0.044474181 -0.26538661
0 0 -0
0.92013121 0.11170966 -0.27209482
0.88089859 0.0059750378 0.27215087
0.86187458 0.038860522 0.25624633
0.87659973 0.072941884 0.25194719
0.88807827 0.10738475 0.24692012
0.88400835 0.0065515977 0.23603263
0.89326531 0.040041551 0.22891659
0.89521122 0.073814087 0.22084728
0.90557539 0.10841015 0.21482445
0.90103102 0.0066934843 0.20463219
0.90800381 0.040829256 0.19688109
0.89697146 0.073612481 0.18596886
0.90808684 0.10805174 0.17979759
0.91782415 0.0070264945 0.17293206
0.89697671 0.040098112 0.15990312
0.90325665 0.073668055 0.15251713
0.90917486 0.10782717 0.14527044
0.89292026 0.0067579136 0.1343759
0.89532739 0.03957032 0.12588909
0.90233117 0.073116995 0.11841205
0.91888005 0.10814887 0.11219361
0.8813597 0.0065165851 0.099657521
0.88740247 0.039204549 0.091809243
0.90705997 0.073133677 0.08537972
0.91446239 0.10717587 0.077768289
0.8933813 0.0064651305 0.068147741
0.89914089 0.039440122 0.059951853
0.91355425 0.073432624 0.052443884
0.91473454 0.10690027 0.043785777
0.90727144 0.0062806071 0.035822105
0.90674126 0.039329544 0.027158719
0.9109059 0.072755732 0.018790497
0.91277832 0.10628412 0.010024536
0.90097564 0.0061112186 0.0025632395
0.90414315 0.038884848 -0.0061758873
0.90303582 0.071762331 -0.014578665
0.90661347 0.1052295 -0.02340574
0.90246481 0.0056487699 -0.030569186
0.91131753 0.038858771 -0.039490186
0.90691471 0.071513101 -0.048090886
0.89625442 0.10380519 -0.056290224
0.91071934 0.0050964039 -0.064291701
0.88936013 0.037455998 -0.071306929
0.88868004 0.069934785 -0.079887129
0.87781459 0.10140554 -0.087764122
0 0 -0
0.89311486 0.037223753 -0.10469165
0.88321871 0.069272347 -0.11213906
0.8897931 0.10256898 -0.12232734
1.0351806 0.0046546222 -0.14998488
0.90647912 0.037273616 -0.1401085
0.90407515 0.070558891 -0.14909954
0.8915661 0.10263146 -0.15651777
1.0181099 0.0037959993 -0.18617989
1.0037014 0.040797535 -0.19351476
0.93908352 0.072714016 -0.19067208
0.88812786 0.10195297 -0.19034335
1.0163045 0.0028136752 -0.22538459
1.0308632 0.041433029 -0.23892547
0.93714041 0.072464831 -0.22716919
0.90253079 0.10392557 -0.22936152
1.0100106 0.0018443327 -0.26421824
0.99607342 0.039286006 -0.2708936
0 0 -0
0.91222042 0.10507359 -0.26955977
0.88569587 0.00057292363 0.27362674
0.86497045 0.033683334 0.25710049
0.87798935 0.067635633 0.25222257
0.88584751 0.10160406 0.2461219
0.88499808 0.0011285335 0.2362906
0.90027046 0.034821928 0.23065269
0.89274246 0.068098202 0.22013101
0.90138775 0.10230277 0.21367811
0.90398067 0.0011685172 0.20529658
0.90237761 0.035029616 0.19561088
0.9042418 0.068626158 0.18738538
0.90873277 0.10247779 0.17979759
0.91490191 0.0013902194 0.17237662
0.89917338 0.034669474 0.16025378
0.89484161 0.067457229 0.15102349
0.9068749 0.10191565 0.14480029
0.89591146 0.0012831797 0.13482232
0.9024803 0.034339521 0.12686282
0.90474039 0.067727052 0.11867144
0.91064674 0.10151879 0.1111102
0.89231348 0.0011222882 0.10089342
0.89259624 0.033947833 0.092323296
0.90749168 0.067566685 0.08537972
0.90420872 0.10035374 0.076842479
0.89739257 0.00098771392 0.068451971
0.89438051 0.03373431 0.05961952
0.912992 0.067751892 0.052386757
0.92133009 0.10194468 0.044070717
0.88730848 0.00069785852 0.03503307
0.90996212 0.033876702 0.027248451
0.91233224 0.067238636 0.018811056
0.91440719 0.10079097 0.010035444
0.9109962 0.00058928953 0.0025916884
0.90836197 0.03348374 -0.0062031839
0.90146476 0.06607388 -0.014546483
0.90922946 0.09988296 -0.023457011
0.90448129 0.00011148988 -0.030636892
0.9105404 0.033229865 -0.039446935
0.8973766 0.065223135 -0.047562994
0.89786661 0.09841267 -0.056352492
0.89676821 -0.00048422013 -0.063305847
0.88558859 0.031854954 -0.070987523
0.89008582 0.064552672 -0.079976387
0.87446344 0.095584951 -0.087368786
0.93659246 -0.00076726975 -0.10078734
0.89531165 0.031813543 -0.1049243
0.89055365 0.064352237 -0.11301809
0.89139062 0.097214803 -0.12246266
1.0381587 -0.0017020821 -0.15041505
0.94027185 0.032885335 -0.14529769
0.91433316 0.06571766 -0.15072195
0.88630295 0.096519068 -0.15548693
1.0063097 -0.0024226587 -0.18402128
1.0049143 0.034672033 -0.19370393
0.93560147 0.066671863 -0.18987845
0.89165378 0.096818343 -0.19096813
1.0182554 -0.0034288804 -0.22581762
1.0330454 0.035173297 -0.23937672
0.92981088 0.066161364 -0.22528981
0.90893471 0.099015787 -0.23083021
0.99645883 -0.0042946371 -0.2606751
0.99822474 0.033237707 -0.27141812
2.6706238 0.18932746 -0.75594175
0.912848 0.099474326 -0.26955977
0.8923707 -0.004898326 0.27569297
0.86324459 0.028312491 0.25653103
0.87263417 0.061839387 0.25057045
0.88453752 0.095958754 0.24558973
0.88788676 -0.0043158224 0.23706447
0.90240365 0.029360319 0.2311487
0.8989557 0.063026652 0.22156353
0.90490198 0.097081527 0.21436591
0.90689629 -0.0043923948 0.20596097
0.90062195 0.029428236 0.19518748
0.90073812 0.062804073 0.18657593
0.9034903 0.096276164 0.1786401
0.91784126 -0.0042371489 0.17293206
0.90133721 0.029215388 0.16060445
0.90015757 0.062305782 0.15185329
0.90944749 0.096557803 0.14511372
0.89886904 -0.0042280075 0.13526876
0.90366381 0.028832942 0.12700193
0.90909582 0.062446196 0.11919022
0.90927804 0.095721401 0.11086944
0.8783924 -0.0042850035 0.099320464
0.89577031 0.028565435 0.09263172
0.90490925 0.061793659 0.085099481
0.90678948 0.095011406 0.077010803
0.88840789 -0.0044734157 0.067767449
0.90155178 0.028466286 0.060084783
0.91040236 0.061945282 0.052215371
0.91895789 0.095978305 0.043928247
0.88829523 -0.0047519221 0.03507252
0.91215092 0.028354755 0.02730827
0.91073263 0.061504673 0.018769938
0.91401386 0.095074922 0.010024536
0.90698272 -0.0049785329 0.0025803088
0.90755081 0.027878804 -0.0061963596
0.9018532 0.06054135 -0.014546483
0.91380262 0.094714403 -0.023559555
0.9064638 -0.0054503237 -0.030704599
0.91272432 0.027702885 -0.03953344
0.90573114 0.060245924 -0.047985308
0.89746076 0.092798956 -0.056290224
0.90373081 -0.006033292 -0.06379877
0.88875639 0.026509641 -0.071227074
0.89543426 0.05941974 -0.080422685
0.88493204 0.091238104 -0.088357121
0.99423575 -0.0069151572 -0.10699293
0.89747554 0.026377771 -0.10515694
0.89192164 0.058952115 -0.11314366
0.88999915 0.091540754 -0.12219203
1.0114086 -0.0078643067 -0.14654355
0.95922559 0.027656486 -0.14819755
0.90782684 0.059653286 -0.14958628
0.88785845 0.091179639 -0.15565872
1.0190635 -0.0087064644 -0.18635976
0.9952926 0.02822697 -0.19181231
0.9800052 0.063794911 -0.19880691
0.89223105 0.091345437 -0.19096813
1.0240724 -0.0097323786 -0.22711666
1.0283725 0.028698102 -0.23824863
0.97869778 0.063606881 -0.23703589
0.90856069 0.093337722 -0.23058543
1.0051202 -0.010499662 -0.26295283
1.0090209 0.027400235 -0.27430272
0 0 -0
0.92489499 0.095048398 -0.27293986
0.87321627 -0.010151582 0.26978949
0.86627692 0.023091823 0.25738519
0.86915982 0.056235559 0.24946904
0.88510966 0.090529531 0.24558973
0.89943671 -0.0098912036 0.24015999
0.89288265 0.023567114 0.22866857
0.89641821 0.057323668 0.22084728
0.90741742 0.091723099 0.21482445
0.88735002 -0.0097427955 0.20153169
0.90273952 0.023953415 0.19561088
0.90403855 0.057462431 0.18718302
0.9079693 0.09112256 0.17941177
0.91091943 -0.0097948741 0.171636
0.90642035 0.023813618 0.16148111
0.89560199 0.056471068 0.15102349
0.90412629 0.090386242 0.14417346
0.88893813 -0.0096360985 0.13378066
0.90778351 0.023389649 0.12755835
0.90451378 0.056557517 0.11854174
0.91182399 0.090336114 0.1111102
0.87040067 -0.0095870839 0.098421633
0.89891183 0.023145365 0.092940152
0.90229023 0.056054875 0.084819242
0.90537214 0.089250155 0.076842479
0.88437557 -0.0098799458 0.067463219
0.89672214 0.022807086 0.059752453
0.90976882 0.05629633 0.052158244
0.91853535 0.09024021 0.043880757
0.89924008 -0.010328547 0.035506491
0.90731156 0.022632739 0.027158719
0.91209078 0.055976607 0.018790497
0.91358483 0.089367494 0.010013629
0.9179343 -0.010671452 0.0026116027
0.90170676 0.022162233 -0.006155415
0.90120971 0.054945696 -0.014530391
0.91436654 0.089105636 -0.023559555
0.90741265 -0.01102432 -0.030738451
0.91287714 0.022101993 -0.03953344
0.90907413 0.054867815 -0.048143677
0.89701992 0.087193936 -0.05622796
0.92362553 -0.01183396 -0.065207139
