# .PCD v0.7 - Point Cloud Data file format
VERSION 0.7
FIELDS x y z
SIZE 4 4 4
TYPE F F F
COUNT 1 1 1
WIDTH 1516
HEIGHT 1
VIEWPOINT 0 0 0 1 0 0 0
POINTS 1516
DATA ascii
0.3249785 2.3088698 0.52951902
0.23620437 2.3002784 0.50088245
0.1513119 2.3111229 0.47858143
0.068110682 2.3617847 0.46454147
0.32354501 2.3024704 0.43806988
0.23683099 2.3004539 0.41185576
0.15198559 2.3035278 0.38851207
0.069296665 2.3713102 0.37641811
0.3232955 2.2992387 0.34940708
0.2386764 2.3069165 0.32578149
0.15416548 2.3180902 0.3038767
0.071625501 2.3784907 0.28854945
0.32416067 2.3024771 0.26290712
0.23927103 2.3122697 0.24026674
0.15606551 2.3325181 0.21933433
0.072116002 2.3565021 0.19913396
0.32453087 2.3024867 0.17736666
0.24084543 2.3203642 0.15539625
0.15653127 2.3309286 0.13368049
0.073723063 2.3831668 0.11335862
0.33013827 2.3369575 0.093184814
0.2436513 2.3362777 0.070289634
0.15854309 2.3431461 0.048291992
0.074362554 2.3716934 0.025884902
0.32834035 2.3218901 0.0066712503
0.24263361 2.3182833 -0.015907174
0.15773135 2.3173375 -0.037379958
0.075560205 2.3820183 -0.061116412
0.32964942 2.3223755 -0.079452805
0.2427393 2.3111107 -0.10060699
0.16010876 2.3312459 -0.12352654
0.075923808 2.3751664 -0.14825998
0.32689503 2.2920446 -0.16344035
0.24454923 2.3166659 -0.18661174
0.16060477 2.3331065 -0.20958097
0.076497883 2.3710942 -0.23561898
0.20113981 1.407492 -0.15299989
0.14688835 1.3857121 -0.16320266
0.16030681 2.3199131 -0.29434934
0.077806361 2.3935049 -0.32706326
0.19122133 1.3302939 -0.19472225
0.15300383 1.4357541 -0.22298312
0.16217789 2.3339593 -0.3846736
0.077316664 2.3669908 -0.41302824
0.19713198 1.3639748 -0.25201741
0.14872316 1.3893713 -0.26918039
0.145438 2.0747216 -0.42102623
0.071827255 2.1779671 -0.46398798
0.19722815 1.3554482 -0.30376044
0.12245777 1.1391155 -0.26532233
0.07263384 1.0345929 -0.25066134
0.033454075 1.0252678 -0.25898024
0.3015829 2.0590043 -0.54438066
0.12360049 1.1416823 -0.31206527
0 0 -0
0 0 -0
0.33918253 2.2968183 0.71727401
0.24970035 2.2957551 0.68588603
0.16312568 2.3139791 0.66442472
0.07797721 2.3575003 0.65109217
0.33885568 2.3046234 0.62193954
0.24938029 2.2872419 0.58903235
0.16508272 2.3169503 0.5710991
0.080663785 2.3541577 0.55482942
0.33715358 2.2933252 0.52641851
0.24936199 2.2900414 0.49897712
0.16597967 2.3169889 0.47999799
0.082463823 2.3573997 0.46376976
0.33552587 2.2858574 0.4352926
0.25126234 2.3018932 0.41238171
0.16562019 2.2956669 0.38735035
0.083321847 2.356035 0.37406743
0.33667883 2.29232 0.34866303
0.25174734 2.2955649 0.32439044
0.16824237 2.3151226 0.3036173
0.085858606 2.3680859 0.28734568
0.33987248 2.3112586 0.26414299
0.25508112 2.3255894 0.24180888
0.17044722 2.3325098 0.21942776
0.086281143 2.3480487 0.19846062
0.34083086 2.3152492 0.17850752
0.25409648 2.3099163 0.15479806
0.17126867 2.3358984 0.13402326
0.087826364 2.368695 0.11269376
0.34272125 2.3230255 0.092711389
0.25743294 2.3297713 0.070140079
0.17247571 2.3361468 0.048168641
0.089213334 2.3791864 0.025972167
0.34535676 2.3386278 0.0067253034
0.25652319 2.3137691 -0.015886702
0.17209533 2.3183203 -0.037412137
0.089720681 2.3695226 -0.060808782
0.34286737 2.3133888 -0.079215832
0.25603181 2.3016341 -0.10026095
0.17433548 2.3292239 -0.12347375
0.090078041 2.3636854 -0.14757504
0.34168708 2.294929 -0.16379245
0.25831655 2.3111594 -0.18629235
0.17484292 2.331084 -0.20949173
0.091121584 2.3725691 -0.23581666
0.21123916 1.4160652 -0.15406983
0.16059358 1.4311744 -0.16866988
0.17401728 2.3119607 -0.29347032
0.092031963 2.3811016 -0.32543945
0.19923346 1.3281169 -0.19457887
0.16026001 1.4210393 -0.22084638
0.17590022 2.3250487 -0.38337567
0.091762394 2.3645034 -0.41268465
0.1988969 1.3189685 -0.24392264
0.1545933 1.3650155 -0.26464045
0.15816551 2.0737901 -0.42102623
0.057277426 1.4640363 -0.31196317
0.2042228 1.3455255 -0.30181184
0.18437099 1.621364 -0.37790385
0.095117241 1.2454115 -0.30187425
0 0 -0
0.32940301 2.1565759 -0.5707013
0.19338082 1.6893024 -0.46206638
0 0 -0
0 0 -0
0.3544322 2.3022485 0.71963543
0.26378214 2.2941799 0.68588603
0.17754138 2.3158102 0.66525078
0.092214435 2.3511984 0.64949572
0.3526974 2.300591 0.62142366
0.26340985 2.2856686 0.58903235
0.17892136 2.3110526 0.56990534
0.094871305 2.3477829 0.5534538
0.35269639 2.3008523 0.52863318
0.2647498 2.3001194 0.50151753
0.17950962 2.3071396 0.47817674
0.095878705 2.3313594 0.45875394
0.35207283 2.3002694 0.43844017
0.26515609 2.2983522 0.41203108
0.18039596 2.3034556 0.38884401
0.097530864 2.3495586 0.37312716
0.35328272 2.306828 0.3511928
0.26559997 2.2920098 0.32411227
0.18252246 2.3150351 0.303747
0.099840567 2.3546205 0.28578073
0.35239118 2.2983258 0.26290712
0.27049106 2.3338616 0.242837
0.18467735 2.3304272 0.21933433
0.10055877 2.3444886 0.19820814
0.35412291 2.3072009 0.17805117
0.26757398 2.3023672 0.15439929
0.18385777 2.3129086 0.13276644
0.10209994 2.362124 0.11240882
0.35742435 2.3238418 0.092829749
0.26801535 2.2963779 0.069182947
0.18561083 2.3200953 0.047860261
0.10337408 2.3686042 0.025863085
0.36046061 2.3414066 0.0067395279
0.27094796 2.3141382 -0.015900351
0.18639718 2.3182175 -0.03742823
0.10373066 2.3569429 -0.060501147
0.35614008 2.305315 -0.079012714
0.268751 2.2881129 -0.099741913
0.18886594 2.3310959 -0.1236321
0.1041825 2.3541143 -0.14701462
0.35499731 2.2878604 -0.16344035
0.27214229 2.306561 -0.18605278
0.19019055 2.3428731 -0.2106521
0.10470328 2.3500946 -0.23364231
0.20480423 1.3174789 -0.14347753
0.16236359 1.370983 -0.16169044
0.1538939 1.8896164 -0.23997508
0.10601962 2.3666346 -0.32354498
0.20523937 1.3131802 -0.19257142
0.16629046 1.397458 -0.21733604
0.15555876 1.9010361 -0.31361201
0.10649019 2.3688164 -0.41354367
0.23079877 1.4693198 -0.27198455
0.15958785 1.3357661 -0.25915471
0.11910555 1.4446948 -0.29344851
0.075194366 1.6610264 -0.35403031
0.2129322 1.34714 -0.30246139
0.14895628 1.2419938 -0.28968868
0.094760485 1.1479325 -0.27838209
0.053038217 1.180725 -0.2983903
0 0 -0
0 0 -0
0 0 -0
0.03493581 0.77833921 -0.2287174
0.36961004 2.3066342 0.72170162
0.2776233 2.2906148 0.68531656
0.19214439 2.3194675 0.66662753
0.10628989 2.3428845 0.64736706
0.36878639 2.3107867 0.62477714
0.27883124 2.2955496 0.59200853
0.19253208 2.3031375 0.56823409
0.10904891 2.3422952 0.55230749
0.3688052 2.3111637 0.5315122
0.27756324 2.2877791 0.49918881
0.19415432 2.3118501 0.47939089
0.1102282 2.3317075 0.45894688
0.36726287 2.3048589 0.43973622
0.27937236 2.2976594 0.41220638
0.19502446 2.3082011 0.38983977
0.11142847 2.3380642 0.37140337
0.36665204 2.2997341 0.35044876
0.27869827 2.2824728 0.32299942
0.19621983 2.3079438 0.30296883
0.11375682 2.3430564 0.28445658
0.36930591 2.3137825 0.26492947
0.28323877 2.3193221 0.24150047
0.19846465 2.323298 0.21877384
0.11479597 2.3408415 0.19795564
0.37220585 2.3296001 0.17995262
0.28339368 2.3145475 0.15532979
0.19847213 2.3167105 0.13305207
0.11619768 2.3534718 0.1120289
0.37294009 2.3294981 0.093145356
0.28453988 2.3145318 0.069781162
0.19898474 2.3089519 0.047654673
0.11780617 2.3659282 0.025841272
0.37165606 2.3194027 0.0066826306
0.28918064 2.3451831 -0.016125549
0.20079048 2.3190222 -0.037460409
0.11784007 2.3492732 -0.060321696
0.37027851 2.3030865 -0.079012714
0.28536078 2.3072426 -0.10065024
0.20229824 2.3199451 -0.12310421
0.11832365 2.3474498 -0.14664102
0.37332156 2.3122277 -0.16534163
0.28641281 2.3058369 -0.18613264
0.20343575 2.328763 -0.20949173
0.11932278 2.3533833 -0.23403764
0.20970927 1.2965673 -0.14133768
0.17642421 1.4152979 -0.16704135
0.12651716 1.4439026 -0.18346603
0.11998447 2.3550549 -0.3220565
0.20757556 1.2767299 -0.18740942
0.1744936 1.3934695 -0.21687819
0.12673452 1.4400244 -0.23768318
0.12062073 2.3602476 -0.41216922
0.21189561 1.2970121 -0.24032496
0.17623122 1.4019868 -0.27220699
0.12883301 1.4536997 -0.29543263
0.11084958 2.1557634 -0.45961463
0.21976906 1.3371378 -0.30051279
0.17157315 1.3599427 -0.31743923
0.090891831 1.0243667 -0.24854705
0.059540235 1.1658525 -0.29471856
0.16963677 1.0260749 -0.27206382
0 0 -0
0 0 -0
0 0 -0
0.38595369 2.3175173 0.72583407
0.29191539 2.2907701 0.68588603
0.20611705 2.3153725 0.66580153
0.12036598 2.3364122 0.64577061
0.38311628 2.3094335 0.62503505
0.29254308 2.2909126 0.59126449
0.20735489 2.3096502 0.57014406
0.12300905 2.3338058 0.55047327
0.38585165 2.3261738 0.53549856
0.29295588 2.2966974 0.50151753
0.20824796 2.3096397 0.4791885
0.12469025 2.3339267 0.45952564
0.3817195 2.3045013 0.44010654
0.29296598 2.2919958 0.41150507
0.20918365 2.3069611 0.38983977
0.12508257 2.3245156 0.36936614
0.38237283 2.3071966 0.35193685
0.29370645 2.2885778 0.32411227
0.21037742 2.3066964 0.30296883
0.12764339 2.3333931 0.28337315
0.38544771 2.3232362 0.2662777
0.29961732 2.3343129 0.24324824
0.21344303 2.3299685 0.21952116
0.12866272 2.3311388 0.19719817
0.38632962 2.3262887 0.17987655
0.29606208 2.3008895 0.15453221
0.21350534 2.3243966 0.13356623
0.13013773 2.3437386 0.11160149
0.39034277 2.3458936 0.093894936
0.29860815 2.3117509 0.06975124
0.21544731 2.3325763 0.048168641
0.13193002 2.3581722 0.025764914
0.38768765 2.327929 0.006713924
0.30163798 2.3284893 -0.016023185
0.21483125 2.3157556 -0.03742823
0.13174687 2.3395231 -0.06009097
0.38456771 2.3017569 -0.079046562
0.29809657 2.2945502 -0.10017446
0.21671507 2.3206487 -0.1232098
0.13227424 2.3387082 -0.14614287
0.38568673 2.2990723 -0.16456704
0.29978213 2.2981055 -0.18565352
0.21670052 2.3165624 -0.20850988
0.13319574 2.3426719 -0.2330493
0.23281972 1.3854634 -0.15118103
0.17969105 1.3728266 -0.16215573
0.13231666 1.4105035 -0.17932203
0.13403717 2.3473501 -0.32110927
0.22282195 1.3193454 -0.19386193
0.17943375 1.3649366 -0.2126047
0.13603066 1.4441316 -0.23849438
0.13476278 2.3535619 -0.41113836
0.21639422 1.2753211 -0.2365474
0.18316057 1.3882235 -0.26974788
0.1329397 1.4021431 -0.2851153
0.072466105 1.2586544 -0.26843828
0.20760332 1.2164309 -0.27366585
0.16150095 1.2197908 -0.28495079
0.12197455 1.2850593 -0.31197587
0.059879363 1.046402 -0.26461026
0.2296084 1.3377634 -0.35507491
0.14852443 1.1153476 -0.3057715
0 0 -0
0.045251571 0.7912631 -0.2326608
0.39951551 2.3113396 0.72465336
0.30647382 2.2927363 0.68702483
0.21931773 2.3035367 0.6627726
0.13425568 2.3279309 0.64364201
0.40137854 2.3308427 0.63148403
0.30698019 2.2919552 0.59200853
0.22040956 2.2967348 0.56727904
0.13749827 2.335922 0.55116111
0.39862823 2.3151133 0.53350538
0.30704263 2.2948565 0.50151753
0.22213393 2.3053939 0.47858143
0.13848338 2.3243022 0.45778939
0.40018237 2.3272965 0.44492051
0.30846283 2.3008883 0.4134337
0.22304972 2.3026893 0.38934189
0.13934317 2.3237042 0.36936614
0.39736065 2.30968 0.35268092
0.3094604 2.2994912 0.32592061
0.22462319 2.3063488 0.30309853
0.14213933 2.3355386 0.28373429
0.40188798 2.3335578 0.26773831
0.31141371 2.3137 0.24129485
0.22637871 2.3147423 0.21821339
0.14333001 2.3362732 0.19770317
0.39703912 2.3032396 0.17827936
0.30897385 2.2901301 0.15393403
0.22708163 2.3160877 0.13316633
0.14396271 2.3339229 0.11117408
0.4048996 2.344439 0.093934387
0.31278718 2.309875 0.06975124
0.22857894 2.3192706 0.047921937
0.14540532 2.3413498 0.025590384
0.40230492 2.3274772 0.0067196139
0.31309414 2.3057861 -0.015879879
0.22903641 2.3143938 -0.03742823
0.14634874 2.3426616 -0.060193513
0.40158641 2.3160942 -0.07962206
0.31297877 2.2986174 -0.10043397
0.23065336 2.3162942 -0.12305143
0.14655933 2.3368564 -0.14608061
0.40594476 2.332041 -0.16710208
0.31549743 2.3080742 -0.18661174
0.23091061 2.3151891 -0.20850988
0.14769277 2.3437967 -0.23324698
0.22697061 1.3017322 -0.14219362
0.18716657 1.3648102 -0.16134146
0.1429432 1.4294083 -0.18183355
0.14793728 2.3385727 -0.32002673
0.22903436 1.3072304 -0.19228464
0.1886144 1.3696842 -0.21352045
0.14419918 1.4363971 -0.23735869
0.14907673 2.3507245 -0.41079471
0.22404484 1.2730005 -0.23636751
0.18481997 1.3374658 -0.26010051
0.1412451 1.3983755 -0.28452006
0.13312775 2.0888426 -0.44566169
0.21557373 1.2180182 -0.27431536
0.18450257 1.3307153 -0.31112206
0 0 -0
0.073719889 1.1630988 -0.29422897
0.23391388 1.3144224 -0.34925401
0 0 -0
0 0 -0
0 0 -0
0.41571218 2.3201301 0.72819543
0.3225286 2.3050532 0.69129568
0.23354484 2.3031042 0.66304797
0.14884408 2.3318732 0.64497238
0.41618216 2.3311894 0.63225794
0.32224804 2.2986629 0.59424067
0.23430051 2.293407 0.56680155
0.15195496 2.3369772 0.55161965
0.4155679 2.3279836 0.53704876
0.32206666 2.2997046 0.50299942
0.23527634 2.2942455 0.47655782
0.15267806 2.3224297 0.45759648
0.41600713 2.3335044 0.44658688
0.32271183 2.2999275 0.41360909
0.23626468 2.292449 0.38784826
0.15320754 2.3168926 0.36842588
0.41221967 2.3110921 0.35327616
0.32466877 2.3053939 0.32703343
0.23734008 2.2911193 0.30128279
0.15660003 2.3366036 0.28397506
0.41584954 2.3290913 0.2675136
0.32574317 2.3127306 0.24139765
0.24274015 2.3341057 0.22017506
0.15752816 2.3333611 0.19753483
0.41800508 2.3390408 0.18124561
0.32371736 2.2931311 0.15426634
0.24149564 2.3166368 0.13328059
0.15801024 2.3290095 0.11098412
0.4196294 2.3438776 0.094013296
0.32751524 2.3118713 0.069870889
0.24301375 2.3198133 0.047963053
0.15970074 2.3394158 0.025579475
0.41657847 2.324965 0.0067196139
0.32892379 2.3157022 -0.015961768
0.24312836 2.3119502 -0.037412137
0.15996735 2.330749 -0.059911516
0.41967934 2.3352273 -0.080366828
0.32904899 2.3105009 -0.10103951
0.24507163 2.3168216 -0.12315702
0.16048375 2.3299389 -0.145707
0.42166299 2.3373597 -0.16766542
0.32810193 2.2952406 -0.18573339
0.24825983 2.3434427 -0.21118766
0.16152185 2.3349044 -0.2324563
0.22399265 1.2396531 -0.13556005
0.19088507 1.3311919 -0.15750277
0.17518033 1.6494883 -0.20996249
0.16194063 2.332679 -0.31935015
0.23793493 1.3106692 -0.19300158
0.18828388 1.3078526 -0.20405778
0.15259169 1.4315605 -0.23670974
0.16336094 2.3478 -0.41045111
0.22708754 1.2454731 -0.23151065
0.19540949 1.3528281 -0.2633163
0.15274811 1.4247695 -0.29007554
0.15583074 2.2294621 -0.47585839
0.23871088 1.3021373 -0.29358456
0.19378191 1.3372713 -0.31292695
0.1234222 1.1500936 -0.27955669
0.073590286 1.0581626 -0.26779243
0.22075799 1.1978403 -0.31863102
0 0 -0
0 0 -0
0 0 -0
0.43063754 2.3212936 0.7293762
0.33583412 2.2973397 0.68958735
0.24798056 2.3044951 0.66387397
0.163284 2.3328393 0.64550453
0.43012697 2.3266916 0.631742
0.33550403 2.2908912 0.59275258
0.24878666 2.2957878 0.56775653
0.16656798 2.3398843 0.55253673
0.43019882 2.3273077 0.53749168
0.3363128 2.2986522 0.50321114
0.24881975 2.2878909 0.47554606
0.16713645 2.3243852 0.45817518
0.43174464 2.338639 0.44806808
0.33553281 2.2891371 0.41203108
0.25107622 2.2978182 0.38900995
0.16727842 2.3139389 0.36811247
0.43088275 2.33283 0.35699642
0.33823183 2.2994394 0.32647702
0.25215119 2.2965193 0.30219066
0.17086174 2.3346086 0.28385466
0.43175864 2.33529 0.26852477
0.33920383 2.305768 0.2408836
0.25803894 2.3414791 0.22101578
0.17176923 2.331357 0.19745067
0.43833652 2.3687871 0.18375552
0.34025571 2.3078825 0.15539625
0.25504807 2.3091574 0.13293782
0.17274016 2.3339729 0.11126906
0.43382114 2.3402762 0.093973845
0.34403482 2.3256385 0.070349455
0.25746378 2.3202658 0.048004169
0.1740521 2.338392 0.025579475
0.4306539 2.3213818 0.0067167687
0.34518024 2.3274884 -0.016057307
0.25808433 2.3173711 -0.037524775
0.1741164 2.3277297 -0.059860244
0.43546265 2.3404689 -0.080637656
0.34468901 2.3183205 -0.10147205
0.25894937 2.3122969 -0.12299865
0.17432882 2.3229387 -0.14533339
0.43727863 2.3415923 -0.16815835
0.34365019 2.3030431 -0.1865319
0.26008117 2.3191099 -0.2091347
0.17464931 2.3179929 -0.23087499
0.29849592 1.595952 -0.17471947
0.20081361 1.3417828 -0.15889865
0.17986771 1.6000745 -0.20380928
0.17610125 2.3296654 -0.31907949
0.23665264 1.2595794 -0.18568875
0.18778932 1.2499884 -0.19520561
0.15871818 1.4070644 -0.23281595
0.17568022 2.3192484 -0.40564045
0.23016581 1.2198905 -0.22701356
0.19609687 1.3011127 -0.25347975
0.15960971 1.4072497 -0.28670257
0.15748994 2.0704722 -0.44212139
0.22868516 1.2056892 -0.27215028
0.19863421 1.3139019 -0.30773783
0.15437917 1.3598614 -0.3307696
0.078032047 1.0306203 -0.26093853
0.23571315 1.236377 -0.3292605
0 0 -0
0 0 -0
0.056984589 0.7529819 -0.22167562
0.44613287 2.3251758 0.73144239
0.35107979 2.3028169 0.69186503
0.26168117 2.2991095 0.6627726
0.17737535 2.3289099 0.64470631
0.4496575 2.3515286 0.6392228
0.35043189 2.2945354 0.59424067
0.26308975 2.2961478 0.56823409
0.18032154 2.3310547 0.55070263
0.44428769 2.3236663 0.53727025
0.35129526 2.3023422 0.50448132
0.26385999 2.2950773 0.47736731
0.18170099 2.327229 0.45894688
0.44663915 2.3388417 0.44862354
0.35180369 2.3016331 0.41466102
0.26483127 2.2932954 0.38851207
0.1818596 2.3177919 0.36889601
0.44834334 2.3466542 0.35952622
0.35338542 2.3041725 0.32745075
0.26566628 2.2900043 0.30154216
0.18486927 2.3295579 0.28337315
0.445333 2.3286929 0.26807538
0.35500425 2.3144584 0.24201451
0.27136496 2.3309512 0.22017506
0.18622954 2.3322456 0.19761898
0.45661172 2.3856392 0.18527667
0.35516816 2.3106825 0.15572859
0.26979044 2.3125069 0.13322346
0.18649904 2.3258994 0.11093663
0.44779634 2.3356075 0.093894936
0.35723183 2.3165689 0.070140079
0.27064863 2.3097055 0.047819145
0.18855762 2.3392735 0.025601292
0.44620857 2.3255701 0.0067366827
0.3605243 2.3322444 -0.016105076
0.27323273 2.3236883 -0.037653506
0.18855718 2.3286104 -0.059911516
0.45245904 2.3514929 -0.081111595
0.35737762 2.306289 -0.10103951
0.27289802 2.308681 -0.12289307
0.18906361 2.3277941 -0.145707
0.45296207 2.3457212 -0.16865128
0.3556307 2.2871013 -0.18541397
0.2723158 2.3006556 -0.20761728
0.12305588 1.5095409 -0.15042454
0.27751121 1.4349741 -0.15727961
0.20674737 1.3258052 -0.1571538
0.15684135 1.3221062 -0.16852252
0.15809521 1.9335383 -0.26495236
0.25022677 1.2882204 -0.19013381
0.2037078 1.3015381 -0.2034473
0.16734877 1.4060642 -0.23281595
0.13247682 1.6170924 -0.28296903
0.23858812 1.2232827 -0.22791298
0.21169147 1.3483882 -0.26293796
0.16498138 1.3789948 -0.28114709
0.12449687 1.5138398 -0.3234171
0.23025666 1.1745639 -0.26543856
0.20260099 1.2866746 -0.30164623
0.12227131 1.0210966 -0.24854705
0.082217783 1.0040308 -0.25432935
0.23394467 1.1874474 -0.31660634
0 0 -0
0 0 -0
0.060664404 0.74114233 -0.21829554
0.4641073 2.3411386 0.73734587
0.36625502 2.3072467 0.69385809
0.2757833 2.2974606 0.6627726
0.19182013 2.3296993 0.64523846
0.46520144 2.3544123 0.64077061
0.3655692 2.2990391 0.59597677
0.27659139 2.2896698 0.56704026
0.19340585 2.3153543 0.54726356
0.45967114 2.3266368 0.53859901
0.36372879 2.289526 0.50215262
0.27829081 2.2963319 0.47797439
0.19540054 2.319226 0.45759648
0.46307436 2.3466623 0.4506602
0.36499131 2.2935977 0.41360909
0.27794459 2.2837961 0.38718441
0.19549482 2.3097436 0.36779904
0.45794547 2.3196054 0.35580593
0.36658013 2.2960935 0.32661611
0.2816374 2.3040786 0.3036173
0.19958273 2.3333254 0.28397506
0.46153951 2.3356647 0.26919889
0.37045357 2.3200946 0.242837
0.28238997 2.3025603 0.2176529
0.20010941 2.3260951 0.19719817
0.46621147 2.3573606 0.18329917
0.37075824 2.317327 0.15632677
0.2837311 2.3088264 0.13310921
0.20033725 2.3197353 0.11069918
0.46619642 2.3533995 0.094723418
0.37571603 2.3409803 0.070947669
0.2850605 2.3099859 0.047860261
0.20333984 2.3430533 0.02565583
0.46435869 2.3424067 0.0067935805
0.37339845 2.3211026 -0.016043657
0.28674832 2.3160141 -0.037556957
0.20258133 2.3244219 -0.059834607
0.468243 2.3555341 -0.081348568
0.37390763 2.3188477 -0.10168831
0.28742859 2.309936 -0.12305143
0.20282172 2.3206246 -0.14533339
0.46910277 2.3517017 -0.16928504
0.37618452 2.3252208 -0.18868788
0.28531894 2.290046 -0.20681395
0.13153352 1.4998358 -0.14953505
0.2775462 1.3893696 -0.15246493
0.21678707 1.3362763 -0.15854968
0.18105243 1.4500808 -0.18497294
0.12725015 1.4469315 -0.19837599
0.25033981 1.2478474 -0.18439823
0.21248408 1.3051409 -0.20421042
0.17474678 1.3952198 -0.23119354
0.13037892 1.4798442 -0.25908759
0.24278763 1.2054021 -0.22485493
0.20714314 1.2685658 -0.24761568
0.17221564 1.368232 -0.279163
0.13016517 1.4721279 -0.31467047
0.24036461 1.1874821 -0.26868615
0.2049818 1.2517579 -0.29374975
0.15416831 1.2238139 -0.29811549
0.10317721 1.1715635 -0.29692158
0.25086766 1.2333914 -0.3292605
0 0 -0
0 0 -0
0 0 -0
0.48018739 2.3466713 0.74000245
0.38227829 2.3163059 0.69727468
0.29059765 2.3014479 0.66442472
0.20534633 2.3198366 0.64284378
0.48157001 2.3609803 0.64335018
0.38235492 2.3130009 0.60019302
0.29075772 2.288893 0.56727904
0.20908752 2.330605 0.55116111
0.47997957 2.3533928 0.54546434
0.3806369 2.3046079 0.50596321
0.29311827 2.3004096 0.4791885
0.20962736 2.3179834 0.45759648
0.48099548 2.3611095 0.45399296
0.37970042 2.2952003 0.4143104
0.29320389 2.2918293 0.38884401
0.20984213 2.3104677 0.36811247
0.47809401 2.3458202 0.36027023
0.38163453 2.2996626 0.32745075
0.29349548 2.2846048 0.30128279
0.21335195 2.3261251 0.28325278
0.48221764 2.3639448 0.27279422
0.3867996 2.3305345 0.24417351
0.29689467 2.3037467 0.21793315
0.21300583 2.3099399 0.19593568
0.48086661 2.3554325 0.18337521
0.3857885 2.3199298 0.15665911
0.29942665 2.3189237 0.13379474
0.21456711 2.3184624 0.11069918
0.48122838 2.3534317 0.094841778
0.38744175 2.3228559 0.070469104
0.29922894 2.3081932 0.047860261
0.2175276 2.3397703 0.025634017
0.47852224 2.3385336 0.0067907358
0.38763344 2.3187678 -0.016043657
0.3023721 2.3251178 -0.037733961
0.21683989 2.3231351 -0.059834607
0.48630309 2.370239 -0.081957914
0.38763347 2.3135536 -0.10155855
0.30198485 2.3110995 -0.1232098
0.21705699 2.3193364 -0.14533339
0.48533395 2.3575726 -0.16991881
0.3902795 2.3218858 -0.18860804
0.29897743 2.2852895 -0.20654617
0.1420361 1.5128709 -0.15091871
0.41133276 1.9952807 -0.21922852
0.2210207 1.3114156 -0.15575792
0.17421439 1.3289351 -0.16965272
0.13724023 1.4579607 -0.19999979
0.25137141 1.214307 -0.1796664
0.21768686 1.2872469 -0.20161583
0.1703123 1.29531 -0.2148072
0.13335308 1.4142849 -0.24774821
0.24797772 1.1932956 -0.22287622
0.21459465 1.2653347 -0.24723735
0.17547317 1.3282826 -0.27122658
0.13523431 1.4294313 -0.30571559
0.24285704 1.1630487 -0.26348996
0.20906529 1.2293471 -0.28878623
0.18473455 1.3972616 -0.34063628
0.10872614 1.153533 -0.29251549
0.25425944 1.2119453 -0.32394576
0 0 -0
0 0 -0
0 0 -0
0.49576089 2.3492897 0.74177349
0.39583611 2.3101373 0.69613588
0.30547127 2.3053396 0.66607684
0.21748638 2.2964606 0.636724
0.50042331 2.3787811 0.64902526
0.39916179 2.3258882 0.6041612
0.30492491 2.2880285 0.56751782
0.22217593 2.3166823 0.54818064
0.49661881 2.3609006 0.5479005
0.39592677 2.3089719 0.5074451
0.30735755 2.2995386 0.47939089
0.22337443 2.31177 0.45663187
0.50092977 2.3840799 0.45899206
0.39644265 2.3083522 0.41711572
0.30844098 2.2987833 0.39033762
0.22449176 2.3140519 0.36889601
0.49797106 2.3689711 0.36428815
0.39556971 2.2963016 0.32731166
0.30949366 2.2975008 0.30322823
0.22713707 2.3198323 0.28265086
0.49794087 2.3667755 0.27346832
0.40126112 2.3290975 0.24427633
0.31222442 2.3107615 0.21877384
0.22698018 2.3066063 0.19576737
0.49839181 2.3670733 0.18451609
0.40324065 2.336201 0.15792195
0.31271219 2.3101172 0.13339485
0.22937779 2.3230665 0.11098412
0.49895862 2.3660781 0.095473006
0.4028807 2.3273292 0.070678473
0.31432843 2.3132484 0.048004169
0.23158406 2.3354063 0.025601292
0.50277317 2.382519 0.0069272905
0.40510148 2.3350656 -0.016173318
0.31609297 2.3192558 -0.037669595
0.23109031 2.3217609 -0.059834607
0.5029062 2.3769886 -0.082296453
0.40284869 2.3170373 -0.10181807
0.31656617 2.3121712 -0.12336817
0.23108588 2.3159745 -0.14520885
0.5028975 2.3691869 -0.17097509
0.4040052 2.3165014 -0.18836847
0.31380564 2.2893326 -0.20708174
0.14883888 1.4872171 -0.14844787
0.49364567 2.322408 -0.25549912
0.22376005 1.2797053 -0.15215187
0.18749475 1.3651897 -0.17442459
0.14311743 1.4265296 -0.19580494
0.25654542 1.2020953 -0.17808913
0.21567675 1.2294286 -0.19276364
0.17839159 1.295218 -0.21496943
0.14527877 1.4457865 -0.25341791
0.24767114 1.1561625 -0.21622051
0.2206533 1.2543232 -0.24534571
0.18241113 1.3184429 -0.26944089
0.14115785 1.4003534 -0.29967624
0.24752384 1.1500837 -0.26089188
0.21643525 1.2270818 -0.28856063
0.16304235 1.1775397 -0.28730911
0.11725561 1.167315 -0.29618722
0.25433093 1.176321 -0.31483477
0 0 -0
0 0 -0
0.081390217 0.81054866 -0.23913924
0.51138461 2.3518054 0.74354452
0.41184798 2.318047 0.69926775
0.32000721 2.3062785 0.6669029
0.23273435 2.306592 0.63991696
0.51521456 2.37661 0.64928323
0.41342565 2.3233953 0.6041612
0.32097104 2.3005409 0.5710991
0.23609005 2.3123705 0.5474928
0.51502079 2.3759165 0.55210829
0.41042909 2.3084235 0.50786853
0.32200426 2.3014889 0.48020032
0.23745462 2.3093798 0.45643899
0.51638061 2.3848031 0.45973265
0.41318783 2.320415 0.41974568
0.32295167 2.299777 0.39083549
0.23807791 2.3067362 0.36795574
0.50893843 2.3494413 0.36175838
0.41348225 2.3152778 0.33037192
0.3264915 2.3161776 0.30595183
0.24126422 2.3174076 0.28253049
0.5141381 2.3714447 0.27436715
0.41834292 2.3422589 0.2459213
0.32765141 2.3176746 0.21961458
0.24268396 2.3200357 0.19702983
0.51290649 2.3639708 0.18451609
0.4186222 2.3395758 0.15832075
0.32660097 2.3061783 0.13328059
0.24362755 2.3216152 0.11098412
0.51877165 2.387383 0.096459299
0.41980135 2.3395708 0.071127124
0.32725012 2.3023679 0.047819145
0.24580471 2.332947 0.025590384
0.52035719 2.3930695 0.0069671185
0.4172979 2.3207257 -0.016091427
0.33116433 2.3232119 -0.037766144
0.24459623 2.3133404 -0.059655156
0.5204618 2.3875289 -0.082770392
0.41741255 2.3164885 -0.10190458
0.33088896 2.3111737 -0.12342095
0.24602841 2.3214607 -0.14564474
0.51870364 2.3719034 -0.17139758
0.41856593 2.3159406 -0.18852817
0.32827076 2.2903218 -0.20734951
0.15901314 1.4961711 -0.14943621
0.50469619 2.3047667 -0.25389424
0.21992134 1.2138064 -0.14447448
0.1859969 1.2952727 -0.16563429
0.15228757 1.4295657 -0.19634621
0.25414181 1.1560355 -0.17149325
0.22445349 1.2348887 -0.19383201
0.1930858 1.3409796 -0.222757
0.15299764 1.4340926 -0.25152802
0.25391278 1.1507788 -0.21550098
0.22552861 1.2374891 -0.24231908
0.19147944 1.3240891 -0.27082977
0.14787446 1.3819556 -0.2959277
0.25668862 1.1580747 -0.26305696
0.22220935 1.2161472 -0.28630447
0.19003358 1.3131201 -0.32066795
0 0 -0
0.26280537 1.1804042 -0.31635326
0.21230365 1.1570218 -0.31967023
0 0 -0
0.080055341 0.75087959 -0.22167562
0.52684909 2.3532853 0.74502045
0.42849219 2.3286753 0.70325375
0.33594579 2.3166397 0.67048252
0.24688296 2.3051207 0.63991696
0.53820682 2.4111218 0.65960163
0.42714727 2.3179564 0.60341716
0.33480066 2.2966063 0.57062161
0.2495404 2.3041043 0.54588795
0.53277594 2.3869879 0.55543023
0.42653242 2.3164346 0.51019722
0.33569494 2.2965627 0.47959325
0.25151387 2.3069038 0.45624602
0.53357005 2.3930998 0.4619545
0.42795348 2.3207407 0.42027169
0.3371999 2.2987282 0.39100149
0.25254956 2.3081772 0.36842588
0.52894193 2.3713679 0.36562741
0.42912138 2.3204875 0.33148476
0.33723095 2.2905869 0.30283913
0.25471705 2.3089764 0.28168786
0.5312773 2.3798828 0.27571541
0.43343046 2.3435602 0.24633253
0.34186623 2.3156204 0.21961458
0.25515893 2.3026567 0.1956832
0.53131503 2.3782949 0.18588512
0.43642321 2.3556037 0.15958358
0.34132946 2.3080812 0.13350911
0.25731641 2.3151128 0.11074667
0.53690118 2.3997567 0.097090527
0.43725249 2.3536577 0.071635611
0.34430629 2.3200958 0.048230316
0.25978214 2.3284135 0.02555766
0.53983736 2.4113002 0.0070297061
0.4326278 2.3240201 -0.016132373
0.34541303 2.3211362 -0.037766144
0.2586748 2.3108027 -0.059629522
0.53597707 2.3881912 -0.082905799
0.43619835 2.3384366 -0.1029859
0.34535903 2.3110752 -0.12352654
0.26049054 2.3218908 -0.14576927
0.53960103 2.3968978 -0.17343971
0.433135 2.3152885 -0.18868788
0.34364393 2.2971299 -0.20815283
0.1826513 1.6237199 -0.16228455
0.50155604 2.2250025 -0.24544179
0.22644965 1.2075531 -0.14389285
0.20776249 1.3863332 -0.17743841
0.16871513 1.4965394 -0.20568314
0.25948298 1.1467323 -0.17034613
0.23586303 1.2538844 -0.1970371
0.19720489 1.3124473 -0.21821424
0.15737358 1.3939704 -0.24465565
0.2566123 1.1300138 -0.2119033
0.23220755 1.2312573 -0.24137327
0.21012868 1.392668 -0.2851153
0.15778157 1.3936564 -0.29863498
0.26031584 1.1412486 -0.25959283
0.22387587 1.1841286 -0.27908483
0.17820589 1.1802559 -0.28848371
0.12048038 1.0675151 -0.27121937
0.26637065 1.1627382 -0.31205085
0.24693637 1.300752 -0.35979289
0 0 -0
0.087673232 0.77707118 -0.22956242
0.5522157 2.3974924 0.76007432
0.44313115 2.3278859 0.70382321
0.34900367 2.3069305 0.66827965
0.26037106 2.2978153 0.63832045
0.55255848 2.4058907 0.65908563
0.44499007 2.3343244 0.60837746
0.3487401 2.2935486 0.57038283
0.26500234 2.3141346 0.54863918
0.55003142 2.3950791 0.55808783
0.44238368 2.3224146 0.51210254
0.35081315 2.3012364 0.48100975
0.26611337 2.3092165 0.45701772
0.54802412 2.388823 0.46176937
0.44550577 2.3354785 0.42342767
0.35159647 2.2985651 0.3913334
0.26727474 2.3114898 0.36920944
0.54724282 2.3844628 0.36815724
0.44465387 2.3246193 0.3324585
0.35383686 2.305136 0.30504394
0.26910967 2.3093419 0.28192857
0.549429 2.3920732 0.27751306
0.44929725 2.3486726 0.247155
0.35788563 2.3252878 0.22073554
0.27032536 2.3099549 0.19644068
0.54679143 2.3788774 0.18618937
0.44936648 2.345042 0.15905187
0.35639784 2.3118637 0.13385189
0.27174971 2.3154745 0.11084165
0.55475372 2.4100497 0.097642846
0.44791406 2.3312984 0.071037397
0.35777149 2.312999 0.048127521
0.27383018 2.3247895 0.025535842
0.55709159 2.4186616 0.0070609995
0.44895893 2.332123 -0.016207438
0.35949555 2.3179851 -0.037750054
0.27320063 2.31215 -0.059706423
0.55174482 2.3897266 -0.083075069
0.45262 2.3465071 -0.1034617
0.36045489 2.3148332 -0.12384328
0.27496719 2.3222313 -0.14589381
0.55969924 2.4168651 -0.17512976
0.45111933 2.3321605 -0.19028489
0.3555848 2.2812004 -0.2069032
0.21055812 1.7737581 -0.17740607
0.54641634 2.3565135 -0.26031381
0.24311823 1.2539185 -0.14959273
0.20524509 1.3144573 -0.16839695
0.16197766 1.3616701 -0.18727991
0.26247621 1.1277683 -0.16776513
0.24185441 1.2436826 -0.1956635
0.20510161 1.3102378 -0.21805201
0.16557431 1.3900439 -0.24414025
0.2646597 1.1332076 -0.21280272
0.23506059 1.2057143 -0.23664416
0.20193113 1.2848468 -0.26329017
0.16319819 1.3664404 -0.29301214
0.27154949 1.157689 -0.26370648
0.22833452 1.1683906 -0.2757006
0.2085495 1.3260527 -0.32442671
0.12622574 1.0600164 -0.26950592
0.27061647 1.1488401 -0.30876079
0.23447536 1.1950481 -0.33094653
0 0 -0
0.091532215 0.76889628 -0.22730905
0.56515479 2.3866212 0.7577129
0.46110713 2.3439345 0.7095176
0.36689293 2.3284864 0.67516345
0.27480853 2.299046 0.63911867
0.56753242 2.4033954 0.65934366
0.46099001 2.3401043 0.61060959
0.36462885 2.302875 0.57324785
0.27907994 2.3114986 0.54840994
0.56852657 2.4077933 0.56185269
0.45719171 2.3225331 0.51273763
0.36554074 2.3029094 0.48181918
0.28027746 2.3075402 0.45701772
0.57214689 2.4255867 0.46954572
0.46382609 2.3529851 0.42710966
0.36600378 2.2983124 0.39166531
0.28001919 2.2980416 0.36732888
0.57026625 2.4166701 0.37366322
0.45967713 2.3257329 0.33301491
0.37141618 2.3244624 0.30789727
0.28412116 2.3145447 0.28277126
0.57208937 2.4225044 0.28144541
0.4637 2.3458714 0.247155
0.37104419 2.3161664 0.22008166
0.28510335 2.3131976 0.19686152
0.57261443 2.4230258 0.18991619
0.46529725 2.3500707 0.15958358
0.37152544 2.3155479 0.13419466
0.28595206 2.3137636 0.11084165
0.58771002 2.4834173 0.10075953
0.46571332 2.3461537 0.071575783
0.37306926 2.3176699 0.048271429
0.28845885 2.3260427 0.025568567
0.57491732 2.4278479 0.0070979833
0.46579587 2.3420744 -0.016296152
0.37403023 2.3177097 -0.037782237
0.28836975 2.3183665 -0.059911516
0.57724535 2.4319994 -0.084666155
0.4718903 2.3681808 -0.10454302
0.37560982 2.3184922 -0.12416
0.28884065 2.3175292 -0.145707
0.57821435 2.4289114 -0.17625642
0.46503007 2.3273935 -0.19012518
0.37260458 2.2976558 -0.20859914
0.21736673 1.7398477 -0.17414457
0.56270957 2.3608537 -0.26116976
0.24320142 1.2144221 -0.1450561
0.21378379 1.316111 -0.16877368
0.16688369 1.3331231 -0.18349101
0.27123311 1.1338366 -0.16891223
0.24772951 1.2334547 -0.19428986
0.20124339 1.2359102 -0.20588394
0.17005718 1.3567448 -0.23847054
0.26977122 1.1239102 -0.21136364
0.24846235 1.2340909 -0.24250826
0.2044353 1.2506961 -0.25654426
0.17011607 1.353768 -0.29051313
0.27155581 1.126579 -0.25699472
0.23569205 1.1679226 -0.27592623
0.20601273 1.2595179 -0.30845204
0.12597661 1.0053469 -0.25579807
0.27697775 1.1443371 -0.30800152
0.22839136 1.1273816 -0.31258973
0 0 -0
0 0 -0
0.59108126 2.4295268 0.77247161
0.47777021 2.3523345 0.7129342
0.38086244 2.3242939 0.67461276
0.28999251 2.3059242 0.64151335
0.59092528 2.4355466 0.66914606
0.47804293 2.3505223 0.61408174
0.37938318 2.3044274 0.57420295
0.29448375 2.3193989 0.55070263
0.58972734 2.4307945 0.5680536
0.47980371 2.3608677 0.52184075
0.38046154 2.3054545 0.482831
0.29517666 2.3116167 0.45817518
0.58678782 2.4210753 0.46936059
0.479433 2.3558834 0.42816165
0.38122648 2.3028336 0.39282703
0.29536921 2.3060765 0.36889601
0.59090912 2.437151 0.37738344
0.47770032 2.3413043 0.33565789
0.38713396 2.3309431 0.30906454
0.2978096 2.3088195 0.28228971
0.60217291 2.4817157 0.28874841
0.48285818 2.3663731 0.24962245
0.38737467 2.3266137 0.22129603
0.29916352 2.3104165 0.19677733
0.60370469 2.4863243 0.19516417
0.48270521 2.3618352 0.16058056
0.38884631 2.3319352 0.13528009
0.30040088 2.3139467 0.11093663
0.60600591 2.4923866 0.1012724
0.48130405 2.3491273 0.071755253
0.38744816 2.3163233 0.048291992
0.30311319 2.3272035 0.025601292
0.59193105 2.4330194 0.0071235872
0.48397815 2.3577838 -0.016425813
0.38824439 2.315371 -0.037782237
0.30271903 2.3175447 -0.059937153
0.60210127 2.4691927 -0.086087979
0.48761979 2.3711121 -0.10480254
0.39065748 2.3210676 -0.12442395
0.30279627 2.3137338 -0.14558247
0.58552438 2.3943112 -0.17400306
0.4839319 2.3469505 -0.19196175
0.3883504 2.3051479 -0.20949173
0.27812371 2.1203156 -0.21239312
0.57505679 2.348665 -0.26020682
0.24441735 1.1827545 -0.14145005
0.21673806 1.2844486 -0.16488084
0.17802976 1.3546681 -0.18660332
0.27983814 1.1388786 -0.16991596
0.25048012 1.2086862 -0.19062692
0.21260782 1.2570297 -0.20961547
0.17683664 1.3439553 -0.23640884
0.28301963 1.1480212 -0.21622051
0.23985331 1.154668 -0.22718598
0.21210559 1.249418 -0.25654426
0.1832796 1.3895464 -0.29842675
0.27799407 1.1229962 -0.25656173
0.24146385 1.1597781 -0.27434692
0.21227203 1.2496054 -0.30633774
0.13720103 1.0430068 -0.26558939
0.28306064 1.1388606 -0.30698922
0.2435955 1.165632 -0.32360381
0.13074964 0.76847994 -0.22009808
0.10208682 0.77627707 -0.22984409
0.62357557 2.4963031 0.79490489
0.49435705 2.3596792 0.71606612
0.39479434 2.3200178 0.67406207
0.30489281 2.3098354 0.6431098
0.61847073 2.4825001 0.6830759
0.49444538 2.3570261 0.61656189
0.3954792 2.3135424 0.57706791
0.30960944 2.3243022 0.55230749
0.60722429 2.4375391 0.57048976
0.49528325 2.3626618 0.52289921
0.39608884 2.3117638 0.48465228
0.3097457 2.3126795 0.45875394
0.62061858 2.4937191 0.48417273
0.49650857 2.365423 0.43044096
0.39534923 2.300451 0.39282703
0.30846161 2.2963901 0.36764234
0.61731935 2.4795389 0.38452637
0.49593177 2.3567412 0.33830088
0.40058675 2.323638 0.30841604
0.31170458 2.3049812 0.28204897
0.62099248 2.4924369 0.2904337
0.50044155 2.3779664 0.25116459
0.40266043 2.3300793 0.22185649
0.31306633 2.3065627 0.19660902
0.62184364 2.4941831 0.19607686
0.49821699 2.3637106 0.16091289
0.4038285 2.3334405 0.13550861
0.31553602 2.3189881 0.11126906
0.62177151 2.4905601 0.1013513
0.50004822 2.366667 0.072383367
0.40216649 2.3168573 0.048353665
0.31698126 2.3223276 0.025568567
0.61848146 2.4759104 0.007260141
0.50299186 2.3762925 -0.016575946
0.40450072 2.3247662 -0.03797533
0.31815353 2.3245575 -0.060167879
0.62306589 2.4887199 -0.086900443
0.50278121 2.3710074 -0.1049323
0.40626618 2.3264966 -0.12484626
0.31766531 2.3167765 -0.14589381
0.33714443 1.3428792 -0.097740278
0.4991526 2.3478372 -0.19228117
0.40300167 2.305665 -0.2097595
0.29939222 2.1787052 -0.21842195
0.34029514 1.3538278 -0.15021808
0.25560233 1.1996893 -0.1436602
0.22102274 1.2625728 -0.16224374
0.17796069 1.2926944 -0.17821361
0.27859142 1.1045132 -0.16504073
0.2545881 1.1916629 -0.18818493
0.21639475 1.2333475 -0.20588394
0.18238956 1.3233268 -0.23297267
0.28812793 1.138634 -0.21478143
0.2625598 1.2261481 -0.24156244
0.22112761 1.2558153 -0.25813153
0.18751915 1.3573917 -0.29176262
0.28536022 1.1231618 -0.25699472
0.24755347 1.153512 -0.27321887
0.21774286 1.235835 -0.30328375
0.19084665 1.3850448 -0.35297686
0.28526098 1.1183537 -0.30192757
0.25175905 1.1688322 -0.32491502
0 0 -0
0.11287134 0.81936061 -0.24280098
0.63555956 2.4794726 0.79077244
0.5100404 2.3622236 0.71777445
0.41069311 2.3270187 0.67681557
0.32038003 2.3174698 0.64577061
0.62962312 2.4627454 0.67869055
0.51196915 2.3681512 0.62028211
0.41204035 2.3244588 0.58041054
0.32319304 2.3175383 0.55116111
0.63762695 2.4942336 0.58466339
0.51327956 2.3758185 0.52649814
0.41077998 2.3121824 0.48525929
0.32406643 2.3117073 0.45894688
0.64417613 2.5222371 0.49046794
0.5147599 2.3796523 0.43359694
0.41153291 2.3096323 0.39481857
0.32405853 2.3052125 0.36936614
0.64941198 2.5418127 0.39479429
0.50975358 2.3507504 0.33788356
0.41623241 2.3289452 0.30945361
0.32598087 2.304008 0.28216934
0.64267379 2.5136099 0.2933549
0.51565552 2.3777673 0.25147301
0.41852996 2.336385 0.22269721
0.32777351 2.3085444 0.19694567
0.64059597 2.5038443 0.19714166
0.51504064 2.3713348 0.16164401
0.41866744 2.3338666 0.13567998
0.33018136 2.3199751 0.11141153
0.64324093 2.5108972 0.10233759
0.52051401 2.3909013 0.073220864
0.41938445 2.3310742 0.04870316
0.33164874 2.3233087 0.025601292
0.64781487 2.5272837 0.0074223001
0.51671076 2.3692534 -0.016548648
0.41982225 2.3281446 -0.038071878
0.33170259 2.3176136 -0.060039695
0.65349323 2.5438979 -0.088965468
0.51923913 2.3766623 -0.10532159
0.42195618 2.3318212 -0.12526858
0.33102491 2.308856 -0.1455202
0.3426407 1.3301595 -0.096965685
0.52016056 2.3749156 -0.19475655
0.41518882 2.2923682 -0.20877767
0.32747278 2.2792661 -0.22870064
0.30291075 1.1745666 -0.13053139
0.25316426 1.1534728 -0.1383093
0.22416192 1.2358128 -0.15897878
0.18871208 1.3111922 -0.18091996
0.286603 1.1075735 -0.16575767
0.25658512 1.1659486 -0.18436934
0.21901681 1.204813 -0.20134118
0.1903654 1.3212078 -0.23280086
0.29164881 1.1235148 -0.21226306
0.25506228 1.1564322 -0.2281318
0.22636656 1.2409358 -0.25535378
0.1885754 1.3058778 -0.28093347
0.28781474 1.1043847 -0.25309759
0.25399584 1.1491176 -0.272542
0.21799134 1.1943146 -0.29341707
0.14667225 1.0182126 -0.2597146
0.28868964 1.103479 -0.2983844
0.25161186 1.1342919 -0.31573665
0.13515179 0.73936361 -0.21221802
0.11037431 0.7664184 -0.22730905
0.6478464 2.4644377 0.78723037
0.53388792 2.4011588 0.73058677
0.42911306 2.347151 0.683424
0.33569664 2.3230927 0.64789927
0 0 0
0.53343707 2.3961701 0.62846655
0.4278734 2.3304827 0.58255929
0.33712643 2.3135853 0.55070263
0.65366125 2.493104 0.5853278
0.53209245 2.3917046 0.53073215
0.42868105 2.3298445 0.4895089
0.33852905 2.3116169 0.45933267
0.66910267 2.5543611 0.4975037
0.53320444 2.3937464 0.43675295
0.42945454 2.3274286 0.39830372
0.33905786 2.3090436 0.3703064
0.66248941 2.5282142 0.3933062
0.52675748 2.3591762 0.33955282
0.43159732 2.3321974 0.3102318
0.34199816 2.3147314 0.28373429
0.65783286 2.5086582 0.29324254
0.53262007 2.3852372 0.25260392
0.43431044 2.3416045 0.22344454
0.34310129 2.3143752 0.19761898
0.65493494 2.4960086 0.19683744
0.53154099 2.3768938 0.1622422
0.43571451 2.3459775 0.13653691
0.34558469 2.3258097 0.11179145
0.6606667 2.5146346 0.10265321
0.53604895 2.3915639 0.073340505
0.4349612 2.3353372 0.048847072
0.34634021 2.3241971 0.025634017
0.66585219 2.5329325 0.0074507487
0.53802955 2.3962846 -0.016760198
0.43611777 2.3363364 -0.038248882
0.34621236 2.317512 -0.06009097
0.66679865 2.5311422 -0.088660799
0.53995055 2.4007235 -0.10653267
0.43956515 2.3468559 -0.12621878
0.34489015 2.3048072 -0.14539565
0.3505412 1.3270676 -0.096895263
0.53296906 2.3639002 -0.19411774
0.43622035 2.3269777 -0.2121695
0.34292752 2.287055 -0.22968897
0.31697521 1.1986388 -0.1334202
0.26176918 1.1586794 -0.13912357
0.23375407 1.2451397 -0.16036011
0.19233903 1.2806152 -0.17686044
0.29517016 1.1124902 -0.1667614
0.26941082 1.1894128 -0.18833756
0.22567554 1.1995676 -0.20069222
0.20110509 1.33755 -0.23589341
0.30511501 1.1464196 -0.21694006
0.25997946 1.1452695 -0.22624016
0.23561274 1.2481915 -0.25713947
0.18915252 1.2553711 -0.27031258
0.29382968 1.0997682 -0.25244805
0.25909704 1.1389878 -0.27051148
0.23090771 1.2225635 -0.30069965
0.15579963 1.0364696 -0.26461026
0.29821163 1.1119657 -0.30116832
0.25813746 1.130845 -0.31521213
0 0 -0
0.12491401 0.8311978 -0.24674439
0.66096711 2.4530358 0.78486896
0.54839724 2.396903 0.73030198
0.44386423 2.3463631 0.68397474
0.34994456 2.3209894 0.64789927
0 0 0
0.55007648 2.4013507 0.63069874
0.44307101 2.3325837 0.58375305
0.35219353 2.3172472 0.55207825
0.67122424 2.4975221 0.58732098
0.54741198 2.3912528 0.53136724
0.44370109 2.3310184 0.49031833
0.35285464 2.3104663 0.45952564
0.67482454 2.5131931 0.4902828
0.55228102 2.4096222 0.44025958
0.44372728 2.3247497 0.39830372
0.35426587 2.3137536 0.37140337
0.68106806 2.535562 0.39509192
0.54676622 2.380028 0.34303039
0.44422156 2.3207405 0.30906454
0.35634574 2.3135705 0.28385466
0.67734033 2.5199282 0.29504019
0.55370474 2.410038 0.2555854
0.44885764 2.3398733 0.22353794
0.35790426 2.3161654 0.19795564
0.66479927 2.4717226 0.19524023
0.5494712 2.3881731 0.16323918
0.44934767 2.3393383 0.1363084
0.35969621 2.3226583 0.11174396
0.67634356 2.5114982 0.10269266
0.55542976 2.4086833 0.073968627
0.45136234 2.3434234 0.049073212
0.36228257 2.3328972 0.025754005
0.68268228 2.533627 0.0074649728
0.55699873 2.4114504 -0.016889857
0.45499307 2.3571784 -0.038635071
0.36242479 2.3281853 -0.060424238
0.68544316 2.5385816 -0.089067027
0.55827421 2.4129388 -0.10722473
0.45566568 2.3529382 -0.12669387
0.36056325 2.3125091 -0.14601833
0.35633135 1.316226 -0.096261509
0.55309367 2.3848612 -0.196114
0.44954261 2.3193684 -0.21172322
0.36140841 2.3134201 -0.23255515
0.31131977 1.1486893 -0.12807053
0.26550162 1.1425399 -0.13737871
0.2347737 1.2095952 -0.15596497
0.20800479 1.3293344 -0.18376164
0.29653776 1.0906032 -0.16375023
0.25898942 1.1116991 -0.17628029
0.23585746 1.2126893 -0.20312583
0.20138116 1.2856812 -0.22695936
0.29764935 1.0913805 -0.20686655
0.2600812 1.1140096 -0.22037607
0.22956452 1.1764981 -0.24265553
0.19867167 1.2657818 -0.27281159
0.29618993 1.0819368 -0.24876744
0.26652473 1.1392739 -0.27096272
0.23430727 1.2001356 -0.29553133
0.18855739 1.2040851 -0.30769205
0.30374727 1.1054506 -0.29990289
0.27014342 1.1508476 -0.32124364
0 0 -0
0.12184895 0.7782777 -0.23125245
0.67702311 2.4526181 0.78604966
0.56660658 2.4084234 0.7348575
0.45972872 2.3511431 0.68617755
0.36432883 2.3197505 0.64816535
0.68228596 2.477752 0.68617135
0.5719077 2.4281046 0.6386351
0.45700097 2.3279152 0.58327556
0.36838332 2.3275404 0.55505866
0.69637334 2.5290833 0.59573656
0.56520915 2.4011676 0.53433102
0.46177602 2.3474698 0.49436551
0.3682574 2.31601 0.46106893
0.69127512 2.5127952 0.49102339
0.56637836 2.4033132 0.43973359
0.46179983 2.3413329 0.40162292
0.36876708 2.3134871 0.3717168
0.69844985 2.5380092 0.3961336
0.57592845 2.438309 0.35193306
0.46191591 2.3354797 0.31139904
0.3722634 2.3221231 0.28517884
0.70255083 2.5511708 0.29919729
0.57214081 2.4220841 0.25723037
0.46243212 2.3331687 0.22316429
0.37290031 2.3188448 0.19837648
0.69770008 2.5320024 0.2003361
0.57628787 2.4362192 0.16676185
0.46563652 2.3463297 0.13687968
0.37457669 2.324352 0.11193392
0.69572729 2.5217495 0.10328443
0.5720433 2.4130108 0.074207909
0.47061065 2.365124 0.049587179
0.37690917 2.3326046 0.025775822
0.70061028 2.5380659 0.0074905767
0.57640511 2.4274457 -0.017026341
0.46925238 2.3533616 -0.038618982
0.37590429 2.3209834 -0.060296055
0.7137959 2.5805643 -0.090691969
0.57838613 2.4318228 -0.10821955
0.47107384 2.3549941 -0.12695783
0.37570459 2.3161643 -0.14639194
0.35933602 1.2957512 -0.094923556
0.57303303 2.4037242 -0.19795059
0.46200588 2.3077767 -0.21091987
0.37671384 2.3180344 -0.23324698
0.31729826 1.1429254 -0.12764257
0.26766151 1.1206025 -0.1349359
0.23712118 1.1828408 -0.15269999
0.20756215 1.2752246 -0.17645448
0.29658598 1.0649287 -0.16016552
0.26396471 1.1024002 -0.1750593
0.23843585 1.1870337 -0.19906981
0.20799884 1.2766429 -0.22558489
0.30804533 1.1027974 -0.20938492
0.26622438 1.1095282 -0.21980858
0.24781457 1.2298334 -0.2539649
0.20580429 1.2606778 -0.27197859
0.29781547 1.0622385 -0.24465378
0.2705496 1.1253031 -0.26802972
0.24089836 1.1948639 -0.29459167
0.19937134 1.2239586 -0.31307724
0.30633172 1.0886655 -0.29585356
0.26905352 1.1153969 -0.31180301
0 0 -0
0 0 -0
0.69725692 2.4668062 0.79195315
0.58993328 2.4403088 0.74567682
0.47509775 2.3529899 0.68755436
0.38057593 2.329839 0.65162432
0.6940676 2.4614303 0.68281788
0.58269364 2.4076016 0.63417089
0.47436273 2.3402948 0.58709562
0.38344821 2.3300385 0.55620503
0.70208675 2.4900358 0.58754241
0.59210944 2.4480011 0.54555112
0.47851008 2.3561091 0.49679387
0.38438156 2.3253238 0.46338394
0.70668036 2.5085063 0.49102339
0.60289431 2.4897373 0.45621485
0.47871515 2.3510175 0.4037804
0.38392407 2.3170269 0.37265703
0.70328069 2.495604 0.39018118
0.59531617 2.4530137 0.35457602
0.4792127 2.3471742 0.31334448
0.38862562 2.332525 0.28674379
0.71657318 2.5410738 0.29852316
0.59496832 2.4513936 0.26072592
0.48412305 2.3663778 0.22662057
0.38827115 2.3233929 0.19896562
0.69887191 2.4768133 0.19630504
0.59735209 2.4578459 0.16848995
0.48262903 2.3561432 0.13762236
0.39015132 2.3298912 0.11231384
0.71308899 2.5241644 0.1035606
0.59298831 2.4347057 0.074985586
0.4875274 2.3739438 0.049833879
0.39138019 2.3312342 0.02578673
0.70964241 2.5106244 0.0074223001
0.5893929 2.4160914 -0.016971748
0.48509425 2.3572936 -0.03873162
0.39129966 2.3255341 -0.060475513
0.73778689 2.604984 -0.091707557
0.60301894 2.4680195 -0.10999294
0.48733181 2.3608611 -0.12743293
0.39140189 2.3226731 -0.14695236
0.37354648 1.3155925 -0.096543178
0.55789661 2.2781701 -0.18788937
0.479583 2.3214803 -0.21243729
0.39142689 2.3186228 -0.23354349
0.33653796 1.1839938 -0.13245726
0.27618903 1.1256912 -0.13575017
0.25040346 1.2105091 -0.15646726
0.21653908 1.2807657 -0.17740172
0.30609968 1.0735577 -0.16174278
0.27284819 1.1093968 -0.17643291
0.24271099 1.171055 -0.19663619
0.21303383 1.2588301 -0.22266413
0.3066926 1.0725132 -0.2039884
0.27937132 1.1336161 -0.224916
0.24538115 1.1803095 -0.24404439
0.21696936 1.2796417 -0.2763519
0.30755946 1.0716519 -0.2472519
0.27441317 1.1113263 -0.26509675
0.242089 1.1638623 -0.28730911
0.21561213 1.2743359 -0.32629552
0.30738303 1.0672426 -0.29053882
0.28122926 1.1352688 -0.31783453
0 0 -0
0.12963003 0.76631707 -0.22815406
0 0 0
0.61274838 2.4682755 0.75535721
0.49266317 2.3650885 0.69195992
0.39760536 2.3436162 0.65614766
0 0 0
0.61451221 2.4726124 0.65227586
0.49308598 2.3582518 0.59234822
0.39708206 2.3238041 0.55528796
0 0 0
0.61795616 2.4879537 0.55528933
0.49637145 2.3694232 0.50023395
0.39963803 2.3287241 0.46454147
0 0 0
0.62077296 2.4965005 0.45814347
0.49515858 2.3576865 0.40543997
0.39964068 2.3233876 0.37406743
0.73721611 2.5558507 0.40030026
0.62400502 2.5040855 0.36250496
0.49544445 2.3529222 0.31451175
0.40293041 2.3300965 0.28674379
0.73876476 2.5595422 0.30121964
0.61264455 2.4583139 0.26185682
0.50171685 2.3779757 0.22802179
0.40405235 2.329803 0.19972311
0.71128964 2.462899 0.19554447
0.61121398 2.4492941 0.16815764
0.50120378 2.3726737 0.13876492
0.4068341 2.3412313 0.1129787
0.73716748 2.5494983 0.10478359
0.62416291 2.4959908 0.076989584
0.5002203 2.3621051 0.049648855
0.40756467 2.3396249 0.025906717
0.73420459 2.5379229 0.0075161811
0.62728643 2.504581 -0.017620044
0.50286984 2.3699222 -0.038989078
0.4060773 2.3260438 -0.060552422
0.73817533 2.5466528 -0.089811794
0.6254434 2.4933441 -0.11129053
0.50700545 2.3822446 -0.12875266
0.40770879 2.3320255 -0.14769958
0.38049841 1.3094442 -0.096261509
0.333446 1.3263468 -0.10955555
0.50087285 2.3516152 -0.2154721
0.40444466 2.3093162 -0.23285165
0.35157216 1.208638 -0.13545306
0.28139287 1.1172334 -0.1349359
0.24830782 1.1643176 -0.15069078
0.23260941 1.3262564 -0.18389697
0.30519676 1.046008 -0.15787128
0.27795681 1.1009942 -0.17536455
0.25257224 1.1820883 -0.19874531
0.21683615 1.2351825 -0.21871254
