# .PCD v0.7 - Point Cloud Data file format
VERSION 0.7
FIELDS x y z
SIZE 4 4 4
TYPE F F F
COUNT 1 1 1
WIDTH 1526
HEIGHT 1
VIEWPOINT 0 0 0 1 0 0 0
POINTS 1526
DATA ascii
-0.003518824 2.4019494 0.3811194
0.2498174 2.282516 0.34553799
0.16758496 2.3101895 0.3253642
0.084296465 2.3583922 0.30867544
-0.0013907651 2.4192777 0.29336464
0.25121444 2.2915821 0.26066005
0.1688059 2.3264577 0.24108921
0.085305676 2.3600872 0.22157627
-0.00020789095 2.41241 0.20376301
0.25277054 2.302438 0.17668214
0.17020808 2.3356166 0.15599445
0.086009726 2.3635669 0.13533722
0.00059108075 2.4082797 0.11449838
0.25403231 2.3072491 0.091646194
0.17062846 2.3257055 0.069781162
0.087035306 2.358896 0.048538692
0.0016108704 2.4248555 0.026452124
0.25542822 2.3169537 0.0066314223
0.17250955 2.3395941 -0.016009538
0.088175766 2.3640499 -0.038071878
0.0024958618 2.4212029 -0.062090583
0.2564953 2.315501 -0.078911155
0.173135 2.3363993 -0.10142879
0.089884803 2.3709841 -0.12542695
0.0030926764 2.4252827 -0.15131111
0.25588077 2.2960367 -0.16308826
0.17396435 2.3310297 -0.18725054
0.090174034 2.3687844 -0.21243729
0.0037806486 2.4051635 -0.23888049
0.16791691 1.5029178 -0.16273625
0.17405288 2.318584 -0.27231461
0.090702429 2.3663671 -0.29974908
0.0044142399 2.430434 -0.33193469
0.16150512 1.4348626 -0.20920454
0.17753376 2.3473897 -0.3635495
0.092111088 2.3792484 -0.39148772
0.0047685564 2.4165201 -0.42144686
0.15951988 1.4074998 -0.25903291
0.17555673 2.3067932 -0.4456704
0.078184545 1.9881052 -0.40277249
0 0 -0
0.15622248 1.36668 -0.30505946
0 0 -0
0.046263717 1.1732817 -0.28378528
0 0 -0
0.23385035 2.0288432 -0.53425741
0.076173082 0.98522258 -0.26853347
0 0 -0
0 0 -0
0.266137 2.2852631 0.7107802
0.17811981 2.2889543 0.68189996
0.092983782 2.3409481 0.67103314
0.0056752297 2.3799899 0.65694588
0.26622385 2.2985775 0.61781222
0.18106295 2.3189266 0.59548074
0.094247192 2.328686 0.57300913
0.0084889848 2.3769381 0.55987334
0.2682181 2.3161497 0.52951902
0.17968157 2.3053825 0.50088245
0.095707901 2.3425167 0.48444986
0.010318356 2.406899 0.47322264
0.26626518 2.3038599 0.43695897
0.18099451 2.3144066 0.4134337
0.096386537 2.3302107 0.3924951
0.011187034 2.3950121 0.38002244
0.26552221 2.295675 0.34777018
0.18129061 2.3031943 0.32452959
0.098267719 2.3459423 0.30711907
0.013392944 2.4083209 0.29204047
0.26515624 2.2890103 0.26054767
0.18260919 2.3194287 0.24047238
0.099028058 2.341614 0.21989481
0.014540128 2.403398 0.20300554
0.26850173 2.3147099 0.17774695
0.18485045 2.3385069 0.15626031
0.10072281 2.3679817 0.13562286
0.015259636 2.3912501 0.11369105
0.26703009 2.2957218 0.091251679
0.18402371 2.3136542 0.069452137
0.10176554 2.3643107 0.048662044
0.016516672 2.4287994 0.026495757
0.26952434 2.3143494 0.0066285776
0.18606527 2.3285236 -0.015941296
0.10220226 2.3524761 -0.037894875
0.017316213 2.4161437 -0.061962403
0.27278847 2.3317516 -0.079520509
0.18538907 2.3094006 -0.1003042
0.10390376 2.3584163 -0.12479347
0.017996063 2.4282122 -0.15149792
0.27066353 2.3003674 -0.16351075
0.18810345 2.3279312 -0.18709086
0.10435497 2.3602264 -0.21172322
0.018584402 2.4110653 -0.23947349
0.1701479 1.4426143 -0.15631668
0.14018171 1.7254823 -0.20275281
0.10486784 2.3578372 -0.2987445
0.019216714 2.4164903 -0.33004025
0.16983932 1.4299135 -0.20863098
0.17557666 2.1463022 -0.33256689
0.10657547 2.3756809 -0.39100099
0.019619921 2.4194007 -0.42196229
0.15939516 1.3332394 -0.24554159
0.17046311 2.0717778 -0.40046021
0.098974802 2.1765556 -0.44106561
0 0 -0
0.16565675 1.3744192 -0.30700803
0.17664102 2.1350079 -0.49612573
0 0 -0
0 0 -0
0.25212827 2.0753891 -0.54691148
0.17872532 2.1406481 -0.5837456
0 0 -0
0.0062867724 0.7819761 -0.22956242
0.28085214 2.2892771 0.71255118
0.19224145 2.2887735 0.68218464
0.10699344 2.3326509 0.66883039
0.020196334 2.370271 0.65428513
0.28114194 2.3036141 0.61961794
0.19447485 2.3081186 0.59300059
0.10835308 2.3241837 0.57205415
0.023139583 2.3836544 0.5614782
0.27923545 2.2883248 0.52353948
0.19349606 2.3003409 0.50003564
0.10957372 2.331125 0.48222393
0.024953667 2.3940353 0.47071472
0.28015873 2.3002317 0.43658864
0.19552317 2.3171768 0.41413507
0.11077624 2.3315456 0.39282703
0.025786282 2.3860102 0.37861204
0.28044072 2.3008738 0.34881184
0.19558685 2.3040118 0.32480776
0.11270788 2.3462858 0.3072488
0.028007308 2.3942962 0.29035518
0.27919635 2.2873402 0.26054767
0.19498608 2.2964594 0.23821054
0.11353859 2.3439457 0.22017506
0.029031841 2.3823395 0.20123807
0.28257853 2.3120294 0.1776709
0.19775541 2.3204274 0.1551304
0.11452238 2.3523614 0.13476594
0.029981796 2.3951068 0.11388101
0.28147596 2.2970154 0.091370039
0.1983873 2.3144734 0.069511965
0.11577955 2.3536561 0.048456457
0.031238105 2.4146545 0.026343044
0.28396335 2.3146372 0.006634267
0.20112121 2.3363047 -0.016002713
0.11633771 2.345813 -0.03779833
0.032034684 2.4079955 -0.061757315
0.28647959 2.325074 -0.079351246
0.19998607 2.3131964 -0.10052048
0.11812241 2.3527477 -0.12452953
0.032651588 2.4100926 -0.15037709
0.28636757 2.3115325 -0.16442619
0.20100178 2.3108442 -0.18581323
0.11843429 2.3515835 -0.21100913
0.033378072 2.4109061 -0.23947349
0.19039042 1.5333046 -0.16626702
0.14410606 1.6484032 -0.19379587
0.11883167 2.3472412 -0.29748875
0.033945952 2.4093921 -0.32909304
0.17934644 1.4347367 -0.20949131
0.1285426 1.4609702 -0.22649346
0.12034605 2.3592148 -0.38840514
0.034366485 2.4123394 -0.42075965
0.17199226 1.3673723 -0.25201741
0.12649862 1.4300202 -0.27655777
0.11813898 2.2884712 -0.46388277
0.020732861 1.4239264 -0.30321655
0.1781383 1.4053384 -0.31415281
0.12355826 1.389596 -0.32307959
0.050715879 0.98042363 -0.23727079
0 0 -0
0.25223395 1.9749593 -0.52084404
0 0 -0
0 0 -0
0 0 -0
0.29574868 2.2941437 0.71461743
0.2059371 2.2837319 0.68104577
0.12110454 2.3281102 0.66772896
0.034739662 2.3701024 0.65428513
0.29650065 2.3114285 0.62219751
0.20784822 2.2981985 0.59076852
0.12210023 2.3137779 0.56966656
0.037379459 2.3591363 0.5557465
0.29662064 2.3126838 0.52951902
0.20716757 2.2942433 0.49897712
0.12340733 2.3216074 0.48040268
0.03959398 2.3908939 0.47013599
0.29489142 2.3033433 0.43751442
0.20920463 2.3100502 0.41308308
0.12492171 2.3278677 0.39232916
0.04055994 2.393707 0.37986571
0.29518166 2.304014 0.34955591
0.2085527 2.289948 0.32299942
0.12672673 2.3386195 0.30634093
0.042467777 2.3811758 0.28879023
0.29411107 2.2924833 0.26133418
0.21096814 2.3160224 0.24036954
0.12748446 2.3352518 0.21942776
0.043576036 2.3781314 0.20090142
0.29701361 2.3122296 0.17782301
0.21271616 2.3271196 0.15566212
0.12813407 2.3366613 0.133909
0.044435129 2.3818948 0.11326364
0.29492676 2.2902899 0.091172777
0.21304226 2.3181891 0.069661513
0.13027437 2.3538995 0.048477016
0.045729369 2.3974214 0.026157603
0.29879963 2.3178103 0.0066484916
0.21444207 2.3240736 -0.015927646
0.13072915 2.3450551 -0.03779833
0.046537232 2.3937607 -0.061398413
0.29945755 2.3133609 -0.079012714
0.21482092 2.3188894 -0.10082325
0.13216302 2.3449993 -0.12416
0.047183659 2.3968747 -0.14956762
0.3006742 2.3107214 -0.16449662
0.21702646 2.3294177 -0.18741025
0.1325801 2.3458405 -0.21056284
0.047912039 2.397722 -0.23818865
0.18963812 1.4542204 -0.15781458
0.14440559 1.5426657 -0.18146552
0.13311934 2.344487 -0.29723758
0.048388444 2.3922982 -0.32679263
0.17539731 1.3364654 -0.19529581
0.13852377 1.4709772 -0.22817233
0.13453808 2.3535063 -0.38759395
0.048886605 2.3982942 -0.41835433
0.17574406 1.3311831 -0.24554159
0.13582583 1.4350827 -0.27769276
0.12827764 2.2201877 -0.45019248
0 0 -0
0.18405503 1.383896 -0.30960613
0.11529533 1.2123007 -0.2820178
0 0 -0
0 0 -0
0.26640251 1.9887165 -0.52489334
0.10534509 1.0989255 -0.30000225
0 0 -0
0 0 -0
0.31071556 2.298914 0.71668369
0.21948618 2.2776542 0.67962217
0.13516395 2.3234844 0.66662753
0.04922156 2.3669534 0.65348685
0.31106412 2.3124385 0.62297142
0.2218526 2.2959156 0.59052044
0.13618076 2.3110464 0.56918907
0.0519825 2.3647015 0.55712211
0.31015548 2.3059881 0.52841169
0.22067769 2.2870922 0.49770692
0.13747616 2.3178735 0.4797956
0.053929489 2.3758917 0.46724227
0.30980355 2.3073342 0.43862534
0.22318527 2.3067632 0.41273239
0.13926177 2.3280418 0.3924951
0.05499598 2.3825519 0.37814191
0.31247354 2.3256807 0.35312736
0.22192858 2.2817256 0.32202569
0.14071549 2.3318591 0.30556276
0.057006221 2.3778932 0.28842908
0.31002682 2.3044226 0.26290712
0.22430821 2.305774 0.23944426
0.1409657 2.3205123 0.21811996
0.057972211 2.3698502 0.20022811
0.31212729 2.317281 0.17835541
0.22679727 2.3237846 0.1555292
0.14246914 2.3358312 0.133909
0.058826495 2.3725903 0.11283623
0.30977637 2.2943785 0.09140949
0.22677451 2.3118646 0.069511965
0.14508341 2.3590434 0.048600368
0.060211975 2.3880992 0.026059432
0.31341764 2.3189061 0.0066570262
0.22791441 2.3147528 -0.015873054
0.14418902 2.3292394 -0.037556957
0.061173066 2.3914313 -0.061347138
0.31364644 2.3114798 -0.079012714
0.22688358 2.2956548 -0.099871673
0.1466115 2.3451409 -0.12421279
0.061477464 2.3805764 -0.14857133
0.31403816 2.3029027 -0.16407411
0.23042838 2.3191147 -0.1866916
0.1468468 2.3429947 -0.21038432
0.062337451 2.3864405 -0.2371015
0.19801903 1.4490891 -0.15738662
0.15140265 1.5170431 -0.17855743
0.14712845 2.3376851 -0.29648411
0.062961936 2.3879943 -0.32625133
0.19370422 1.4088972 -0.20604998
0.14715213 1.4661661 -0.22756183
0.14941292 2.35953 -0.38872963
0.063209541 2.3831773 -0.41577718
0.18633389 1.3476192 -0.24877951
0.14512138 1.4391072 -0.27863857
0.13827087 2.1626277 -0.43868473
0.0571764 2.1304584 -0.45378357
0.19415873 1.394344 -0.31220421
0.16072944 1.5866727 -0.36933053
0.067402527 1.0524795 -0.25488991
0.041436963 1.5643501 -0.39507949
0.22795767 1.6258507 -0.42948118
0 0 -0
0.071391672 1.1102121 -0.31411526
0 0 -0
0.32655472 2.3092625 0.72052097
0.2340443 2.2819862 0.6813305
0.14892431 2.3149364 0.66442472
0.063406579 2.35408 0.65002787
0.3241697 2.3028324 0.62090772
0.23633228 2.2983658 0.59151256
0.14991702 2.3033841 0.56751782
0.06629952 2.3575273 0.5555172
0.32552218 2.3127327 0.53040487
0.23550554 2.293473 0.49940053
0.15143986 2.3130774 0.47898617
0.068450101 2.3735542 0.46685642
0.32491249 2.312202 0.43992141
0.23713344 2.3033917 0.41238171
0.15347883 2.3261597 0.39232916
0.06903702 2.3624251 0.37500772
0.32453471 2.3080518 0.35074639
0.23561907 2.2773659 0.32160836
0.15482347 2.3279839 0.30517367
0.071476102 2.3735294 0.28794757
0.32416067 2.3024771 0.26290712
0.23742811 2.2944601 0.23841615
0.15546732 2.3235774 0.21849363
0.072146483 2.3574979 0.19921812
0.32522669 2.3074236 0.17774695
0.23816708 2.2945602 0.15366815
0.15693265 2.3369055 0.13402326
0.073228896 2.3671925 0.11259878
0.32636443 2.3102436 0.092119612
0.24002244 2.3014822 0.069242768
0.15915054 2.3521235 0.048477016
0.074393883 2.3726928 0.02589581
0.32890046 2.3258507 0.0066826306
0.24221726 2.3143051 -0.015879879
0.15929304 2.3402815 -0.037750054
0.07546512 2.3790209 -0.061039504
0.32894713 2.3174279 -0.079283535
0.24253057 2.3091235 -0.10052048
0.1608614 2.3422046 -0.12410721
0.075732477 2.3691812 -0.14788637
0.32900766 2.3068576 -0.16449662
0.24433994 2.3146832 -0.18645203
0.16094679 2.3380749 -0.21002729
0.076786675 2.3800457 -0.23650849
0.20465623 1.4320986 -0.15567473
0.16500074 1.5565803 -0.18332671
0.16146944 2.3367383 -0.29648411
0.077420071 2.3816216 -0.32543945
0.19924757 1.3861309 -0.20289543
0.15645976 1.4681838 -0.2280197
0.16381951 2.3575845 -0.38856739
0.077831253 2.3827446 -0.41577718
0.19164437 1.3260056 -0.24500196
0.15468043 1.4450241 -0.27996272
0.15112667 2.1558723 -0.43749425
0.068764605 2.0851004 -0.44420391
0.1975093 1.3573804 -0.30419344
0.11808428 1.0984329 -0.25584656
0 0 -0
0.031999551 0.98069102 -0.24772024
0.29218912 1.9948698 -0.52742416
0 0 -0
0.069069818 0.98015392 -0.27743226
0.025037916 0.76816028 -0.22561902
0.33834502 2.291147 0.71550292
0.24783459 2.2786012 0.68076104
0.16339609 2.3178148 0.66552609
0.07804095 2.3594272 0.65162432
0.33927733 2.3074911 0.62271339
0.24885529 2.2824268 0.58779234
0.16466863 2.3111384 0.56966656
0.080463797 2.3483207 0.5534538
0.33899751 2.3058677 0.52929753
0.24936199 2.2900414 0.49897712
0.16541986 2.3091743 0.47837907
0.082532428 2.3593612 0.46415561
0.34080637 2.3218322 0.4421432
0.2515828 2.3048294 0.41290772
0.16696844 2.3143549 0.39050362
0.083147317 2.3511 0.37328389
0.3372536 2.2962334 0.34925827
0.25077578 2.2867057 0.32313854
0.16888918 2.324023 0.30478457
0.085606828 2.3611412 0.28650302
0.33886054 2.3043771 0.26335651
0.25171909 2.2949376 0.23862179
0.17008439 2.3275447 0.21896069
0.086647049 2.3580065 0.19930227
0.34010473 2.3103168 0.17812723
0.25726041 2.3386788 0.15672557
0.17141467 2.3378897 0.13413751
0.087567292 2.3617077 0.11236133
0.34228376 2.32006 0.092593037
0.25479823 2.305927 0.06942223
0.17203403 2.3301642 0.048045289
0.0885389 2.3612001 0.025775822
0.34521067 2.3376386 0.0067224586
0.25652319 2.3137691 -0.015886702
0.17268749 2.3262973 -0.037540868
0.089682847 2.3685236 -0.06078314
0.34374654 2.3193207 -0.07941895
0.25746769 2.3145423 -0.10082325
0.17485721 2.3361945 -0.12384328
0.090116046 2.3646824 -0.14763731
0.34403744 2.310715 -0.16491911
0.25687712 2.298281 -0.18525428
0.17558789 2.3410163 -0.21038432
0.091427103 2.3805239 -0.23660731
0.20375778 1.3659129 -0.14861318
0.16912167 1.5071747 -0.17762683
0.17498529 2.3248215 -0.2951028
0.091725826 2.3731811 -0.32435688
0.19717798 1.3144147 -0.19257142
0.15826645 1.4033623 -0.21809916
0.17768677 2.3486633 -0.38726944
0.091991611 2.3704097 -0.41371551
0.19141626 1.2693613 -0.23474856
0.15591934 1.376724 -0.2669104
0.15905994 2.0855174 -0.42340711
0.087483816 2.236125 -0.47648317
0.18268712 1.2036372 -0.2699852
0.1399018 1.2303007 -0.28675571
0.087048925 1.1397696 -0.27626777
0.083733648 2.1595666 -0.54562098
0.35584289 2.3296757 -0.61650926
0 0 -0
0 0 -0
0.030716481 0.79292077 -0.23294248
0.35515907 2.3069699 0.72111124
0.26192066 2.2779901 0.68104577
0.17643908 2.3014321 0.66112047
0.091987774 2.3454192 0.64789927
0.35738248 2.331151 0.62967837
0.26474077 2.2972174 0.59200853
0.17787197 2.2974982 0.56656277
0.094439 2.3370848 0.55093187
0.35180983 2.295069 0.52730435
0.26430276 2.2962356 0.50067067
0.17943366 2.3061633 0.47797439
0.096967325 2.3578298 0.4639627
0.35564119 2.3235831 0.44288385
0.26549459 2.3012865 0.41255707
0.18139689 2.3162363 0.39100149
0.097407974 2.3465981 0.37265703
0.35343242 2.3078055 0.35134161
0.26525798 2.2890587 0.32369494
0.18314594 2.322943 0.30478457
0.099083565 2.3367674 0.28361392
0.35465008 2.3130584 0.26459241
0.26625389 2.2973022 0.23903301
0.18247508 2.3026369 0.21671878
0.10094307 2.3534484 0.19896562
0.35866103 2.3367677 0.18033291
0.26941693 2.3182251 0.15546273
0.18512358 2.3288321 0.13368049
0.10218622 2.3641198 0.1125038
0.35833576 2.3297675 0.093066461
0.2699852 2.3132558 0.069691427
0.18608922 2.3260751 0.047983613
0.10285089 2.3566165 0.025732189
0.35513508 2.3068142 0.006639957
0.27164569 2.3200972 -0.015941296
0.18751909 2.3321705 -0.037653506
0.1041702 2.36693 -0.060757507
0.35980219 2.32902 -0.079825185
0.27143151 2.3109345 -0.10073674
0.18918854 2.3350775 -0.12384328
0.10444727 2.3600969 -0.14738823
0.35866812 2.3115177 -0.16513038
0.27190867 2.3045809 -0.18589309
0.18753111 2.3101125 -0.20770654
0.10532334 2.3640122 -0.23502597
0.21182957 1.3626721 -0.1483992
0.16446614 1.3887368 -0.16378427
0.14157273 1.7383285 -0.22076201
0.10597528 2.3656449 -0.32340968
0.20386398 1.3043801 -0.19128092
0.16956021 1.4249361 -0.2216095
0.17929898 2.1911581 -0.36147314
0.1061805 2.3619275 -0.412341
0.21370256 1.3604813 -0.25183755
0.16576168 1.3874416 -0.26918039
0.12200467 1.4798598 -0.30059129
0.058032356 1.2819215 -0.27322811
0.19525136 1.23528 -0.27734646
0.16670574 1.3899884 -0.32420766
0.094440624 1.1440576 -0.2774424
0 0 -0
0.31679916 1.9920894 -0.52767724
0 0 -0
0.09268862 1.11926 -0.31710425
0.033989269 0.75725114 -0.22252062
0.36900535 2.3028605 0.72052097
0.2776233 2.2906148 0.68531656
0.19016026 2.295516 0.65974373
0.10642095 2.3457735 0.64816535
0.36954769 2.315557 0.62606686
0.27859765 2.2936265 0.59151256
0.1920467 2.2973311 0.56680155
0.10936578 2.3491013 0.55391234
0.36680749 2.298645 0.52863318
0.27956435 2.3042729 0.50278771
0.19300692 2.2981875 0.47655782
0.11073786 2.3424885 0.46106893
0.366799 2.3019478 0.43918082
0.27949119 2.2986364 0.41238171
0.19577166 2.3170447 0.3913334
0.11156952 2.3410237 0.3718735
0.36898741 2.3143823 0.35268092
0.28073871 2.2991838 0.3253642
0.19731182 2.3207877 0.3046549
0.11356426 2.3390903 0.28397506
0.37024564 2.3196702 0.26560357
0.27950081 2.2887137 0.23831335
0.19719353 2.308418 0.21737266
0.11455193 2.3358655 0.19753483
0.37629601 2.3552001 0.18193012
0.28254485 2.3076148 0.15486453
0.19957995 2.3296418 0.13379474
0.11580362 2.3454905 0.11164898
0.37120256 2.3186448 0.092711389
0.28453988 2.3145318 0.069781162
0.19898474 2.3089519 0.047654673
0.11735861 2.3569398 0.025743097
0.37054849 2.3124907 0.0066627157
0.28599879 2.3193793 -0.015948121
0.20199798 2.3329682 -0.037685689
0.11839096 2.3602557 -0.060603689
0.37408599 2.3267686 -0.079825185
0.28462499 2.3012936 -0.10039072
0.20281874 2.3259141 -0.12342095
0.11837391 2.3484468 -0.14670329
0.37332156 2.3122277 -0.16534163
0.2882559 2.3206751 -0.18733041
0.20265563 2.3198328 -0.20868839
0.11952434 2.3573587 -0.234433
0.21558303 1.332883 -0.14529641
0.18047851 1.4478221 -0.17088003
0.13560976 1.5476739 -0.19665147
0.12018612 2.3590131 -0.32259777
0.21202247 1.3040814 -0.1914243
0.17621273 1.4071982 -0.21901491
0.13365519 1.5186605 -0.25066248
0.12036934 2.3553283 -0.41131014
0.21110259 1.292158 -0.23942554
0.17047524 1.3561958 -0.2633163
0.1295252 1.4615101 -0.2970199
0.085384816 1.6605337 -0.35403031
0 0 -0
0.17401199 1.3792738 -0.32195154
0 0 -0
0 0 -0
0.33722213 2.0397415 -0.54083753
0 0 -0
0 0 -0
0 0 -0
0.38140196 2.2901857 0.71727401
0.29191539 2.2907701 0.68588603
0.20407121 2.2923908 0.65919304
0.12066355 2.3421881 0.64736706
0.38295817 2.3084803 0.62477714
0.2935248 2.2986004 0.59324867
0.20639974 2.2990112 0.56751782
0.12362384 2.34547 0.55322456
0.38617077 2.3280978 0.53594142
0.29270855 2.2947583 0.5010941
0.20772032 2.3037877 0.47797439
0.1254231 2.3476441 0.46222645
0.38284361 2.3112876 0.44140261
0.29296598 2.2919958 0.41150507
0.20945078 2.3099072 0.39033762
0.12593168 2.3402951 0.3718735
0.38382795 2.3159769 0.35327616
0.29433671 2.2934887 0.32480776
0.21136805 2.3175583 0.3043955
0.1281314 2.3423142 0.28445658
0.38268292 2.3065717 0.2643677
0.29518509 2.2997816 0.23964988
0.21289806 2.3240197 0.21896069
0.12882747 2.3341238 0.19745067
0.38992339 2.3479285 0.18154983
0.29669878 2.3058376 0.15486453
0.21323138 2.321414 0.13339485
0.12941782 2.3307731 0.11098412
0.38935873 2.3399796 0.093658231
0.30040085 2.3256295 0.070169993
0.21397606 2.3166475 0.047839701
0.13193002 2.3581722 0.025764914
0.38571635 2.316092 0.006679785
0.30061024 2.3205557 -0.015968593
0.21529303 2.3207333 -0.037508685
0.13253374 2.3534963 -0.060449872
0.39033213 2.3362586 -0.080231421
0.29745299 2.2895963 -0.099958181
0.21699362 2.3236315 -0.12336817
0.13289419 2.3496692 -0.14682782
0.38898742 2.3187475 -0.16597539
0.30313453 2.3238046 -0.18772966
0.21642223 2.3135874 -0.2082421
0.13421252 2.3605549 -0.23482832
0.22441646 1.3354572 -0.14572439
0.18910098 1.4447179 -0.1706474
0.1385248 1.4766827 -0.18773562
0.13454553 2.3562529 -0.32232714
0.21194452 1.2549394 -0.18439823
0.18523026 1.4090301 -0.21947278
0.13482766 1.4313604 -0.23638524
0.13448119 2.3486443 -0.41027927
0.21326759 1.2568944 -0.23312959
0.17249975 1.3074223 -0.25404724
0.13553004 1.429464 -0.29067078
0.082922809 1.4402754 -0.30717334
0.21762215 1.2751352 -0.2868728
0.17633398 1.3318223 -0.31112206
0 0 -0
0 0 -0
0 0 -0
0 0 -0
0 0 -0
0.042950645 0.75102937 -0.22083059
0.39577258 2.2896855 0.71786439
0.30621982 2.2908361 0.68645537
0.21776876 2.2872674 0.6580916
0.13469967 2.3356297 0.64577061
0.39744341 2.3079913 0.62529302
0.30878064 2.3053977 0.59548074
0.21966743 2.2890017 0.56536901
0.13749827 2.335922 0.55116111
0.40077943 2.3276067 0.5363844
0.30743146 2.2977626 0.50215262
0.22072507 2.2907722 0.47554606
0.13912532 2.3350763 0.45991144
0.39934966 2.322454 0.44399473
0.30689308 2.2891791 0.41132975
0.22266939 2.298763 0.38867801
0.14028908 2.3394783 0.3718735
0.39451039 2.2931125 0.35015115
0.30972454 2.3014538 0.32619882
0.22462319 2.3063488 0.30309853
0.14250116 2.3414841 0.28445658
0.39851505 2.3139727 0.26549125
0.30955613 2.2998986 0.23985551
0.22424671 2.2929425 0.21615829
0.14308593 2.3322945 0.19736649
0.40500021 2.3494222 0.18185405
0.31124178 2.3069403 0.15506394
0.22727647 2.3180749 0.13328059
0.14390123 2.332926 0.11112659
0.40472957 2.3434544 0.093894936
0.3147991 2.324733 0.070199907
0.22828476 2.3162858 0.047860261
0.14608711 2.3523281 0.025710372
0.40043133 2.316638 0.0066883196
0.31470871 2.3176768 -0.015961768
0.22982414 2.3223538 -0.037556957
0.14628643 2.3416638 -0.060167879
0.40807465 2.3535142 -0.080908477
0.31500059 2.3134663 -0.10108276
0.23095022 2.3192754 -0.1232098
0.14780878 2.3567784 -0.14732596
0.40012845 2.2986281 -0.16470787
0.31455243 2.3011611 -0.18605278
0.22863708 2.2923942 -0.20645691
0.14744245 2.3398242 -0.23285165
0.22697061 1.3017322 -0.14219362
0.19404869 1.4149942 -0.16727398
0.13553937 1.3553712 -0.17241538
0.14918835 2.3583496 -0.3227331
0.2140045 1.2214463 -0.1796664
0.18430014 1.3383548 -0.20863651
0.1482403 1.4766515 -0.24401058
0.14932613 2.3546572 -0.41148198
0.21517855 1.2226231 -0.22701356
0.18616411 1.3471928 -0.26199216
0.13897966 1.375947 -0.27995661
0.13704693 2.1503365 -0.45878163
0.21370213 1.2074434 -0.27193376
0.18490395 1.3336102 -0.3117989
0.098957472 0.97868842 -0.23774065
0 0 -0
0 0 -0
0 0 -0
0.10453898 1.0311922 -0.29264891
0 0 -0
0.41149947 2.2966187 0.72081614
0.32213008 2.3022051 0.69044149
0.23228401 2.2906706 0.65946841
0.14841425 2.3251393 0.6431098
0.41465396 2.3226295 0.62993628
0.32466891 2.3159316 0.59870493
0.23341225 2.2847126 0.56465274
0.15208128 2.3389199 0.55207825
0.41745293 2.3385434 0.53948486
0.32193109 2.2987366 0.50278771
0.23447712 2.2864521 0.47493896
0.15306425 2.3283041 0.45875394
0.41428238 2.3238299 0.44473538
0.32202783 2.2950525 0.41273239
0.23717456 2.3012774 0.38934189
0.1540547 2.329704 0.3704631
0.41187242 2.3091455 0.35297856
0.32342586 2.2965684 0.32578149
0.23846394 2.3019683 0.30270943
0.15660003 2.3366036 0.28397506
0.41689748 2.3349607 0.2681877
0.32532695 2.3097756 0.24108921
0.23789978 2.2875624 0.21578464
0.15665562 2.3204367 0.19644068
0.41905758 2.3449302 0.18170196
0.3260884 2.309927 0.15539625
0.24180618 2.3196158 0.13345198
0.15875398 2.3399718 0.11150651
0.42015767 2.3468285 0.094131649
0.32751524 2.3118713 0.069870889
0.2437429 2.3267736 0.048106965
0.16072227 2.3543801 0.025743097
0.41499117 2.3161061 0.00669401
0.32822064 2.3107519 -0.015927646
0.24375579 2.3179166 -0.037508685
0.1601727 2.3337409 -0.059988428
0.42445242 2.3617864 -0.081280857
0.32947156 2.3134682 -0.10116928
0.24559686 2.3217866 -0.12342095
0.16171823 2.3478613 -0.14682782
0.41794401 2.3167446 -0.16618665
0.32725558 2.2893198 -0.18525428
0.24500705 2.3127382 -0.2084206
0.16131584 2.3319263 -0.23215982
0.2351304 1.3012934 -0.14230061
0.19370463 1.350855 -0.15982924
0.15087302 1.420612 -0.18082894
0.16351886 2.3554127 -0.32246247
0.23422271 1.2902204 -0.18999042
0.19786003 1.3743703 -0.2144362
0.15311462 1.4364665 -0.23752095
0.16356608 2.3507483 -0.41096655
0.21861808 1.1990219 -0.22287622
0.19063655 1.3197849 -0.25688472
0.1488824 1.3887118 -0.28273436
0.15398942 2.2031183 -0.47023556
0.22304328 1.2166725 -0.27431536
0.19112736 1.3189524 -0.30864027
0.13016374 1.2129139 -0.2948266
0.11623767 1.6713936 -0.42298475
0.2135689 1.158832 -0.30825463
0 0 -0
0 0 -0
0.052695982 0.75810337 -0.22308397
0.42889479 2.3118994 0.72642446
0.33680472 2.3039794 0.69158036
0.24633493 2.2892022 0.65946841
0.16261093 2.3232231 0.64284378
0.43118078 2.3323922 0.63328975
0.33789045 2.3071861 0.59696883
0.24836819 2.2919261 0.56680155
0.16518568 2.3204663 0.54795134
0.43197137 2.3368969 0.53970629
0.33673728 2.3015532 0.50384623
0.24913739 2.2908118 0.47615314
0.16713645 2.3243852 0.45817518
0.42924696 2.3251097 0.44547597
0.3356756 2.2901111 0.41220638
0.25150469 2.3017392 0.3896738
0.16806175 2.3247745 0.36983627
0.42782938 2.316299 0.35446665
0.33751127 2.2945406 0.32578149
0.25269228 2.3014474 0.30283913
0.17122404 2.3395591 0.28445658
0.4337458 2.3460381 0.26976067
0.33978292 2.3097043 0.24129485
0.25345838 2.2999144 0.21709242
0.1708906 2.3194318 0.19644068
0.43597791 2.356041 0.18276677
0.34316635 2.327625 0.15672557
0.25702092 2.3270192 0.13396613
0.1720029 2.3240116 0.11079416
0.43473175 2.3451886 0.094171099
0.34227955 2.3137732 0.069990531
0.2583459 2.3282154 0.048168641
0.17420056 2.3403864 0.025601292
0.42864749 2.3105664 0.0066854749
0.34297976 2.3126509 -0.015954943
0.25719899 2.3094213 -0.037396047
0.1741164 2.3277297 -0.059860244
0.43783924 2.3532424 -0.081077747
0.34321976 2.3084385 -0.10103951
0.25883821 2.3113043 -0.12294585
0.17597203 2.3448346 -0.14670329
0.43599683 2.3347282 -0.16766542
0.3410022 2.2852969 -0.18509458
0.25908214 2.3102014 -0.20833135
0.17270544 2.2921934 -0.22830531
0.24347614 1.3017807 -0.14251459
0.1971384 1.3172261 -0.15599056
0.16800952 1.494586 -0.19037269
0.17632531 2.3326294 -0.31948546
0.23610441 1.2566615 -0.18525858
0.19630517 1.3066728 -0.20405778
0.15119705 1.3403883 -0.22178356
0.17471291 2.3064783 -0.40340695
0.22651818 1.2005578 -0.22341588
0.19887735 1.3195614 -0.25707388
0.15883651 1.4004326 -0.2853137
0.1636471 2.1514184 -0.45940641
0.23869126 1.2584441 -0.28405821
0.19907109 1.3167917 -0.30841467
0.15525632 1.3675877 -0.33264896
0.074738003 0.98711377 -0.24992327
0.22339301 1.1717546 -0.31205085
0.14829919 0.97599536 -0.26827121
0 0 -0
0 0 -0
0.44559276 2.3223608 0.73055685
0.35151324 2.30566 0.69271922
0.2607027 2.2905128 0.66029441
0.17627728 2.3144925 0.64071518
0.44693559 2.3372941 0.63535339
0.35247949 2.3079424 0.59771287
0.26209489 2.2874649 0.56608528
0.17949574 2.3203793 0.54818064
0.44831669 2.3447385 0.54214245
0.3501159 2.2946129 0.50278771
0.26318887 2.2892399 0.47615314
0.18078445 2.31549 0.45663187
0.44442713 2.3272583 0.44640172
0.35195246 2.3026066 0.41483641
0.26596254 2.3030918 0.39017168
0.18139607 2.3118842 0.36795574
0.44147715 2.3107162 0.35402024
0.35398588 2.3080878 0.32800716
0.26703748 2.3018236 0.30309853
0.18565461 2.3394539 0.28457695
0.44607958 2.3325968 0.26852477
0.35440102 2.3105257 0.24160327
0.26963797 2.3161168 0.21877384
0.18607093 2.3302591 0.19745067
0.45061353 2.3543007 0.18284281
0.35956419 2.3392825 0.15765609
0.26944336 2.3095322 0.13305207
0.18594016 2.3189294 0.1106042
0.45193565 2.3571973 0.094762877
0.35723183 2.3165689 0.070140079
0.27355757 2.3345304 0.048333105
0.18791491 2.3312998 0.025514029
0.44696233 2.3294988 0.0067480626
0.35746899 2.3124795 -0.015968593
0.27113095 2.3058136 -0.037363861
0.18799239 2.3216355 -0.059732065
0.4534032 2.3563998 -0.081280857
0.35890749 2.3161619 -0.10147205
0.27301523 2.3096726 -0.12294585
0.19011396 2.3407261 -0.14651649
0.45144901 2.3378856 -0.16808793
0.35823441 2.3038461 -0.18677145
0.27079383 2.2877972 -0.20645691
0.12766442 1.5660744 -0.15605804
0.29620075 1.5316154 -0.16787192
0.20445187 1.311085 -0.15540893
0.16093186 1.3565875 -0.17291768
0.13314556 1.6283987 -0.22313914
0.22512862 1.1590098 -0.17106307
0.21272412 1.3591456 -0.2124521
0.16909806 1.4207616 -0.23524956
0.1459095 1.7810599 -0.31166109
0.23049083 1.1817664 -0.22017796
0.2063611 1.3144358 -0.25631723
0.16696069 1.3955388 -0.28452006
0.12217207 1.4855711 -0.31737775
0.24152534 1.2320466 -0.278429
0.19760036 1.2549167 -0.29420096
0 0 -0
0.084670864 1.0339875 -0.26191765
0.2320746 1.1779555 -0.31407553
0.15247519 0.96362931 -0.26512435
0 0 -0
0.063169256 0.77174431 -0.22730905
0.46206364 2.3308294 0.73409897
0.36445159 2.2958858 0.69044149
0.2748667 2.2898247 0.66056979
0.19095001 2.3191314 0.64231157
0.46220496 2.339247 0.63664323
0.36693838 2.3076496 0.5982089
0.27647495 2.2887058 0.56680155
0.19332483 2.3143845 0.54703432
0.46439633 2.3505535 0.54413557
0.36250204 2.2818041 0.50045902
0.27746603 2.2895262 0.47655782
0.19531813 2.318248 0.45740354
0.46174258 2.3399134 0.44936416
0.36499131 2.2935977 0.41360909
0.27901679 2.2926061 0.38867801
0.19524492 2.3067911 0.36732888
0.45852005 2.322516 0.35625237
0.36845365 2.3078282 0.32828537
0.28296074 2.3149052 0.30504394
0.20017496 2.3402491 0.2848177
0.45999846 2.3278661 0.26830006
0.37139454 2.3259881 0.24345385
0.28348076 2.3114543 0.21849363
0.19899911 2.313189 0.19610402
0.46601802 2.3563824 0.18322311
0.37391096 2.3370323 0.15765609
0.28251338 2.2989173 0.13253793
0.20007941 2.3167498 0.11055671
0.4681381 2.3632014 0.095117934
0.37365687 2.3281503 0.070558831
0.28689724 2.3248699 0.048168641
0.20169723 2.3241258 0.025448579
0.4670811 2.3561394 0.006833409
0.37292197 2.3181407 -0.016023185
0.28637975 2.3130372 -0.037508685
0.20240773 2.3224299 -0.059783336
0.46902242 2.3594549 -0.081483975
0.37168103 2.3050392 -0.10108276
0.28829175 2.3168728 -0.12342095
0.20334312 2.3265901 -0.145707
0.47163954 2.364419 -0.17020047
0.37284136 2.3045564 -0.18701099
0.28581151 2.2939994 -0.20717098
0.1319682 1.5047923 -0.15002921
0.28222066 1.4127696 -0.15503277
0.21153837 1.3039234 -0.15471099
0.16802356 1.3457301 -0.17166193
0.130375 1.4824632 -0.20324743
0.24411052 1.2167969 -0.17980979
0.2083551 1.2797794 -0.20024219
0.16898319 1.349202 -0.2235682
0.12709351 1.4425538 -0.25255886
0.24162227 1.1996163 -0.22377564
0.21727085 1.3305889 -0.25972217
0.17221564 1.368232 -0.279163
0.12198139 1.3795719 -0.29488641
0.23590983 1.1654739 -0.26370648
0.20482437 1.2507964 -0.29352415
0.13643105 1.0830126 -0.26381692
0 0 -0
0.23274192 1.1442761 -0.30547071
0 0 -0
0 0 -0
0.072362974 0.82200032 -0.24223763
0.48306045 2.3607121 0.74443007
0.37759542 2.2879314 0.68873316
0.29047722 2.3004942 0.6641494
0.2044114 2.3092744 0.63991696
0.48021835 2.3543537 0.64154446
0.38219693 2.3120453 0.59994501
0.29088008 2.2898562 0.56751782
0.20760895 2.3141241 0.54726356
0.47939494 2.3505263 0.54479998
0.38111469 2.3075006 0.50659829
0.29200423 2.2916667 0.47736731
0.20900871 2.3111427 0.45624602
0.4758952 2.3360734 0.44917899
0.38178933 2.3078272 0.41658971
0.2945804 2.3025889 0.39066955
0.20948479 2.3065333 0.36748558
0.47888395 2.3496962 0.3608655
0.38276938 2.3065009 0.32842448
0.29425353 2.2905054 0.30206096
0.21362397 2.3290911 0.28361392
0.47903991 2.3483667 0.27099657
0.38614815 2.3266094 0.24376227
0.29562208 2.2938721 0.21699901
0.21328032 2.3129165 0.19618818
0.48425725 2.3720407 0.18466821
0.3888984 2.3386312 0.15792195
0.29623041 2.2941701 0.13236654
0.21511941 2.3244302 0.11098412
0.48843479 2.3886745 0.096262038
0.38661948 2.3179262 0.070319548
0.30269939 2.3349633 0.04841534
0.21595401 2.3228445 0.025448579
0.48273212 2.3591075 0.0068504787
0.38779831 2.3197541 -0.016050482
0.30043796 2.310245 -0.037492596
0.21683989 2.3231351 -0.059834607
0.48529878 2.365344 -0.081788652
0.38796368 2.3155243 -0.10164506
0.30198485 2.3110995 -0.1232098
0.21687098 2.3173487 -0.14520885
0.48493165 2.3556182 -0.16977796
0.38829669 2.3100896 -0.18764982
0.29871902 2.2833142 -0.20636764
0.14501262 1.5445749 -0.15408137
0.35191137 1.7070411 -0.18755862
0.21408801 1.2702807 -0.15087229
0.1744723 1.3309025 -0.16990386
0.12999751 1.3810183 -0.189445
0.24936527 1.2046158 -0.17823251
0.21686292 1.2823747 -0.20085271
0.18111761 1.3774897 -0.22843544
0.1362199 1.4446892 -0.25307429
0.24797772 1.1932956 -0.22287622
0.21163926 1.2479085 -0.24383239
0.18022262 1.3642346 -0.27856776
0.12979914 1.3719814 -0.29342866
0.24624947 1.1792953 -0.26717061
0.22327518 1.3129044 -0.30841467
0.17759997 1.3432984 -0.3274807
0.11373026 1.2066245 -0.30597854
0.24015598 1.1447203 -0.3059769
0.16347642 0.95692956 -0.26381317
0.14054504 1.0608916 -0.30215934
0.074705131 0.7928825 -0.23378749
0.49931192 2.3661172 0.74708664
0.39551231 2.3082476 0.69556642
0.30559754 2.3062925 0.66635215
0.21830434 2.3050978 0.63911867
0.49405867 2.3485265 0.64077061
0.39801478 2.3192046 0.60242516
0.30646428 2.2995794 0.57038283
0.22161841 2.310869 0.54680508
0.49561512 2.3561292 0.54679316
0.39493573 2.3031921 0.50617492
0.30722779 2.2985678 0.4791885
0.22309132 2.30884 0.45605314
0.49224079 2.3427265 0.45103052
0.39594272 2.3054411 0.41658971
0.30765417 2.2929192 0.38934189
0.22363345 2.3052044 0.36748558
0.49858132 2.3718743 0.36473459
0.39842764 2.312892 0.32967642
0.31068504 2.3063452 0.3043955
0.22704034 2.3188443 0.28253049
0.49814546 2.367748 0.2735807
0.4004167 2.3241961 0.24376227
0.31115791 2.3028681 0.21802655
0.22737052 2.3105729 0.19610402
0.49757007 2.3631704 0.18421187
0.40595609 2.3519328 0.15898541
0.3115069 2.3012135 0.1328807
0.22937779 2.3230665 0.11098412
0.50431931 2.3914988 0.09649875
0.40373316 2.3322537 0.070828021
0.31648228 2.3290994 0.048333105
0.22921592 2.3115251 0.025339499
0.49967596 2.3678422 0.0068846168
0.40134105 2.31339 -0.016023185
0.31636304 2.3212373 -0.037701782
0.23059525 2.316787 -0.059706423
0.50083745 2.3672106 -0.081957914
0.40456003 2.3268805 -0.1022506
0.3168371 2.3141501 -0.12347375
0.23148228 2.3199472 -0.14545794
0.50144756 2.3623562 -0.17048214
0.40383393 2.3155193 -0.18828861
0.31502298 2.2982135 -0.20788504
0.14150594 1.4139453 -0.14113419
0.49199194 2.3146276 -0.25464317
0.23026073 1.3168832 -0.15657218
0.17534606 1.2767324 -0.16312277
0.14915071 1.4866667 -0.20405932
0.25819787 1.2098382 -0.17923623
0.22489808 1.2819933 -0.20100531
0.19010486 1.3802625 -0.2290844
0.14527877 1.4457865 -0.25341791
0.24849534 1.16001 -0.21694006
0.21571964 1.2262774 -0.23985995
0.18832137 1.3611614 -0.27817094
0.14115785 1.4003534 -0.29967624
0.25799996 1.1987594 -0.27193376
0.22421947 1.2712145 -0.29893887
0.16557531 1.1958336 -0.29177263
0.11609275 1.1557384 -0.29324985
0.25228649 1.166865 -0.31230396
0.22674718 1.2799292 -0.35323691
0 0 -0
0 0 -0
0.51341474 2.3611417 0.74649626
0.41168031 2.3171034 0.69898301
0.32013932 2.3072307 0.66717821
0.23196018 2.2989192 0.6377883
0.51153004 2.3596139 0.64463997
0.41274682 2.3195801 0.6031692
0.32164195 2.3053496 0.57229286
0.23480479 2.2997823 0.54451233
0.51130223 2.358762 0.54812193
0.41402182 2.3286307 0.5123142
0.32159716 2.2985792 0.47959325
0.23735425 2.3084037 0.45624602
0.51014167 2.3559897 0.45417809
0.41077155 2.3068454 0.41729105
0.32254025 2.2968476 0.39033762
0.2383821 2.3096836 0.36842588
0.51605642 2.3823006 0.36681792
0.41087079 2.3006551 0.32828537
0.32483065 2.3043954 0.3043955
0.24126422 2.3174076 0.28253049
0.51666456 2.3830979 0.27571541
0.41467014 2.3216956 0.24376227
0.32709396 2.3137312 0.21924092
0.24112898 2.3051701 0.19576737
0.51650065 2.3805358 0.18580906
0.41897365 2.3415401 0.15845367
0.32576099 2.3002472 0.13293782
0.24300204 2.3156548 0.11069918
0.5143159 2.3668778 0.09563081
0.42015442 2.3415387 0.071186952
0.33104882 2.3290935 0.048374224
0.24349962 2.3110695 0.025350407
0.51355791 2.3618002 0.0068760822
0.4178288 2.3236783 -0.016111899
0.32890669 2.307374 -0.037508685
0.24501666 2.3173168 -0.059757698
0.52259052 2.3972938 -0.083108917
0.4216646 2.340086 -0.10294265
0.3294737 2.3012886 -0.12289307
0.24550247 2.316498 -0.14533339
0.52147406 2.3845718 -0.17231302
0.42264345 2.3385017 -0.19036473
0.33180356 2.31497 -0.20958097
0.16164233 1.5209093 -0.15190704
0.49746498 2.2717443 -0.25025648
0.22647291 1.2499664 -0.14877847
0.18106145 1.2609024 -0.16123913
0.15071326 1.4147873 -0.19431645
0.25732923 1.1705344 -0.17364407
0.22498368 1.2378056 -0.19428986
0.19055445 1.3233994 -0.21983665
0.15226609 1.4272356 -0.25032535
0.25518447 1.1565423 -0.21658029
0.22306383 1.2239647 -0.2396708
0.1937239 1.3396096 -0.27400431
0.15110043 1.4121038 -0.30238354
0.25837874 1.1657 -0.26478902
0.22448573 1.2286057 -0.28923747
0.17277047 1.193833 -0.2915377
0.2313519 2.1692483 -0.55076134
0.25817999 1.1596291 -0.31078544
0.17451046 0.95105481 -0.26276422
0 0 -0
0 0 -0
0.53165001 2.3747296 0.75180942
0.42571655 2.313591 0.69869834
0.33456615 2.3071258 0.66772896
0.24595907 2.2964942 0.63752222
0.53420758 2.3932059 0.65470034
0.4269717 2.317004 0.6031692
0.33592132 2.3042934 0.57253158
0.24933082 2.3021691 0.54542941
0.5332008 2.3888917 0.55587316
0.42865622 2.3279688 0.51273763
0.33541164 2.2946246 0.4791885
0.2510885 2.3030021 0.45547438
0.5354948 2.4017322 0.46362087
0.42634663 2.312027 0.41869369
0.33677053 2.2958009 0.39050362
0.25201246 2.3032684 0.36764234
0.53367811 2.3926013 0.36890125
0.42714053 2.3097761 0.32995465
0.34055269 2.3131495 0.30582213
0.25449935 2.3070028 0.28144708
0.52478242 2.3507888 0.2723448
0.43162149 2.3337791 0.24530444
0.34288412 2.322515 0.22026846
0.25548816 2.3056278 0.19593568
0.52957588 2.3705101 0.18527667
0.4344238 2.3448117 0.15885246
0.34395844 2.3258584 0.13453741
0.25632334 2.3061781 0.11031926
0.53515583 2.3919556 0.096774906
0.4346965 2.3398993 0.071216859
0.34592068 2.3309741 0.048456457
0.25889513 2.3204632 0.025470395
0.53284633 2.3800731 0.0069386698
0.43299383 2.3259864 -0.016146021
0.34408849 2.3122354 -0.037621323
0.25900841 2.3137827 -0.059706423
0.53641474 2.3901415 -0.08297351
0.43619835 2.3384366 -0.1029859
0.34358793 2.2992237 -0.12289307
0.26049054 2.3218908 -0.14576927
0.53653389 2.3832736 -0.17245385
0.43845066 2.343703 -0.19100356
0.3430545 2.2931898 -0.2077958
0.18532099 1.6474528 -0.16465656
0.51401842 2.2802882 -0.25154039
0.25171241 1.3422681 -0.15994558
0.19467625 1.2990129 -0.16626218
0.1629433 1.4453419 -0.19864661
0.2664724 1.1776206 -0.17493457
0.22928593 1.2189195 -0.19154266
0.19852449 1.3212295 -0.21967442
0.15737358 1.3939704 -0.24465565
0.27229655 1.1990808 -0.22485493
0.22729409 1.2052041 -0.23626584
0.19872296 1.3170744 -0.26963931
0.15833171 1.3985157 -0.29967624
0.25901318 1.1355376 -0.25829378
0.23419188 1.2386923 -0.29194483
0.18720326 1.2398454 -0.30304885
0 0 -0
0.26572257 1.1599091 -0.31129161
0 0 -0
0 0 -0
0.083908126 0.74369997 -0.2197039
0.54942781 2.3853886 0.75623703
0.44402745 2.3325944 0.70524687
0.3491475 2.3078811 0.66855502
0.26037106 2.2978153 0.63832045
0.55363983 2.410599 0.66037548
0.44662273 2.3428891 0.61060959
0.3519516 2.3146696 0.57563537
0.26489159 2.3131676 0.54840994
0.54282862 2.3637152 0.55077952
0.44384667 2.3300951 0.51379609
0.34963247 2.2934916 0.47939089
0.26543939 2.3033679 0.45586023
0.54934245 2.3945699 0.46288022
0.44273865 2.3209722 0.42079768
0.35159647 2.2985651 0.3913334
0.26625374 2.3026597 0.36779904
0.55321515 2.4104855 0.3721751
0.44242126 2.3129475 0.33078924
0.35458907 2.3100364 0.30569243
0.26922461 2.3103282 0.28204897
0.55743682 2.4269376 0.28155777
0.44967106 2.3506265 0.24736063
0.35788563 2.3252878 0.22073554
0.27067283 2.3129241 0.19669318
0.55617261 2.4196913 0.18938377
0.45049319 2.3509219 0.15945065
0.35989642 2.334558 0.13516584
0.2707018 2.306546 0.11041424
0.55385715 2.4061549 0.097485043
0.45017722 2.3430777 0.071396321
0.36067525 2.3317719 0.048518132
0.27347925 2.3218102 0.025503119
0.54766458 2.3777332 0.0069415141
0.44990414 2.337033 -0.01624156
0.36087465 2.3268774 -0.037894875
0.27331796 2.313143 -0.059732065
0.56253684 2.4364693 -0.084700003
0.45224154 2.3445451 -0.10337519
0.36091584 2.3177931 -0.12400164
0.27367625 2.3113286 -0.14520885
0.55069715 2.3779929 -0.17231302
0.4528231 2.3409686 -0.19100356
0.35604501 2.2841527 -0.20717098
0.22088075 1.8607167 -0.18610342
0.54102629 2.3332679 -0.25774598
0.24122773 1.2441679 -0.14842948
0.20187789 1.2928927 -0.16563429
0.16771244 1.4098796 -0.19391049
0.26920637 1.1566854 -0.17206679
0.23393093 1.2029378 -0.18925329
0.20357555 1.3004889 -0.21642961
0.16813773 1.4115646 -0.24792004
0.28971624 1.2404935 -0.23294972
0.24483131 1.2558321 -0.2464807
0.20056161 1.2761327 -0.2615045
0.16517001 1.3829503 -0.29655245
0.26575288 1.1329764 -0.25807726
0.23879831 1.221934 -0.28833503
0.20235795 1.2866839 -0.31479493
0.12794544 1.074458 -0.27317765
0.27305645 1.1591985 -0.31154469
0.2103218 1.0719448 -0.29685536
0 0 -0
0 0 -0
0.5702185 2.408005 0.76450193
0.46129215 2.3448751 0.70980227
0.36360106 2.3075945 0.66910571
0.27538055 2.3038316 0.64044905
0.56953073 2.4118581 0.66166526
0.46211347 2.3458073 0.61209768
0.3658438 2.3105483 0.57515794
0.28012997 2.3201957 0.55047327
0.57166386 2.4210804 0.56495315
0.45907938 2.3321226 0.51485461
0.3644661 2.296139 0.48040268
0.28027746 2.3075402 0.45701772
0.57553107 2.4399338 0.47232303
0.45811397 2.3240075 0.4218497
0.36677918 2.3031816 0.3924951
0.27978027 2.2960808 0.36701545
0.57321864 2.4291816 0.37559775
0.46102121 2.3325334 0.33398864
0.36844361 2.3058589 0.30543303
0.28496784 2.3214421 0.28361392
0.5777989 2.4466813 0.28425428
0.46447158 2.3497748 0.24756625
0.37088665 2.3151832 0.21998823
0.28425008 2.3062747 0.19627234
0.57353169 2.4269073 0.19022042
0.46490967 2.3481133 0.15945065
0.3751632 2.3382206 0.13550861
0.28472692 2.3038504 0.11036675
0.5739032 2.4250755 0.098392434
0.46532407 2.3441927 0.071515962
0.37354591 2.320631 0.048333105
0.28956643 2.3349738 0.025666742
0.56823492 2.3996284 0.0070154811
0.46774644 2.3518822 -0.016364394
0.37466741 2.3216581 -0.037846599
0.28911012 2.3243186 -0.060065337
0.57978421 2.4426959 -0.085038535
0.46505699 2.3338878 -0.10302916
0.37560982 2.3184922 -0.12416
0.28847036 2.314558 -0.1455202
0.567819 2.3852437 -0.17308763
0.47284243 2.366493 -0.19331922
0.3697347 2.2799587 -0.20699245
0.25844681 2.068661 -0.20705611
0.55394965 2.3241012 -0.25710404
0.24534672 1.2251346 -0.14633566
0.20296733 1.249522 -0.16023453
0.17266801 1.3793302 -0.18985096
0.27353561 1.1434617 -0.17034613
0.23838858 1.1869458 -0.18696395
0.20600091 1.2651279 -0.21075116
0.1712824 1.3665197 -0.24018864
0.27344468 1.1392145 -0.2142418
0.23935334 1.1888473 -0.23361754
0.2026961 1.2400559 -0.25436172
0.16182366 1.2877779 -0.2763519
0.27681762 1.1484083 -0.26197442
0.24609873 1.2194906 -0.28810939
0.20318849 1.242251 -0.30422345
0.12392721 0.98899192 -0.25163674
0.27583978 1.1396357 -0.30673611
0.23816314 1.1756169 -0.32596397
0 0 -0
0 0 -0
0.58972609 2.4239564 0.77070057
0.47471735 2.3373036 0.70837873
0.37744248 2.3034227 0.66855502
0.29011282 2.3068807 0.64177948
0.59730381 2.4618363 0.67636895
0.4788152 2.3543196 0.6150738
0.38064516 2.3120928 0.57611293
0.29472893 2.3213298 0.55116111
0.59271622 2.4431143 0.57093269
0.47727329 2.3484168 0.51908863
0.38109937 2.3093193 0.48364043
0.29480383 2.3086967 0.45759648
0.59396356 2.4506824 0.47510031
0.47432846 2.3308003 0.423603
0.38187072 2.3067253 0.39349088
0.29649848 2.3148935 0.3703064
0.59417129 2.4506054 0.37946683
0.48066989 2.3558588 0.33774447
0.38404727 2.3123581 0.3066003
0.2984446 2.3137424 0.28289163
0.59678382 2.4595058 0.28616428
0.47907963 2.3478553 0.24766906
0.38786522 2.32956 0.22157627
0.2995474 2.313381 0.19702983
0.60323417 2.4843864 0.19501206
0.48150641 2.3559699 0.16018178
0.39196628 2.350646 0.13636553
0.2982147 2.297107 0.1101293
0.60293692 2.4797645 0.10075953
0.48531657 2.3687115 0.07235346
0.38843778 2.3222396 0.04841534
0.30246744 2.3222456 0.02554675
0.59996843 2.4660556 0.007220313
0.48478243 2.361702 -0.016453108
0.38840976 2.3163574 -0.03779833
0.30310744 2.3205185 -0.060014062
0.59878647 2.4555991 -0.085614033
0.48379609 2.352519 -0.10398073
0.38982874 2.3161438 -0.12416
0.30253726 2.3117547 -0.14545794
0.58196998 2.3797767 -0.17294678
0.48775667 2.3654997 -0.19347893
0.38901225 2.3090765 -0.20984876
0.25728706 1.9614644 -0.19648093
0.57174647 2.3351448 -0.25870892
0.25205541 1.2197156 -0.14587036
0.2193792 1.3001007 -0.16689005
0.17570594 1.3369857 -0.18416761
0.27487898 1.1186959 -0.16690478
0.24586761 1.1864285 -0.18711656
0.20701288 1.2239498 -0.20409927
0.18056357 1.37228 -0.2413913
0.27430773 1.1126828 -0.20956481
0.24125127 1.1613979 -0.22851013
0.2165347 1.2755079 -0.26190132
0.18059371 1.3691832 -0.29405341
0.28010541 1.1315253 -0.25851029
0.25139245 1.2074662 -0.28562763
0.20690012 1.2179821 -0.29858533
0.13277519 1.0093615 -0.25702199
0.28072709 1.1294718 -0.30445838
0.24399029 1.1675212 -0.3241283
0 0 -0
0.097332783 0.74012691 -0.21914057
0.61523962 2.4629326 0.78427863
0.49298111 2.3531115 0.71407306
0.39463305 2.3190699 0.6737867
0.30653271 2.3222589 0.64656883
0.62360901 2.503125 0.68875098
0.49623543 2.3655591 0.61879402
0.39629737 2.3183284 0.57826173
0.30832422 2.3146536 0.55001479
0.62183917 2.4962065 0.58422047
0.49408019 2.3569229 0.52162904
0.39460039 2.3030765 0.482831
0.31013647 2.3155971 0.45933267
0.61421067 2.4679713 0.47917363
0.49509287 2.3586783 0.42921364
0.39685246 2.3091981 0.3943207
0.31017089 2.3091152 0.36967957
0.61564702 2.472822 0.38348469
0.49899054 2.3712769 0.3403874
0.39755458 2.3060496 0.30608153
0.31303495 2.3148189 0.28325278
0.6142661 2.4654396 0.2872878
0.49675435 2.3604457 0.24931403
0.40249088 2.3290982 0.22176307
0.31400445 2.3134744 0.19719817
0.62546188 2.5086954 0.19721773
0.49986333 2.3715215 0.16144462
0.40655243 2.3491802 0.13642265
0.31351593 2.3041418 0.11055671
0.62467587 2.5021937 0.10182472
0.5008747 2.3705788 0.072503008
0.40456036 2.3306484 0.048641484
0.31873927 2.3352075 0.025710372
0.61969328 2.4807613 0.007274366
0.49905738 2.3577046 -0.016446285
0.40381515 2.3208258 -0.037910968
0.31801799 2.3235672 -0.060142245
0.61626965 2.4615736 -0.085952558
0.50402468 2.3768716 -0.10519183
0.40403301 2.3137083 -0.12416
0.31780088 2.3177652 -0.14595607
0.33568704 1.3370743 -0.097317778
0.50164002 2.3595374 -0.19323938
0.40214419 2.3007593 -0.2093132
0.30183074 2.1964505 -0.22020097
0.33714426 1.3412924 -0.14882717
0.25436056 1.1938609 -0.14296226
0.21657491 1.237165 -0.15897878
0.18106858 1.3152699 -0.18132593
0.28440049 1.1275439 -0.16848207
0.25128445 1.1761993 -0.18574294
0.21690634 1.2362633 -0.20637065
0.18144801 1.3164955 -0.23177001
0.28812793 1.138634 -0.21478143
0.25125143 1.1733382 -0.23115841
0.21721837 1.2336141 -0.25356811
0.18899147 1.3680494 -0.29405341
0.28439862 1.1193769 -0.2561287
0.2598187 1.2106637 -0.28675571
0.21993548 1.2482795 -0.30633774
0.14161298 1.0277379 -0.26191765
0.29004323 1.1371024 -0.30698922
0.24911752 1.1565684 -0.3215059
0 0 -0
0.10147946 0.73666412 -0.21829554
0.64908206 2.5322273 0.8075974
0.51246822 2.3734679 0.72119105
0.41035894 2.3251255 0.67626488
0.32024804 2.316515 0.64550453
0.64541751 2.5245247 0.69571584
0.51135498 2.3653104 0.61953807
0.41204035 2.3244588 0.58041054
0.32386526 2.3223586 0.55230749
0.64124984 2.5084054 0.5879854
0.51100928 2.3653102 0.52416945
0.41232169 2.3208604 0.48708054
0.3247475 2.3165658 0.45991144
0.63250363 2.4765339 0.48158062
0.51226211 2.3681054 0.43149298
0.41101396 2.3067195 0.3943207
0.32570839 2.3169489 0.37124667
0.63594884 2.4891176 0.3866097
0.51395077 2.3701062 0.34066564
0.41291788 2.3103995 0.3069894
0.32778877 2.3167863 0.28373429
0.63824326 2.4962814 0.29133254
0.51502305 2.374851 0.25116459
0.41800329 2.3334448 0.22241697
0.32903421 2.3174236 0.19770317
0.64553887 2.5231643 0.19866283
0.51101685 2.3528087 0.16038117
0.42060655 2.3446763 0.1363084
0.3290554 2.3120637 0.11103161
0.64299297 2.5099292 0.10229814
0.51817507 2.3801577 0.072891846
0.42009255 2.3350101 0.048785396
0.33475754 2.3450866 0.025841272
0.64930463 2.5330956 0.0074393689
0.51713687 2.3712075 -0.016562296
0.42070943 2.3330643 -0.038152333
0.33368546 2.3314679 -0.060398605
0.64105994 2.4954979 -0.087272823
0.52137154 2.3864229 -0.10575411
0.41911113 2.3160989 -0.12442395
0.33201644 2.3157716 -0.14595607
0.35533109 1.3794247 -0.10055701
0.52016056 2.3749156 -0.19475655
0.42370912 2.3394113 -0.21306209
0.32662365 2.2733562 -0.22810765
0.31631827 1.2265556 -0.136309
0.25699687 1.1709349 -0.14040312
0.23354627 1.287549 -0.16563429
0.18913552 1.3141342 -0.18132593
0.29180944 1.1276939 -0.16876884
0.25637269 1.1649834 -0.18421671
0.22060515 1.2135506 -0.20280133
0.19134885 1.3280332 -0.23400353
0.28398684 1.0939987 -0.20668666
0.2571772 1.1660211 -0.23002343
0.21686867 1.1888686 -0.24463964
0.18689792 1.2942613 -0.27843443
0.28535268 1.0949373 -0.25093251
0.26072419 1.1795577 -0.27976164
0.22497264 1.2325633 -0.30281392
0.17680848 1.227421 -0.31307724
0.28452703 1.087568 -0.29408199
0.2436706 1.0984919 -0.3057715
0.14709221 0.80468512 -0.2309671
0 0 -0
0 0 0
0.52660573 2.3684072 0.72062159
0.42496371 2.324455 0.67681557
0.3358345 2.3240469 0.64816535
0 0 0
