# .PCD v0.7 - Point Cloud Data file format
VERSION 0.7
FIELDS x y z
SIZE 4 4 4
TYPE F F F
COUNT 1 1 1
WIDTH 1534
HEIGHT 1
VIEWPOINT 0 0 0 1 0 0 0
POINTS 1534
DATA ascii
1.4833686 -0.74327308 -0.43403667
1.4713091 -0.66927797 -0.43925151
1.4672493 -0.60212553 -0.44780448
1.4358655 -0.52682012 -0.44898465
5.4696751 -2.74877 1.891183
5.8641224 -2.6710365 1.9138752
6.155241 -2.5261662 1.9057122
6.4684367 -2.3768055 1.9021896
6.4083834 -3.2154734 1.914315
6.8016934 -3.100239 1.9136733
7.2206254 -2.9697435 1.9195805
7.6638942 -2.8264005 1.9240201
7.6396656 -3.8331151 1.9411268
8.149272 -3.7130964 1.9398079
8.546648 -3.5189555 1.909874
8.4838963 -3.1357112 1.7782985
8.7124748 -4.3689108 1.8363385
8.6515322 -3.9446793 1.69336
8.5688286 -3.5331614 1.5598569
8.5077076 -3.1482253 1.439384
8.7118645 -4.3695564 1.4666765
8.6632805 -3.9553337 1.337763
8.6067438 -3.5540686 1.2179711
7.9762826 -2.9596496 1.0316516
8.2116489 -4.12046 1.0388201
8.1635227 -3.7273352 0.92755091
8.0720472 -3.3370643 0.81951457
7.9916735 -2.9698045 0.72011417
8.2171097 -4.1248159 0.70132846
8.1504812 -3.7244751 0.59692639
8.0768328 -3.3413539 0.50015926
8.021328 -2.9838521 0.4068943
8.2538013 -4.1464815 0.36469111
8.1521578 -3.7300582 0.26826712
8.0894117 -3.3513539 0.18005161
8.021162 -2.9876158 0.093373269
8.2515774 -4.1468072 0.026272494
8.1578846 -3.7362955 -0.061233409
8.1044292 -3.3613877 -0.14120065
8.0085411 -2.9862578 -0.21918847
8.1536474 -4.102942 -0.30917871
1.5357271 -0.70404112 -0.073141187
1.5547945 -0.64597905 -0.089002453
1.5905641 -0.59353888 -0.10591778
1.4768878 -0.74440265 -0.11675316
1.5309833 -0.70283663 -0.13494816
1.5570874 -0.64721853 -0.1511161
1.5791531 -0.58981454 -0.1674239
1.492275 -0.75268102 -0.17985512
1.4944718 -0.68686479 -0.19263265
1.5526155 -0.64583647 -0.21285073
1.5861043 -0.59285247 -0.23125821
1.4768164 -0.74640417 -0.23974639
1.5270752 -0.70288271 -0.2596128
1.5904801 -0.66230333 -0.28327292
1.643368 -0.61455065 -0.30599141
1.5155921 -0.76746374 -0.31065959
1.553515 -0.71593982 -0.32952371
1.6065255 -0.67013675 -0.35237631
1.6323225 -0.61100471 -0.37110707
1.5182476 -0.77064043 -0.37758958
1.556003 -0.71794266 -0.39685544
1.5662595 -0.65353304 -0.41017309
1.5647713 -0.58509654 -0.42176083
1.4813669 -0.75367701 -0.43479592
1.47681 -0.6827476 -0.44213617
1.4644151 -0.61148787 -0.44807619
1.4559734 -0.54435712 -0.45630813
5.474833 -2.79357 1.8988575
5.8232651 -2.6956921 1.9059032
6.1041408 -2.5490687 1.8946981
6.4591479 -2.4184785 1.9037861
6.3954201 -3.2582426 1.9163786
6.7904539 -3.1455798 1.9159054
7.211226 -3.0177412 1.9219681
7.6409411 -2.8713179 1.9226445
7.6020994 -3.8728366 1.9375834
8.1369781 -3.7679577 1.9423482
8.556509 -3.5845745 1.9169564
8.4856157 -3.195662 1.7827356
8.7424259 -4.4512696 1.8483735
8.661109 -4.0134192 1.7000226
8.5869999 -3.6024582 1.5671592
8.5214996 -3.2129121 1.4450256
8.7492161 -4.4556885 1.4775397
8.6747789 -4.0250883 1.343327
8.6204262 -3.6217902 1.2230291
8.0016155 -3.0250349 1.0373094
8.2313671 -4.1937742 1.0445502
8.166666 -3.7894974 0.93053246
8.0826216 -3.3996551 0.82269055
7.9844837 -3.0230186 0.72112417
8.2387285 -4.1991549 0.70535952
8.1600523 -3.7895448 0.5993191
8.0948267 -3.4071167 0.50255871
8.0290213 -3.0429256 0.40822402
8.2709293 -4.2188411 0.36658478
8.1617451 -3.7951808 0.26934388
8.1147604 -3.4203427 0.18107955
8.0428801 -3.0520315 0.09384232
8.2607164 -4.2150855 0.026383445
8.173789 -3.8044255 -0.06152685
8.1168156 -3.4250467 -0.14177994
8.0358572 -3.0527365 -0.22044463
0 -0 -0
1.5051157 -0.70121545 -0.071886845
1.5443629 -0.65278536 -0.088632934
1.5943557 -0.60612458 -0.10641593
1.4607486 -0.74754304 -0.11583773
1.5257387 -0.71179593 -0.13486831
1.5512522 -0.65598458 -0.15093759
1.5662038 -0.595954 -0.16643557
1.4672743 -0.75139976 -0.17739429
1.5019277 -0.70148563 -0.19414485
1.5312644 -0.64800489 -0.21046481
1.5778071 -0.60081053 -0.23058163
1.4704478 -0.75454801 -0.23945962
1.5361615 -0.71852022 -0.26190215
1.5927465 -0.67474425 -0.28440863
1.6386455 -0.62427187 -0.30581957
1.5021061 -0.77225113 -0.30886075
1.5517606 -0.72670788 -0.33009121
1.6023834 -0.67998159 -0.35237631
1.6303705 -0.62170595 -0.37152356
1.4961339 -0.77099741 -0.37325943
1.5418656 -0.72292727 -0.39437369
1.5613253 -0.66275132 -0.40993819
1.5747427 -0.59986395 -0.42543256
1.4689785 -0.75875652 -0.43251818
1.4664789 -0.68892407 -0.44030049
1.4810082 -0.62911594 -0.45432588
1.4552958 -0.55430514 -0.45715311
5.4516506 -2.824034 1.8967912
5.786664 -2.7219875 1.8993547
6.0883851 -2.5864749 1.8946981
6.4189682 -2.4484463 1.8963358
6.3898964 -3.3049684 1.920764
6.7736545 -3.1884236 1.9166493
7.1854262 -3.0588889 1.9200583
7.623179 -2.9181478 1.9226445
7.5600038 -3.9100015 1.9329327
8.1083994 -3.8153179 1.9410782
8.5947151 -3.6627324 1.9305147
8.5226479 -3.2694581 1.7946965
8.7577248 -4.5269399 1.857446
8.6790743 -4.0866184 1.7084386
8.603734 -3.6717229 1.5742954
8.5283613 -3.2754073 1.4495701
8.7647533 -4.5315418 1.4848313
8.6732073 -4.08922 1.3469437
8.6263056 -3.6866961 1.2270497
8.0255184 -3.0904851 1.0428468
8.2407827 -4.2624626 1.0490444
8.1819477 -3.8577771 0.93495327
8.0844946 -3.4589763 0.82502598
8.0104103 -3.0891631 0.72516406
8.2606287 -4.2743721 0.70946664
8.1700354 -3.855298 0.60177839
8.1058912 -3.4704742 0.50455821
8.0390863 -3.1032848 0.40969622
8.256422 -4.2754846 0.36709765
8.1979523 -3.8733711 0.27131799
8.1129179 -3.4783428 0.18151127
8.0529156 -3.1124995 0.094180472
8.270215 -4.2840915 0.026497239
8.1855469 -3.8711803 -0.061792992
8.1213732 -3.4858282 -0.1422305
8.0626593 -3.1196625 -0.22170082
0 -0 -0
1.5007849 -0.71043748 -0.071886845
1.530237 -0.65791035 -0.08805225
1.5831608 -0.61301285 -0.10591778
1.4375453 -0.74683458 -0.11435895
1.5240445 -0.72242516 -0.13510786
1.5362185 -0.66076797 -0.14986648
1.5801469 -0.61238509 -0.1683134
1.4555789 -0.75671965 -0.17653835
1.4949033 -0.70941067 -0.19379587
1.5172356 -0.65307373 -0.20908347
1.5787097 -0.61227179 -0.23125821
1.4561353 -0.75852692 -0.23788233
1.5138717 -0.71944833 -0.25884968
1.5885763 -0.68450451 -0.28440863
1.6375395 -0.63538373 -0.306335
1.4868745 -0.77599174 -0.30670214
1.5401789 -0.73284042 -0.32857788
1.5927817 -0.68747044 -0.35118586
1.6292603 -0.63276029 -0.37214833
1.4965655 -0.78287822 -0.37455848
1.5391599 -0.73321235 -0.39482495
1.5697229 -0.67771292 -0.41322708
1.5574734 -0.6042546 -0.42176083
1.4720066 -0.77179891 -0.43479592
1.4700621 -0.70165026 -0.44266066
1.4735864 -0.63666463 -0.45323899
1.424136 -0.55246639 -0.44842133
5.4130788 -2.8463151 1.8894119
5.7862868 -2.7652962 1.9047644
6.0847549 -2.629122 1.8985531
6.4352727 -2.5000033 1.9056486
6.3532438 -3.3355806 1.9158628
6.7557116 -3.230762 1.9171455
7.1870179 -3.1117945 1.9255495
7.6105709 -2.966989 1.9240201
7.5488205 -3.9631143 1.9362545
8.0839539 -3.8645766 1.9408664
8.6053247 -3.7298093 1.938002
8.5435543 -3.3377581 1.8033776
8.7645912 -4.5988545 1.864852
8.6991301 -4.1614628 1.7173805
8.6036587 -3.734261 1.5784445
8.5568533 -3.3467414 1.4578757
8.7726822 -4.6040769 1.4909325
8.6935005 -4.1641784 1.354038
8.626256 -3.749438 1.2302921
8.0304337 -3.1490936 1.0459768
8.2575827 -4.3355808 1.0545496
8.1931086 -3.9246669 0.93896282
8.0886812 -3.5196397 0.82764149
8.0219116 -3.1502757 0.72794145
8.269556 -4.343524 0.71250892
8.1786156 -3.9208837 0.6041711
8.1054964 -3.5293126 0.50587213
8.035697 -3.1587653 0.41050351
8.2583361 -4.3409419 0.36836013
8.201066 -3.9365766 0.27221531
8.1152506 -3.5384469 0.18204579
8.0457611 -3.1666133 0.094322272
8.2844877 -4.3561645 0.026628105
8.1958904 -3.9377892 -0.062052313
8.1291552 -3.5483942 -0.14274541
8.066617 -3.1782365 -0.22234172
0 -0 -0
1.5090024 -0.72569466 -0.072492391
1.5270861 -0.66768736 -0.08810503
1.5654422 -0.6172241 -0.10498376
1.4523474 -0.7658776 -0.11590814
1.5070099 -0.72570819 -0.13398995
1.5357852 -0.6717782 -0.15022351
1.5708058 -0.61987746 -0.16772039
1.4535464 -0.76702875 -0.17685932
1.4923117 -0.71943253 -0.19402853
1.5231971 -0.66674709 -0.21046481
1.5749232 -0.62194705 -0.23125821
1.4610776 -0.77253586 -0.23945962
1.5129886 -0.7304424 -0.25946015
1.5843464 -0.6942389 -0.28440863
1.6262803 -0.64252365 -0.30496055
1.5020781 -0.79569125 -0.31083947
1.54361 -0.74612296 -0.33028033
1.5858409 -0.69604886 -0.35059062
1.6226184 -0.64166629 -0.37152356
1.4874221 -0.78975701 -0.37347591
1.5284934 -0.73967206 -0.39324561
1.5584148 -0.68420577 -0.41134769
1.5618523 -0.61700588 -0.42396387
1.4689512 -0.78172541 -0.43530208
1.4657292 -0.71065718 -0.44266066
1.4731765 -0.64724284 -0.45432588
1.4599855 -0.57670468 -0.46081483
5.4064698 -2.8853235 1.8932493
5.7493758 -2.7911191 1.8982158
6.0817103 -2.6722088 1.9026834
6.4099517 -2.5355422 1.9027218
6.3428893 -3.3799527 1.9189582
6.7392459 -3.2738466 1.9181374
7.1357937 -3.1417477 1.9169543
7.5949368 -3.014708 1.9247079
7.5493193 -4.0226574 1.942677
8.0539351 -3.9111173 1.9393845
8.6019926 -3.7912297 1.9424539
8.5530005 -3.4020853 1.8097439
8.7804441 -4.676105 1.8742946
8.7035389 -4.2293916 1.7233418
8.6302023 -3.8088808 1.5875721
8.5792828 -3.4163554 1.4652411
8.7948885 -4.6847825 1.4995636
8.6980629 -4.2321734 1.3587676
8.6538763 -3.824744 1.2375551
8.0367746 -3.2086146 1.0493473
8.2773018 -4.410934 1.0605043
8.1974945 -3.9887919 0.9422527
8.1142778 -3.5901525 0.83249903
8.0163097 -3.2049868 0.729204
8.2665062 -4.4068484 0.71456254
8.1750364 -3.981041 0.60569984
8.1238556 -3.5967643 0.50838578
8.0643873 -3.2273107 0.41297299
8.2800331 -4.4174008 0.37052995
8.204608 -4.0004029 0.27314252
8.140914 -3.6092458 0.18311484
8.0735178 -3.2348888 0.094878577
8.2937727 -4.426219 0.026744744
8.2165079 -4.009933 -0.062393524
8.1337337 -3.6099699 -0.14321205
8.0868607 -3.2436752 -0.22344407
0 -0 -0
1.4847722 -0.72529286 -0.071540818
1.5402981 -0.68475235 -0.089108028
1.5514369 -0.62272829 -0.10429882
1.4361875 -0.7686556 -0.11499272
1.4882017 -0.72793359 -0.13271233
1.5298142 -0.68037951 -0.15004499
1.5669727 -0.62950408 -0.16772039
1.4365419 -0.76936138 -0.17536142
1.4780571 -0.72377086 -0.19274895
1.5154518 -0.67446709 -0.20996249
1.5664809 -0.62975103 -0.23058163
1.4493335 -0.77774268 -0.2383125
1.5075909 -0.73927706 -0.25930756
1.5692406 -0.69912839 -0.2824617
1.6213933 -0.65212262 -0.30478871
1.4885033 -0.80023491 -0.30904064
1.5345955 -0.7534166 -0.32933453
1.577065 -0.70376921 -0.34959856
1.6204655 -0.65234095 -0.37194011
1.4834077 -0.79933196 -0.37369242
1.5204289 -0.74731785 -0.39234316
1.5506369 -0.69217032 -0.41040802
1.5571375 -0.62621582 -0.42371911
1.4675319 -0.7925629 -0.43631443
1.4630725 -0.72048998 -0.44318512
1.4603903 -0.65234482 -0.45160863
1.4510781 -0.58350432 -0.45912483
5.3710208 -2.9088874 1.8870505
5.7046289 -2.8127785 1.8891048
6.0625663 -2.7082989 1.9018574
6.396956 -2.5759053 1.90352
6.3356285 -3.4261618 1.9230856
6.712081 -3.311707 1.9161533
7.0977693 -3.1771414 1.9119405
7.5781007 -3.0619824 1.9251664
7.5184903 -4.0656567 1.9411268
8.0271559 -3.9591649 1.9387493
8.5875044 -3.8479433 1.9444773
8.5392408 -3.4574475 1.8112873
8.7783871 -4.7443771 1.8800344
8.7136211 -4.3005805 1.7305305
8.6390591 -3.8762963 1.5935467
8.5773802 -3.4767237 1.468532
8.7920742 -4.7527661 1.5040278
8.7198715 -4.3091555 1.3662792
8.6537609 -3.8883374 1.2409272
8.052804 -3.2724428 1.0540422
8.2867908 -4.4814925 1.0652232
8.2112112 -4.0579658 0.94667357
8.1238766 -3.6541681 0.83576846
8.0352573 -3.2698884 0.73273885
8.2726364 -4.4755173 0.7174527
8.1960688 -4.0536866 0.60908955
8.1480646 -3.6674421 0.51129931
8.0610847 -3.2835147 0.41382784
8.2861633 -4.4862008 0.3720291
8.2166328 -4.0688567 0.27436885
8.1496048 -3.6730969 0.18381381
8.0766659 -3.2938063 0.09515129
8.2902002 -4.4898834 0.026821557
8.2437143 -4.08603 -0.062789321
8.1451511 -3.6750245 -0.14380743
8.1010494 -3.307214 -0.22439259
8.3200312 -4.5116754 -0.32058716
1.4838738 -0.73616564 -0.071713835
1.5151377 -0.68473178 -0.087893881
1.5697612 -0.6412949 -0.10579325
1.429691 -0.77650118 -0.11485187
1.4596037 -0.72507757 -0.13055636
1.5328712 -0.69303602 -0.15075907
1.5603175 -0.63797718 -0.1674239
1.4204376 -0.77198923 -0.17397051
1.4815922 -0.73680681 -0.19379587
1.5076693 -0.68211728 -0.2094602
1.5589192 -0.63785005 -0.23004036
1.4254128 -0.77620846 -0.23515795
1.4986032 -0.74631077 -0.25854445
1.5649213 -0.70874387 -0.2824617
1.6128029 -0.66019303 -0.30392969
1.4922006 -0.81406415 -0.31083947
1.5299437 -0.76281852 -0.32933453
1.5745022 -0.71424246 -0.34999537
1.6200525 -0.66375488 -0.37277308
1.4733356 -0.80560863 -0.37239337
1.5097133 -0.75358731 -0.39076388
1.5552121 -0.7056883 -0.41275722
1.5595469 -0.63832939 -0.42543256
1.4397345 -0.78899926 -0.42948118
1.4638028 -0.73204345 -0.44475856
1.4563602 -0.66129333 -0.45160863
1.4572386 -0.59639472 -0.4622232
5.4049859 -2.9703183 1.9053514
5.6821194 -2.8451531 1.8873965
6.0432086 -2.7442546 1.9010311
6.3810301 -2.6151078 1.90352
6.2636662 -3.4370849 1.907608
6.681241 -3.3476217 1.9131771
7.1134963 -3.2367198 1.9214907
7.5627708 -3.1099036 1.9260833
7.5002422 -4.1154656 1.9428985
8.0114508 -4.0127211 1.9408664
8.5717525 -3.9042161 1.9462986
8.5732059 -3.5325811 1.8230551
8.8033943 -4.8279214 1.8916991
8.7125931 -4.3667579 1.735615
8.6635618 -3.9513288 1.6025085
8.5604515 -3.5311713 1.4693155
8.8165007 -4.8361096 1.5132542
8.7437162 -4.3878956 1.3742082
8.6658163 -3.9578397 1.246115
8.0564251 -3.331656 1.0571721
8.3044348 -4.5571122 1.0710655
8.2243862 -4.1274576 0.95109439
8.149292 -3.7258875 0.84071934
8.0739632 -3.3435299 0.73812544
8.2948408 -4.5535426 0.72178799
8.2325649 -4.1348009 0.61367565
8.1535521 -3.7302446 0.51307034
8.0647774 -3.3428593 0.41506258
8.3092756 -4.5648646 0.37431732
8.2468786 -4.147038 0.27622333
8.1714525 -3.7434368 0.1848212
8.1006346 -3.3616991 0.09567488
8.3168306 -4.5705271 0.026997941
8.2417107 -4.1482244 -0.062966749
8.1551676 -3.7399378 -0.14438671
8.1101465 -3.3691313 -0.22521296
0 -0 -0
1.4552385 -0.73312038 -0.070545994
1.5236121 -0.69985121 -0.088632934
1.5409135 -0.64057052 -0.10411201
1.4196577 -0.78237027 -0.11442937
1.4800469 -0.74659026 -0.13279219
1.5195397 -0.69826967 -0.14986648
1.5655612 -0.65136164 -0.16841222
1.420898 -0.78357112 -0.17461248
1.4797029 -0.74722689 -0.19414485
1.5133704 -0.69591463 -0.21084154
1.5760139 -0.65616238 -0.23315266
1.4370816 -0.79403383 -0.23788233
1.4807667 -0.74880224 -0.25625509
1.5605431 -0.71833271 -0.2824617
1.6132686 -0.67197049 -0.30478871
3.7403202 -2.0703981 -0.78177565
1.5304909 -0.77485293 -0.33046952
1.5700901 -0.72388995 -0.34999537
1.6087271 -0.670672 -0.37110707
1.4461687 -0.80231953 -0.36676419
1.5120127 -0.76636004 -0.3925688
1.5499701 -0.71481049 -0.41252229
1.554706 -0.64751387 -0.4251878
1.4331751 -0.79687816 -0.42897502
1.4429353 -0.73270994 -0.439776
1.4540228 -0.67102343 -0.45215207
1.4420366 -0.60052955 -0.45856148
5.4217076 -3.0229688 1.9177487
5.6876268 -2.8916945 1.8950839
6.0236378 -2.7800748 1.9002053
6.3381734 -2.6430817 1.8955377
6.2475233 -3.4782732 1.9091558
6.6640286 -3.3903112 1.9141693
7.1225882 -3.293757 1.9293694
7.5336695 -3.1521168 1.9235615
7.4612155 -4.1538191 1.939355
7.9858074 -4.0613599 1.9406548
8.5227518 -3.945219 1.9406325
8.5558929 -3.5870156 1.8240197
8.8036604 -4.8985705 1.8981794
8.7207317 -4.4379959 1.7426283
8.6740475 -4.020587 1.6089811
8.6214952 -3.618412 1.4835762
8.8315916 -4.9151216 1.5209923
8.7589798 -4.4630437 1.3808851
8.6728477 -4.0255489 1.2506543
8.0806675 -3.3998911 1.0630707
8.3006258 -4.6215162 1.0742115
8.2272654 -4.1922951 0.95438427
8.1533651 -3.7884068 0.84352177
8.0909452 -3.4088705 0.74157619
8.3094282 -4.6281271 0.72551483
8.226594 -4.195209 0.61513788
8.1712484 -3.7991443 0.51564103
8.106699 -3.4186738 0.4182919
8.3221312 -4.638628 0.37617156
8.2408628 -4.207561 0.27688134
8.1782398 -3.8074303 0.18549964
8.1065693 -3.4226193 0.095991209
8.3314266 -4.6453342 0.027137339
8.2481594 -4.2150984 -0.063212425
8.1728487 -3.8089132 -0.14511082
8.1114197 -3.4281704 -0.22582822
0 -0 -0
1.4471549 -0.74021596 -0.070372984
1.5165746 -0.7079196 -0.088474564
1.5443078 -0.65312344 -0.10461015
1.4069945 -0.78668505 -0.1137956
1.4541448 -0.74475211 -0.13087575
1.5233487 -0.71137309 -0.1506698
1.5606185 -0.66056758 -0.1683134
1.4056511 -0.78644931 -0.17332856
1.4671359 -0.75221384 -0.19309793
1.4946913 -0.69846731 -0.20883232
1.5509744 -0.65693235 -0.23004036
1.41837 -0.79509383 -0.23558812
1.4858152 -0.76283914 -0.25793391
1.5400177 -0.72036892 -0.27954137
1.5991375 -0.6776287 -0.30289885
3.7206848 -2.0894561 -0.78033662
1.5047476 -0.77345562 -0.32592958
1.5629561 -0.73226273 -0.34940016
1.6018803 -0.67938465 -0.3704823
3.1708508 -1.7846872 -0.80692452
1.4986194 -0.77116555 -0.39031267
1.5446749 -0.72389501 -0.41228738
1.5587382 -0.66044545 -0.42739084
1.4139339 -0.79757667 -0.42467263
1.4444165 -0.74464518 -0.44161171
1.4472642 -0.67870677 -0.45133692
1.4418588 -0.61086363 -0.45968819
5.3465066 -3.0241919 1.8976768
5.6706285 -2.9269786 1.8953687
5.996892 -2.8124926 1.8971763
6.3165116 -2.6796634 1.8939413
6.2176509 -3.5117903 1.9065762
6.6396575 -3.4293587 1.9131771
7.088182 -3.3307905 1.9255495
7.495379 -3.1902781 1.9187468
7.4287953 -4.1956854 1.9375834
7.9451051 -4.1022124 1.9368441
8.5045872 -4.0003572 1.942049
8.6005116 -3.6679301 1.8382953
8.846179 -4.9935579 1.9139174
8.7431927 -4.51718 1.7526224
8.7036343 -4.0993657 1.6191046
8.6245651 -3.6821029 1.4879642
8.8563776 -5.0003343 1.5305161
8.7604561 -4.5317183 1.3854755
8.6766815 -4.0922232 1.2548045
8.0970736 -3.4654241 1.0680063
8.3352718 -4.708035 1.0824133
8.2358437 -4.2605224 0.95839393
8.1677799 -3.8562164 0.84744513
8.0836143 -3.464339 0.74283862
8.3216753 -4.7020798 0.72908956
8.2458887 -4.2690034 0.61852765
8.1829891 -3.8658426 0.51786911
8.118618 -3.4825273 0.42000154
8.3135176 -4.7009163 0.37707892
8.2787857 -4.2911658 0.27903491
8.2026234 -3.880198 0.18658923
8.1102238 -3.4829495 0.096285731
8.3558607 -4.7263994 0.027310876
8.2629709 -4.2868118 -0.063526332
8.1899891 -3.8782456 -0.14583492
8.1324797 -3.4960382 -0.22700748
0 -0 -0
1.4656388 -0.76105219 -0.071497567
1.4833297 -0.70351797 -0.086785309
1.5448554 -0.66455883 -0.10492149
1.4064792 -0.79776412 -0.11414769
1.4345127 -0.74584347 -0.1295183
1.5108565 -0.71686417 -0.14986648
1.5483102 -0.66658944 -0.1674239
1.3835052 -0.78524381 -0.1711887
1.4616117 -0.76074332 -0.1929816
1.4903773 -0.70762545 -0.20883232
1.5460044 -0.66604459 -0.22990504
1.3618469 -0.77442884 -0.22698477
1.4705898 -0.76646036 -0.25610244
1.5346774 -0.7293812 -0.27937913
1.5831888 -0.68235916 -0.30066532
3.8360026 -2.1852841 -0.80731922
1.5104203 -0.78812504 -0.32819957
1.5637435 -0.74436665 -0.35059062
1.6003758 -0.69036305 -0.37110707
3.2624273 -1.8626814 -0.83312196
1.4964498 -0.78169954 -0.39098948
1.5366936 -0.73168784 -0.41134769
1.5519853 -0.66884607 -0.42665648
1.3745857 -0.78653789 -0.41429624
1.4423852 -0.75483626 -0.4423984
1.4369909 -0.68467653 -0.44943482
1.4372022 -0.6193195 -0.4594065
5.309618 -3.0464797 1.891183
5.6508636 -2.9608278 1.8947991
5.9665041 -2.8430328 1.893046
6.3300433 -2.731355 1.9029878
6.1943092 -3.5489144 1.9060603
6.6270704 -3.4745328 1.9156574
7.0544662 -3.3679442 1.9219681
7.4819155 -3.2389154 1.9203517
7.3995271 -4.2392502 1.9366976
7.9206505 -4.1513391 1.9370558
8.4692783 -4.0473981 1.9396207
8.6273546 -3.7421079 1.8489058
8.844367 -5.0643458 1.9202124
8.7728558 -4.6009212 1.7641943
8.7014446 -4.1637602 1.6234195
8.6199274 -3.74282 1.4910983
8.8607111 -5.0747309 1.5366173
8.7763224 -4.6084051 1.3924308
8.7005901 -4.168951 1.2619379
8.1457453 -3.5455484 1.0772754
8.8554344 -5.0737619 1.1539825
8.2676706 -4.3414984 0.96517938
8.1807709 -3.9239147 0.85127509
8.085043 -3.5238273 0.74494278
8.5521917 -4.9018021 0.75190687
8.2734175 -4.3478327 0.62258202
8.2059183 -3.9384432 0.52083975
8.1190691 -3.5418618 0.42114127
8.8756485 -5.0909009 0.40398496
8.2761831 -4.3544493 0.2798425
8.201189 -3.941282 0.1871032
8.1189404 -3.5458543 0.096645698
8.8930922 -5.1025562 0.029168585
8.2807522 -4.3607287 -0.063867547
8.2011786 -3.9453301 -0.14646249
8.1374378 -3.5574851 -0.22775094
8.8766928 -5.0993266 -0.34675545
1.4529871 -0.76583827 -0.071108289
1.4762862 -0.71130586 -0.086626939
1.5334336 -0.67082524 -0.10442334
1.3989639 -0.8048867 -0.11393644
1.4396067 -0.75974917 -0.13039666
1.4983544 -0.72222883 -0.14906314
1.5441909 -0.67607713 -0.1674239
1.3881394 -0.7991749 -0.17236562
1.4481345 -0.76505774 -0.19181836
1.4824331 -0.71503288 -0.20833001
1.5364434 -0.6731326 -0.22909313
1.3596413 -0.78425384 -0.22741494
1.4553764 -0.76992363 -0.25427097
1.5257301 -0.7366389 -0.27856794
1.5852879 -0.69482881 -0.30186799
0 -0 -0
1.5064237 -0.79783756 -0.32838872
1.5467936 -0.7479741 -0.34781289
1.5898399 -0.6974194 -0.36964929
3.2357295 -1.8738575 -0.82922482
1.4821575 -0.78584701 -0.38850775
1.5172997 -0.73390788 -0.40735403
1.5487401 -0.67874551 -0.42690128
1.3663869 -0.79301494 -0.41328391
1.4317608 -0.76050359 -0.44056273
1.44489 -0.69935071 -0.45323899
1.4447999 -0.63313287 -0.46306822
5.2800899 -3.0727541 1.8873458
5.6359758 -2.9972456 1.895938
5.9541392 -2.8821023 1.8946981
6.3131647 -2.770144 1.9029878
6.1983132 -3.6019037 1.914057
6.6064816 -3.5155854 1.9159054
7.0310464 -3.4098949 1.9212518
7.4850636 -3.2949591 1.9263127
7.3767486 -4.2865324 1.9375834
7.883812 -4.1938939 1.9343036
8.4592609 -4.1065588 1.9430609
8.6284704 -3.805665 1.8541144
8.8700628 -5.1515861 1.9326177
8.7844362 -4.6759439 1.7722596
8.7112093 -4.2343168 1.6300579
8.6293259 -3.8100014 1.4967399
8.8627539 -5.1483755 1.542421
8.77672 -4.6775389 1.3970212
8.7167492 -4.2426538 1.2680335
8.1873827 -3.6235869 1.0857019
8.8679514 -5.1534648 1.1597124
8.2610655 -4.4029064 0.96754396
8.2048721 -3.9975855 0.85631943
8.1033525 -3.5911336 0.74864602
0 -0 0
8.2712345 -4.411664 0.62444305
8.217494 -4.0062199 0.52312493
8.1474028 -3.6138883 0.42375323
8.9055672 -5.1809402 0.40678602
8.2872219 -4.4253945 0.28112862
8.1723595 -3.9893363 0.18700041
8.1354132 -3.612649 0.097103834
8.9031019 -5.18117 0.02930514
8.278533 -4.4246545 -0.064058617
8.2334118 -4.0232329 -0.14747623
8.143774 -3.6199358 -0.22854564
8.96527 -5.2236347 -0.35146102
1.431523 -0.76578546 -0.070286475
1.4808633 -0.72474051 -0.087154828
1.5402317 -0.68508905 -0.10517057
1.3810755 -0.80591416 -0.11288016
1.4375539 -0.76998001 -0.1306362
1.4885274 -0.72878116 -0.14852758
1.5345588 -0.68311125 -0.1668309
1.3651788 -0.79714894 -0.17011876
1.451291 -0.77815294 -0.19286528
1.4860361 -0.72804374 -0.2094602
1.5359044 -0.68415993 -0.22963439
1.3565121 -0.79358113 -0.22770172
1.4506248 -0.77883917 -0.25427097
1.5167518 -0.74381441 -0.27775672
1.5800949 -0.70414186 -0.30169615
0 -0 -0
1.4608488 -0.7852155 -0.319498
1.5430547 -0.75788301 -0.34801129
1.5846374 -0.70676291 -0.36944103
3.1585088 -1.8551105 -0.81233716
1.473876 -0.79307997 -0.38760528
1.5223645 -0.74791873 -0.40993819
1.5498601 -0.69060344 -0.42836997
1.3031336 -0.76703197 -0.39556813
1.4100786 -0.7601164 -0.43531793
1.4293443 -0.70268363 -0.44970655
1.4303705 -0.63730007 -0.45968819
5.2710099 -3.1109216 1.8908877
5.6242275 -3.0354133 1.8982158
5.9423819 -2.921551 1.8966256
6.3048515 -2.8127558 1.9056486
6.1677718 -3.6349623 1.9114774
6.5771146 -3.551913 1.9136733
7.0178323 -3.4568348 1.9234008
7.4522672 -3.3352578 1.923103
7.3561893 -4.3351803 1.9391336
7.8605108 -4.2435822 1.9349388
8.445323 -4.1640167 1.9456916
8.6237593 -3.8669679 1.8581659
8.879776 -5.2303529 1.9416901
8.7832985 -4.7447295 1.7778702
8.7177811 -4.3038402 1.6361984
8.6409264 -3.8786514 1.5028516
8.8744488 -5.2282586 1.5500103
8.7879219 -4.7529745 1.40342
8.7403297 -4.3206654 1.2752964
8.4565048 -3.8049178 1.1244642
8.8943748 -5.2420888 1.1673524
8.2872639 -4.482379 0.97381538
8.2203455 -4.0677252 0.86052299
8.1175051 -3.6571596 0.75201261
0 -0 0
8.2992916 -4.4922552 0.62863034
8.2061777 -4.063211 0.52398187
8.1478395 -3.6740768 0.42494047
8.910615 -5.2573195 0.40848243
8.2792463 -4.4866381 0.28178665
8.2211781 -4.0758209 0.18868619
8.1623077 -3.6847157 0.09769287
8.9340105 -5.2728047 0.029512817
8.296936 -4.5001588 -0.06441348
8.2354412 -4.0870109 -0.14795898
8.17698 -3.6949477 -0.23010945
0 -0 -0
1.4136268 -0.76740497 -0.069637679
1.4728117 -0.73203546 -0.086943679
1.5350896 -0.69411564 -0.1051083
1.3743876 -0.81335706 -0.11273933
1.4257959 -0.77497792 -0.12999739
1.4742174 -0.73302293 -0.14754573
1.5248988 -0.69005275 -0.16623789
1.3645395 -0.80804354 -0.17065373
1.4229332 -0.77422649 -0.18972452
1.4753234 -0.73405468 -0.20858116
1.5289699 -0.69234514 -0.22922845
0 -0 -0
1.4536291 -0.7919808 -0.25564459
1.5103925 -0.75222719 -0.27743223
1.5685658 -0.71057183 -0.3003217
0 -0 -0
1.3413506 -0.731628 -0.29433921
1.5445148 -0.77039909 -0.34940016
1.575817 -0.7144534 -0.36839977
1.2950615 -0.77136457 -0.334288
1.4629966 -0.7988404 -0.38602597
1.5151373 -0.75594383 -0.40923342
1.5438271 -0.69930005 -0.42788041
1.1862565 -0.70807368 -0.36140198
1.4206272 -0.77709001 -0.44003826
1.4370601 -0.7174589 -0.4535107
1.423811 -0.64487702 -0.45884314
5.2632999 -3.1500747 1.8950201
5.5937257 -3.0634193 1.8942298
5.9226232 -2.9570987 1.8960748
6.2874742 -2.8513887 1.9056486
6.1403761 -3.6697648 1.9099296
6.5492496 -3.5889437 1.9119372
6.9747767 -3.4889691 1.9174317
7.444952 -3.3869674 1.926542
7.3386579 -4.3857384 1.9415697
7.8283243 -4.2884469 1.9334569
8.4213657 -4.2166348 1.9460963
8.6391544 -3.9377155 1.866654
8.8829498 -5.3059049 1.9494665
8.8179054 -4.8335524 1.7908448
8.7176561 -4.3705091 1.6411773
8.6843557 -3.9623461 1.5146049
8.9067192 -5.321157 1.5613199
8.8028679 -4.8311052 1.4105142
8.7579622 -4.3964562 1.2817812
8.6659203 -3.963258 1.1555221
8.9217482 -5.3322492 1.1752172
8.3014612 -4.5561166 0.97875029
8.2245893 -4.1328397 0.86360562
8.150177 -3.7322061 0.75714666
0 -0 0
8.311801 -4.5651898 0.63168782
8.2328262 -4.1394987 0.52729529
8.150568 -3.7356553 0.42627022
8.9279222 -5.341651 0.41077062
8.3365211 -4.5840712 0.284688
8.2513819 -4.1540623 0.18996084
8.1804428 -3.753495 0.098183736
8.9263735 -5.3424168 0.029595319
8.3199797 -4.578948 -0.064809285
8.2334242 -4.1491652 -0.14837734
8.1823149 -3.7579849 -0.23090415
0 -0 -0
1.4141419 -0.77895647 -0.069897197
1.4629432 -0.73835897 -0.086626939
1.507223 -0.69268543 -0.10348933
8.8850889 -5.3320403 -0.73150295
1.4079211 -0.77649093 -0.12879963
1.462579 -0.73846346 -0.14683166
1.520636 -0.69939631 -0.16623789
8.8707819 -5.3268247 -1.1134754
1.4277204 -0.78822327 -0.1910041
1.4637077 -0.73951423 -0.20757656
1.5237929 -0.70129943 -0.22909313
0 -0 -0
1.4418229 -0.79706001 -0.25442359
1.5039874 -0.76059002 -0.27710775
1.5588074 -0.71771097 -0.29929087
0 -0 -0
3.6805952 -2.0369501 -0.81037861
1.5248945 -0.77233309 -0.3460272
1.5722919 -0.7245183 -0.36860803
1.1616081 -0.70156866 -0.30094582
1.4546589 -0.80591369 -0.38512352
1.506135 -0.76302993 -0.40805879
1.5359843 -0.70713776 -0.42690128
1.2952781 -0.78396749 -0.3960743
1.3972696 -0.77548987 -0.43426898
1.4480816 -0.73409569 -0.45840177
1.4259285 -0.6564098 -0.46081483
5.2487736 -3.1852846 1.8967912
5.5748239 -3.0976841 1.8942298
5.9103694 -2.9964266 1.8980023
6.2567286 -2.8838618 1.9016575
6.1003914 -3.696857 1.9045125
6.5304914 -3.6309445 1.9129292
6.9618959 -3.5360975 1.9198194
7.4116602 -3.4268656 1.9233321
7.3057714 -4.4271469 1.9400194
7.8095517 -4.340673 1.9353622
8.393589 -4.2673402 1.9456916
8.636198 -4.0005484 1.871284
8.9057035 -5.3939104 1.9616865
8.8173342 -4.9038363 1.7968061
8.7372522 -4.4476271 1.6499732
8.6733189 -4.0217896 1.5169555
8.9153442 -5.4008131 1.5686116
8.8292971 -4.9163423 1.4195561
8.7714586 -4.4708242 1.2877473
8.6711473 -4.0301642 1.1594946
8.9254036 -5.4090366 1.1800483
8.3220158 -4.6340675 0.98450762
8.2310019 -4.1995163 0.86696845
8.1497097 -3.7926552 0.75925082
0 -0 0
8.3106527 -4.6311612 0.63374823
8.2419491 -4.2076402 0.52952325
8.1818209 -3.8109004 0.42911959
8.9658852 -5.4393482 0.41404513
8.3265676 -4.6453638 0.28531611
8.249773 -4.2168994 0.19051591
8.1844454 -3.8162956 0.098510973
8.9575415 -5.435997 0.029808685
8.3257771 -4.6489248 -0.065075427
8.2665577 -4.2296653 -0.14943936
8.1926203 -3.8237636 -0.23185271
0 -0 -0
1.4058473 -0.78566933 -0.069724187
1.471716 -0.75415266 -0.08741878
1.5291691 -0.71416831 -0.1052951
8.8513517 -5.3859391 -0.7314325
1.4013903 -0.78414166 -0.12863994
1.4482707 -0.7424258 -0.14584979
1.5190204 -0.70997769 -0.16653439
8.8404779 -5.3827057 -1.1137965
1.4254568 -0.7984249 -0.19135307
1.4635562 -0.75074548 -0.20820443
1.5257435 -0.71357429 -0.23004036
0 -0 -0
1.4007024 -0.78558749 -0.24801341
1.4966588 -0.76845187 -0.27662104
1.5490204 -0.72475719 -0.29826
0 -0 -0
3.6252165 -2.0354583 -0.80092043
1.5009509 -0.77181453 -0.34166217
1.5642736 -0.73249292 -0.36777502
1.2846657 -0.7866891 -0.33407152
3.0666771 -1.7236847 -0.81469303
1.497103 -0.77003407 -0.40688419
1.5289818 -0.71531647 -0.42616692
1.2277765 -0.75344396 -0.37684003
1.3353056 -0.75185347 -0.41643667
1.4127451 -0.72711247 -0.44861963
1.4166594 -0.66270739 -0.45912483
5.2283163 -3.2169299 1.8964961
5.5281544 -3.116298 1.8848341
5.8961463 -3.0348353 1.899379
6.2293134 -2.9177005 1.8987305
6.0948796 -3.7448401 1.9099296
6.506402 -3.6699946 1.9124331
6.9348898 -3.5760782 1.9183869
7.388732 -3.4714506 1.9228736
7.2651758 -4.4637232 1.9364761
7.8006487 -4.3985906 1.9398079
8.3655062 -4.3178639 1.945287
8.6576538 -4.0751939 1.8813157
8.9101229 -5.4715943 1.9700184
8.8308086 -4.9825196 1.8057481
8.7544765 -4.5242438 1.658437
8.6994047 -4.0989275 1.525888
8.9275389 -5.4833622 1.5766474
8.8429375 -4.995265 1.4266504
8.7773247 -4.5418768 1.2926756
8.6947289 -4.1061854 1.1659951
8.9513102 -5.5001144 1.1879132
8.3358622 -4.7090163 0.98954529
8.2483997 -4.2723799 0.87154579
8.1397963 -3.8489785 0.76051325
0 -0 0
8.3011885 -4.6928697 0.63521045
8.2478876 -4.2746711 0.53157991
8.1943979 -3.878123 0.43101919
8.9468098 -5.5031586 0.4147158
8.3501005 -4.7259073 0.28711075
8.2867508 -4.3001351 0.19197556
8.2069616 -3.8882775 0.099067293
8.9734154 -5.5212512 0.029973686
8.357131 -4.7339311 -0.065546297
8.2706175 -4.2959785 -0.14998646
8.2042303 -3.890666 -0.2328525
0 -0 -0
1.3940471 -0.79033875 -0.06937816
1.4431415 -0.75072575 -0.085993469
1.4877889 -0.70599473 -0.10274211
8.8427582 -5.4553375 -0.73347461
1.4026207 -0.79617018 -0.12919888
1.4313186 -0.74486119 -0.14460017
1.5119388 -0.71800423 -0.16623789
8.9037323 -5.4963875 -1.1259936
1.395488 -0.79292679 -0.18797967
1.4474831 -0.75375479 -0.20657195
1.515967 -0.72037119 -0.22922845
0 -0 -0
1.4199073 -0.80785137 -0.25228685
1.4892905 -0.77625245 -0.27613431
1.5463237 -0.73509407 -0.29860359
0 -0 -0
3.6314301 -2.0683556 -0.80508196
1.5118265 -0.78917354 -0.34523356
1.5597496 -0.74207735 -0.36777502
0 -0 -0
3.0450411 -1.736196 -0.81176007
1.4871801 -0.7765063 -0.40547466
1.5228126 -0.72385216 -0.42567736
0 -0 -0
1.3725648 -0.78396308 -0.42954868
1.4099631 -0.73665857 -0.44916311
1.4116998 -0.67097551 -0.45884314
5.2101007 -3.2499611 1.8970865
5.4989433 -3.144449 1.8814174
5.8723016 -3.068285 1.8977269
6.1938848 -2.9475834 1.893409
6.0357041 -3.7596908 1.8985794
6.4719892 -3.7031124 1.9089611
6.9050732 -3.6145091 1.916238
7.3778334 -3.5217533 1.9256248
7.2517214 -4.5169826 1.940241
7.7701192 -4.4444308 1.9389611
8.3527336 -4.3763843 1.9485247
8.6776304 -4.1498289 1.8911543
8.8655376 -5.5194111 1.9676114
8.8257046 -5.0512815 1.811008
8.7693415 -4.6003227 1.6665692
8.7025967 -4.1658745 1.5309026
8.9424124 -5.5683546 1.5852785
8.8585186 -5.0760164 1.4341619
8.7905502 -4.6173196 1.2987714
8.7203865 -4.1839352 1.1728566
8.9367914 -5.567019 1.1904973
8.7124424 -4.9925156 1.037866
8.2467041 -4.3358841 0.8741613
8.1564445 -3.9182677 0.7643007
0 -0 0
8.8954468 -5.1010962 0.68306559
8.2577295 -4.3442564 0.5339222
8.2010565 -3.9430463 0.43263388
8.9781609 -5.5986638 0.41775358
8.9034729 -5.1114821 0.30721059
8.2823248 -4.3625493 0.19248953
8.2054739 -3.9494028 0.099339992
8.9741564 -5.5979066 0.030090328
8.8993073 -5.1134281 -0.070043437
8.2626762 -4.3564377 -0.15032437
8.1982155 -3.9496107 -0.23336524
0 -0 -0
1.3649217 -0.78493214 -0.068167068
1.4261451 -0.7530387 -0.085254423
1.4861262 -0.71641058 -0.10292892
8.9300585 -5.5851326 -0.74354446
1.381296 -0.79531133 -0.12768172
1.4452157 -0.76339883 -0.14647461
1.5048161 -0.72597069 -0.1659414
8.9102945 -5.5762339 -1.1311293
1.3639205 -0.78609955 -0.18437362
1.4323056 -0.75705904 -0.20506506
1.5106261 -0.72922868 -0.22909313
3.1913137 -2.0008307 -0.54573852
1.3849646 -0.79925925 -0.24694502
1.474033 -0.77983868 -0.27418742
1.5373485 -0.74242628 -0.29774457
0 -0 -0
3.5812597 -2.0689855 -0.79675883
1.4887683 -0.78879881 -0.34106693
1.5542864 -0.75120825 -0.36756676
3.1174688 -1.9620447 -0.81688386
3.0233672 -1.7485069 -0.8088271
1.473799 -0.78106517 -0.40312544
1.5235811 -0.73571205 -0.42714608
2.4483323 -1.5441329 -0.75722319
1.3293188 -0.77011812 -0.41748565
1.396064 -0.74033642 -0.44617411
1.3531203 -0.65334105 -0.44109786
5.1908689 -3.2823792 1.8973817
5.5135441 -3.1978498 1.8930908
5.8678026 -3.1119163 1.902408
6.1826258 -2.9888895 1.8955377
6.0321274 -3.8090348 1.9047705
6.4466314 -3.7412953 1.908217
6.8896255 -3.6604548 1.918148
7.3771057 -3.5771492 1.9311273
7.2139745 -4.5551453 1.9375834
7.7325583 -4.4861379 1.9364207
8.3378286 -4.4339905 1.9513577
8.7040768 -4.2282915 1.9025364
8.819869 -5.5663624 1.9650193
8.866065 -5.1468587 1.8257359
8.7809896 -4.6753626 1.6742033
8.6875296 -4.2243772 1.5327832
8.9523964 -5.6510949 1.5931653
8.8580284 -5.1481895 1.4391698
8.7891769 -4.6856303 1.3027918
8.7284613 -4.2538905 1.177431
8.9562359 -5.655705 1.197688
0 -0 0
8.2568369 -4.4060898 0.87808466
8.1949358 -3.9988296 0.77019221
8.99895 -5.6846557 0.81191641
8.8976183 -5.1751466 0.6856578
8.2811174 -4.4216466 0.53717852
8.2269707 -4.0178399 0.43529329
9.0137424 -5.6979628 0.42102808
8.9004469 -5.1826148 0.30819762
8.2712708 -4.4217706 0.19285958
8.2260027 -4.0216355 0.099885397
8.9810534 -5.6790538 0.030229727
8.8945465 -5.1835451 -0.070254982
8.2860403 -4.4339442 -0.15124159
8.2268047 -4.025764 -0.23487777
8.9425688 -5.6612754 -0.35850242
0 -0 -0
1.428539 -0.76554865 -0.085676737
1.4718423 -0.72068775 -0.10224397
8.9192095 -5.6547766 -0.74551612
1.3798331 -0.8057825 -0.12800112
1.4211924 -0.76189893 -0.14451091
1.4994397 -0.73475248 -0.16584256
8.8826284 -5.6350627 -1.1319853
1.3625013 -0.7964586 -0.18483892
1.4547348 -0.78037137 -0.20895788
1.5070128 -0.73892021 -0.22922845
4.7108326 -2.9939339 -0.80871391
1.351035 -0.79076862 -0.24175583
1.4587879 -0.78326708 -0.27224052
1.5274575 -0.74924225 -0.29671371
0 -0 -0
3.551553 -2.0809922 -0.79297554
1.4744047 -0.79281288 -0.33888441
1.5426239 -0.75728297 -0.36590075
3.0708032 -1.9590827 -0.80779052
2.9991364 -1.7591387 -0.80521727
1.4664105 -0.78871226 -0.40242067
1.5155561 -0.74333882 -0.42616692
2.4396267 -1.5596477 -0.75747621
1.3212402 -0.77630466 -0.41643667
1.3914951 -0.74888861 -0.44617411
1.3826839 -0.67810875 -0.45208302
5.1762614 -3.3177769 1.8994479
5.4996023 -3.2350221 1.8950839
5.8409791 -3.1437612 1.8999298
6.1944542 -3.0416396 1.9048504
6.0167799 -3.8511841 1.9073502
6.4293981 -3.7842202 1.909953
6.8507957 -3.6939032 1.9136118
7.3209629 -3.6055748 1.922186
7.1637125 -4.5851297 1.9316038
7.7090979 -4.5359778 1.9374793
8.305294 -4.482276 1.9501435
8.7096472 -4.2972488 1.9094814
8.7996206 -5.6293778 1.9681668
8.8767376 -5.2261376 1.8345026
8.7816343 -4.7450929 1.6798459
8.7039528 -4.2985954 1.5403054
8.9741936 -5.7421608 1.6032845
8.9064646 -5.249712 1.4522455
8.8152037 -4.7691965 1.3109628
8.7306662 -4.3214598 1.1812832
8.9774361 -5.7464442 1.2052156
0 -0 0
8.2953081 -4.4922285 0.88509065
8.1952448 -4.0614271 0.77254885
8.9983292 -5.7618103 0.81503481
8.9060888 -5.2534704 0.68878168
8.310008 -4.5028157 0.54083467
8.224534 -4.07934 0.43648052
9.0189943 -5.7790384 0.42292175
8.9158163 -5.2650833 0.30984268
8.2949533 -4.5000906 0.19405197
8.2423697 -4.0924892 0.10038716
9.0142326 -5.7777634 0.030460162
8.9271383 -5.2761831 -0.070766799
8.3034916 -4.509038 -0.15206224
8.2386513 -4.0944076 -0.23592883
8.9707499 -5.7565217 -0.3610414
2.0989914 -1.2415997 -0.1055811
1.4211831 -0.77286839 -0.085518375
1.4664987 -0.7292608 -0.1021817
8.9103584 -5.7261147 -0.74769902
1.3645709 -0.80813849 -0.12704292
1.4191155 -0.7720328 -0.14477868
1.4717401 -0.73241198 -0.16327289
9.025178 -5.8034635 -1.1546677
8.8435497 -5.2426205 -1.2040703
1.414194 -0.76983529 -0.20380928
1.4935813 -0.74373662 -0.22787528
4.6299748 -2.9825859 -0.79795969
1.3368092 -0.79349464 -0.24007697
1.4643521 -0.79786861 -0.27418742
1.5201861 -0.75728267 -0.29619828
0 -0 -0
1.2037717 -0.71529448 -0.26974788
1.4480032 -0.79010814 -0.33392417
1.5396988 -0.76760685 -0.36631724
3.0857785 -1.9953821 -0.81493527
1.2073714 -0.71817493 -0.32533574
1.4555711 -0.79443544 -0.40077624
1.5187775 -0.75651479 -0.42836997
2.4365063 -1.5787964 -0.75950092
1.299872 -0.77451801 -0.41119188
1.3311286 -0.72696847 -0.42824021
1.3638961 -0.67930776 -0.44729462
5.1477942 -3.3442702 1.8964961
5.4557748 -3.2544646 1.8868271
5.7937369 -3.164335 1.8908432
6.1817126 -3.0826018 1.9067129
5.9865518 -3.8838232 1.9052863
6.4085531 -3.8250887 1.9106971
6.8356681 -3.7400644 1.9157605
7.293478 -3.647815 1.9208102
7.1305356 -4.6258149 1.9302751
7.6727276 -4.5781865 1.9353622
8.2767763 -4.5326819 1.9499412
8.7103109 -4.3642354 1.9154618
8.7616158 -5.6811271 1.9674262
8.89184 -5.3087678 1.8443211
8.8172054 -4.8344445 1.6922929
8.7250862 -4.3758302 1.5487677
8.975297 -5.8207927 1.6098322
8.9089365 -5.3250933 1.4579488
8.8353186 -4.8503947 1.3183554
8.7607536 -4.403482 1.1889875
8.9378395 -5.7987165 1.2046537
0 -0 0
8.2963829 -4.5588655 0.88817328
8.2164545 -4.1349282 0.77692544
8.997098 -5.8391709 0.8181532
8.9139318 -5.3320918 0.6919055
8.3198423 -4.5744038 0.54329121
8.256443 -4.1584845 0.43951988
9.0093431 -5.851141 0.42414474
8.9262199 -5.3453674 0.31133822
8.3276196 -4.5841703 0.19547051
8.2483549 -4.1587434 0.10076896
9.0255709 -5.8634725 0.030619476
8.9460592 -5.3617034 -0.071176246
8.3203306 -4.5845113 -0.15288289
8.2758465 -4.1764092 -0.23772337
0 -0 -0
0 -0 -0
1.4006763 -0.77288991 -0.084568165
1.4566511 -0.73554617 -0.1018081
8.8867579 -5.7883024 -0.74868494
8.8403025 -5.309021 -0.82605839
1.4169676 -0.78216982 -0.14504647
1.4814287 -0.74860954 -0.16485423
8.9727383 -5.8478742 -1.1525279
8.8410082 -5.3146949 -1.2081417
1.4189963 -0.78377444 -0.20519061
1.4633479 -0.73992169 -0.22395106
4.0978074 -2.6754882 -0.70905858
0 -0 -0
1.4387034 -0.79538065 -0.27029365
1.5032039 -0.76037085 -0.29379296
3.4436867 -2.252182 -0.75245458
0 -0 -0
3.3870203 -1.8752011 -0.78371984
1.5218705 -0.77041352 -0.36319345
2.934664 -1.9233041 -0.77812898
1.2438186 -0.75022501 -0.33639082
1.4328121 -0.79346281 -0.39584288
1.5063201 -0.76188105 -0.42616692
2.421921 -1.5905304 -0.75798243
1.3240036 -0.79994529 -0.42037025
1.3283266 -0.73605531 -0.42878366
1.3108969 -0.66298056 -0.43123931
5.1239858 -3.373692 1.8953154
5.484097 -3.3171513 1.9036255
5.775053 -3.2002914 1.8911185
6.1575217 -3.1178613 1.9051164
5.9690666 -3.9247293 1.9073502
6.3833046 -3.8633356 1.910201
6.8193836 -3.7857075 1.9176706
7.2692227 -3.6916168 1.9203517
7.1085362 -4.6737657 1.9320467
7.6428194 -4.6241674 1.9349388
8.2419605 -4.5795765 1.9483222
8.7498331 -4.4514122 1.9301233
8.7011337 -5.7180495 1.9616865
8.9020519 -5.3892303 1.8532631
8.8270168 -4.9105072 1.699927
8.7359171 -4.4485555 1.5555062
8.9526339 -5.8844447 1.6122131
8.9048882 -5.3971081 1.4626783
8.8365755 -4.921885 1.3230244
8.7654009 -4.4733996 1.1933211
8.8904676 -5.8458061 1.2030809
0 -0 0
8.3030376 -4.6290784 0.89190984
8.2432814 -4.2120161 0.78189117
8.9477711 -5.8854985 0.81693619
8.9211435 -5.4110065 0.69502938
8.3474178 -4.6564946 0.54694742
8.270792 -4.2295322 0.44165695
8.9816179 -5.9118052 0.42453927
8.9598951 -5.4405022 0.31367123
8.3342495 -4.6546817 0.19629285
8.2627354 -4.2297797 0.10125981
9.0036221 -5.9280906 0.03066784
8.9651194 -5.448173 -0.071592517
8.3147354 -4.6481624 -0.15330127
8.274086 -4.239418 -0.23841552
0 -0 -0
0 -0 -0
1.4028783 -0.7853722 -0.084990479
1.4689851 -0.75312144 -0.10299119
2.4325469 -1.6057591 -0.20576161
8.7998991 -5.3584981 -0.82533973
1.4025825 -0.785496 -0.14406462
1.4626415 -0.75041735 -0.16327289
2.4631476 -1.6269469 -0.31766203
8.874382 -5.4091625 -1.2172149
1.3804076 -0.77355206 -0.20029317
1.4570174 -0.74798167 -0.22368042
2.436408 -1.6121571 -0.42328429
0 -0 -0
1.4337959 -0.80419338 -0.27029365
1.5081496 -0.77453053 -0.29568288
2.4401369 -1.6173202 -0.53533465
0 -0 -0
3.3780138 -1.897388 -0.78431505
1.5162448 -0.77928996 -0.36298519
2.4153419 -1.6042253 -0.64302808
1.2450097 -0.76140076 -0.33797014
1.4253742 -0.80081111 -0.39513811
1.5007545 -0.77066642 -0.42592216
2.3887601 -1.5898167 -0.75064301
1.1067683 -0.67799932 -0.35271242
1.3070072 -0.73475981 -0.42334914
1.2965615 -0.66575217 -0.42785928
5.1031885 -3.4050689 1.8953154
5.4530168 -3.3442235 1.8999242
5.7636871 -3.2403772 1.893872
6.1202722 -3.1463294 1.8995289
5.9424605 -3.9596736 1.9065762
6.3578281 -3.9014168 1.909705
6.7960262 -3.8274794 1.9176706
7.2481647 -3.7370424 1.9208102
7.0983901 -4.729732 1.9371405
7.6143022 -4.6709762 1.9349388
8.2026157 -4.6238108 1.9456916
8.7615862 -4.5252786 1.9388045
8.6617947 -5.7686076 1.9607607
8.9166431 -5.4731073 1.8632572
8.8250608 -4.9805708 1.7054037
8.7663612 -4.5320096 1.5658492
9.0381622 -6.0204005 1.6342371
8.9365702 -5.4915681 1.4733894
8.8528252 -5.0023537 1.3300279
8.7589426 -4.5380592 1.1962103
8.7948952 -5.8605742 1.1949915
0 -0 0
8.3238754 -4.7078762 0.89723438
8.2376251 -4.2730694 0.78382695
8.9587812 -5.9718142 0.82127154
8.9234715 -5.4875965 0.69782096
8.3543139 -4.7277861 0.5492897
8.2650747 -4.2907872 0.44274926
8.9875689 -5.9950824 0.42655128
8.9620943 -5.5173855 0.31492746
8.378602 -4.7471318 0.19801979
8.2916384 -4.3089876 0.10193612
9.0236425 -6.0209661 0.03086129
8.9843054 -5.5356016 -0.072015621
8.3852091 -4.7553229 -0.15513566
8.2700901 -4.3016396 -0.23905644
0 -0 -0
0 -0 -0
1.3936912 -0.79149956 -0.084726527
1.4501711 -0.75474846 -0.1019949
2.4243064 -1.6217639 -0.20590243
8.8202896 -5.4453821 -0.83037031
1.3994684 -0.7950713 -0.14424314
1.4474186 -0.75386178 -0.16208689
2.4126325 -1.6149299 -0.31241935
8.8748207 -5.4843979 -1.2218679
1.3946095 -0.79279387 -0.20305584
1.4488858 -0.75507605 -0.22313914
2.4297581 -1.6292809 -0.42385787
0 -0 -0
4.0875301 -2.325716 -0.77324098
1.4832773 -0.77329522 -0.29173127
2.4162855 -1.6229382 -0.53227663
0 -0 -0
3.4003718 -1.9374883 -0.79225147
1.5027632 -0.78405452 -0.36090267
2.4062631 -1.6195605 -0.64324462
1.1906357 -0.73822355 -0.3244333
2.9498067 -1.6811714 -0.82058114
1.5020158 -0.78299773 -0.42763564
2.397408 -1.6168857 -0.75646394
1.2976919 -0.80595011 -0.41512546
1.2932782 -0.73752147 -0.42036015
1.2975572 -0.67635632 -0.42954931
5.0861564 -3.438993 1.8967912
5.4209971 -3.3705335 1.895938
5.7428613 -3.2752054 1.8935966
6.0982871 -3.1824853 1.8987305
5.9188533 -3.9966021 1.9068341
6.3387051 -3.9434247 1.9111931
6.7749434 -3.8705521 1.9183869
7.219924 -3.778738 1.9194348
7.0579209 -4.7655582 1.9340401
7.5672398 -4.7062531 1.9302814
8.1621876 -4.6672482 1.9428586
8.753643 -4.5894332 1.9432417
8.631938 -5.8254948 1.9620568
8.9372244 -5.5615258 1.8746537
8.8576641 -5.0708823 1.7176847
8.7803659 -4.6077428 1.5733713
8.9010582 -6.0082483 1.6160822
8.9581804 -5.5808582 1.4825702
8.8580961 -5.0772891 1.3354752
8.8021021 -4.6291466 1.205961
14.075299 -9.5044575 1.9203454
0 -0 0
8.757719 -5.0244269 0.94730389
8.2641525 -4.3513889 0.78887677
8.9864187 -6.0702057 0.82720405
8.9988585 -5.610343 0.70639497
8.8992062 -5.1084905 0.58716589
8.2924967 -4.3698254 0.44564614
9.1236334 -6.1670675 0.43479669
8.9780998 -5.6034966 0.3166922
8.9188242 -5.1257553 0.21152672
8.2871542 -4.3714466 0.10220882
8.9799013 -6.0717397 0.030838531
8.9900322 -5.6155229 -0.072336361
8.9053621 -5.1227751 -0.16533752
8.2789011 -4.3709726 -0.24008189
0 -0 -0
2.0085883 -1.2556659 -0.10255338
1.3801553 -0.79505152 -0.084198639
1.4428653 -0.76223373 -0.1018081
2.4167869 -1.6382879 -0.20611368
8.8695173 -5.5512261 -0.8381958
1.3695375 -0.78922153 -0.14165461
1.4471644 -0.76505417 -0.16258106
2.4117293 -1.6358426 -0.31359631
8.8915024 -5.5703874 -1.2288473
1.3604976 -0.78448671 -0.19878626
1.4363432 -0.75978255 -0.22192129
2.4156225 -1.641378 -0.42314091
0 -0 -0
1.3930525 -0.80397129 -0.26445296
1.4750217 -0.78053886 -0.29104403
2.4087214 -1.639394 -0.53281629
0 -0 -0
3.4215143 -1.9774431 -0.79998946
1.4910091 -0.78959864 -0.35923663
2.3769228 -1.6210926 -0.63804841
2.9148953 -1.8321635 -0.79732072
2.9352281 -1.696807 -0.81940651
1.4800432 -0.78312993 -0.42273998
2.3802533 -1.6266528 -0.75418621
2.4278355 -1.5285641 -0.77963865
1.2753997 -0.73773313 -0.41601253
1.2891423 -0.68206161 -0.42814094
5.0759945 -3.4776967 1.9009237
5.3750739 -3.387887 1.8871118
5.7151675 -3.3060489 1.8911185
6.0684233 -3.2144296 1.8955377
5.9045849 -4.0399365 1.9101876
6.302918 -3.9750092 1.9077209
6.7233396 -3.8959825 1.910508
7.1966023 -3.8229675 1.9194348
7.0245228 -4.8060217 1.9329327
7.5357409 -4.7510328 1.9296464
8.1283131 -4.7142944 1.9416443
8.7513037 -4.6568861 1.9490291
8.5814304 -5.8683648 1.9587241
8.9320745 -5.6346431 1.8807902
8.8843727 -5.1588087 1.7289701
8.7885399 -4.6810317 1.5799531
8.930954 -6.1085286 1.6282846
8.9664688 -5.6626868 1.4896644
8.8833523 -5.1644373 1.3440351
8.8015566 -4.6980267 1.2098131
14.06346 -9.6226263 1.9267495
8.9727793 -5.6668911 1.0968789
0 -0 0
8.2522383 -4.4099989 0.79030758
0 -0 0
8.9946289 -5.6846442 0.70878774
8.9134207 -5.1896219 0.59019363
8.3130913 -4.4460635 0.4482106
9.1268406 -6.2511644 0.43676925
8.9959192 -5.6916142 0.31854665
8.9139814 -5.195992 0.21216404
8.296319 -4.4415631 0.10265605
0 -0 0
8.9993391 -5.6983972 -0.072691217
8.8979435 -5.1914296 -0.16578807
8.3056746 -4.4504895 -0.24164568
0 -0 -0
0 -0 -0
1.3623177 -0.79594857 -0.083406806
1.4434388 -0.77390224 -0.1021817
2.4132671 -1.6576043 -0.20667705
8.9472342 -5.6765676 -0.84881592
1.3612294 -0.79559958 -0.14129756
1.4310436 -0.76780331 -0.16129622
2.3934526 -1.6449783 -0.31252638
3.175128 -2.0164018 -0.44051918
1.3573712 -0.79382145 -0.1990374
1.4264164 -0.7657696 -0.22110938
2.4152875 -1.6629037 -0.42486158
0 -0 -0
1.3531779 -0.79206651 -0.25780109
1.482355 -0.79610008 -0.29344934
2.3953779 -1.651909 -0.53209674
3.4319601 -2.1844687 -0.78370649
3.3611195 -1.9701488 -0.78868008
1.4818286 -0.79641724 -0.35819536
2.364522 -1.6339816 -0.63739896
2.9183877 -1.8594372 -0.80138183
2.9432089 -1.7256011 -0.82457477
1.4743558 -0.79173785 -0.42249519
2.3686366 -1.6401256 -0.75368005
2.3972607 -1.5299343 -0.77282041
1.1928217 -0.69977015 -0.39047027
1.2908503 -0.69313622 -0.43011266
5.0545602 -3.5087769 1.9009237
5.3541851 -3.420804 1.8871118
5.7096996 -3.3498106 1.8960748
6.0494347 -3.2520607 1.8958038
5.8955655 -4.0870996 1.9153467
6.2669816 -4.0063033 1.9042487
6.6993079 -3.9371629 1.910508
7.2021399 -3.8827577 1.9272298
6.9940996 -4.8484769 1.9327111
7.5377412 -4.8171811 1.937691
8.0806637 -4.7531571 1.9371926
8.7346516 -4.7170229 1.9517299
8.536376 -5.914753 1.9566875
8.9072866 -5.6957078 1.8828943
8.8822927 -5.2307391 1.7347785
8.8135195 -4.7639861 1.589669
9.0217218 -6.2522082 1.6517967
8.979928 -5.7485638 1.4977324
8.9095783 -5.2530923 1.3528545
8.8127184 -4.773694 1.2153506
14.015585 -9.7166624 1.9283224
9.0056963 -5.7652812 1.1052065
0 -0 0
8.2486744 -4.4733768 0.79258007
0 -0 0
8.9990673 -5.7650242 0.71191162
8.9226751 -5.2685819 0.59293586
8.3111124 -4.5108056 0.44958776
9.1621943 -6.3583207 0.44031993
9.0155172 -5.7817783 0.32049081
8.9361525 -5.2826419 0.21345922
8.3093271 -4.5143433 0.10315783
0 -0 0
9.0222721 -5.7907782 -0.073162086
8.9012032 -5.2668047 -0.16644782
8.3194876 -4.5238132 -0.24285057
0 -0 -0
1.9896659 -1.2780601 -0.10238037
1.3574082 -0.80429262 -0.083406806
1.4334029 -0.77988249 -0.1018081
2.4096007 -1.6769391 -0.20724037
8.9793072 -5.7744937 -0.85520399
1.3537517 -0.8024134 -0.14102979
1.4367931 -0.78227961 -0.16248222
2.396369 -1.6687239 -0.31423825
3.170212 -2.0406845 -0.44156611
3.1094124 -1.8441519 -0.4575977
1.4173405 -0.77213752 -0.22043279
2.4090972 -1.6805235 -0.42557853
0 -0 -0
1.3678083 -0.8119393 -0.26153263
1.4679271 -0.79999506 -0.29155946
2.3795524 -1.6626319 -0.53083754
3.4217925 -2.2076151 -0.78446317
1.223321 -0.72718173 -0.28809142
1.4640338 -0.79846996 -0.35507157
2.4152322 -1.6910146 -0.65385354
2.910197 -1.8794233 -0.8022843
