# .PCD v0.7 - Point Cloud Data file format
VERSION 0.7
FIELDS x y z
SIZE 4 4 4
TYPE F F F
COUNT 1 1 1
WIDTH 1535
HEIGHT 1
VIEWPOINT 0 0 0 1 0 0 0
POINTS 1535
DATA ascii
0 -0 0
0.84395421 -0.16658801 0.13649465
8.404129 -2.6491766 1.3260505
8.3338079 -2.2953665 1.2142385
0.80575079 -0.1904278 0.10829579
0.81990945 -0.1626002 0.10135947
7.910955 -2.4952347 0.93792671
7.8454685 -2.1610112 0.84108782
0.78379422 -0.18557093 0.075571328
0.81313199 -0.16166916 0.070025124
7.9141374 -2.4976056 0.63302857
7.8479791 -2.1643555 0.54229176
0.80339152 -0.19041808 0.047245197
0.82288992 -0.16389295 0.039891597
7.9330206 -2.5063055 0.32847446
0 -0 0
0.82000256 -0.19479361 0.017330842
0.82468218 -0.16460909 0.0091737052
7.9350052 -2.5081511 0.023675116
0 -0 -0
0.80831891 -0.19236095 -0.013371821
0.81557751 -0.16310261 -0.021329217
7.9282227 -2.5105739 -0.28169012
0.79622257 -0.22063343 -0.035770409
0.82369161 -0.19655102 -0.044765171
0 -0 -0
7.9456415 -2.5218892 -0.58848381
7.8787303 -2.1876404 -0.65501755
0 -0 -0
0.82834977 -0.16612303 -0.083909616
1.5748906 -0.50034302 -0.17782226
7.7594123 -2.1581571 -0.94327176
6.190762 -1.4799938 -0.80569339
0.87621331 -0.17594464 -0.12205671
2.8618948 -0.9118098 -0.43518558
2.8864462 -0.80455619 -0.46275482
1.3300325 -0.31850401 -0.22486614
0 -0 -0
4.1323361 -1.3200734 -0.79328823
2.9280844 -0.81764948 -0.58565176
1.2770604 -0.30664369 -0.2658695
0 -0 -0
3.4352281 -1.1010176 -0.79999626
1.5029975 -0.42043808 -0.36143404
3.2483969 -0.78035456 -0.8074255
3.1711328 -0.63717014 -0.81659555
1.4874201 -0.47827613 -0.40872845
1.4141389 -0.39672598 -0.39912885
1.3539487 -0.32563078 -0.39318752
2.7149067 -0.54540288 -0.81290448
5.8627305 -1.8927771 1.9032851
6.1637077 -1.7324966 1.9016324
6.444653 -1.5501541 1.8985531
0 -0 0
6.8226089 -2.1979403 1.913799
7.2151165 -2.0300651 1.9188815
7.600934 -1.8343139 1.9224455
0.80897176 -0.16392009 0.19441956
8.1402874 -2.6222806 1.9422342
8.3349142 -2.3438787 1.8754511
8.2329311 -1.9901776 1.7502117
0.82403302 -0.16758588 0.1653289
8.4161835 -2.709049 1.6658136
8.3424129 -2.3483443 1.5434508
0 -0 0
0.8332386 -0.16979125 0.13492756
8.410306 -2.7079673 1.3296219
8.3453016 -2.3537166 1.2179945
0 -0 0
0.81889635 -0.16762801 0.10135947
7.9181948 -2.5510416 0.94062322
7.8397193 -2.2112696 0.84191024
0.77006447 -0.18731751 0.074356958
0.81310081 -0.16685572 0.070109293
7.9242873 -2.5543785 0.63508219
7.840312 -2.2140961 0.54269052
0.81384826 -0.19817851 0.04793074
0.82871771 -0.17034686 0.040224027
7.9260511 -2.5576961 0.32882953
7.8752089 -2.228107 0.24490705
0.81587803 -0.19911027 0.017269166
0.82561547 -0.17006963 0.0091955215
7.9318371 -2.560786 0.023712099
7.8652253 -2.2283962 -0.055787709
0.80809468 -0.19755453 -0.013387913
0 -0 -0
7.9440494 -2.5693226 -0.28280729
0 -0 -0
0.82053024 -0.20112592 -0.044659592
0 -0 -0
1.5761349 -0.51092005 -0.11696442
7.8968 -2.2449372 -0.65765268
7.8286347 -1.9202353 -0.72237605
0.8312127 -0.17200917 -0.084304951
1.6001625 -0.51920265 -0.18103205
7.3629737 -2.0966516 -0.89662576
6.1796379 -1.5174787 -0.80544227
0.86929601 -0.18011156 -0.1212448
2.8534229 -0.92843425 -0.43475541
2.8919091 -0.82523507 -0.4644337
1.2973911 -0.31911704 -0.21967442
0 -0 -0
4.2934265 -1.4006234 -0.82584721
2.9390624 -0.84018874 -0.58886755
3.7712228 -0.93004459 -0.78629917
3.7166021 -0.7718786 -0.8082304
3.4386141 -1.1254154 -0.80237782
2.9043119 -0.83168042 -0.69962978
3.2577031 -0.80376422 -0.81094933
3.1965945 -0.66271752 -0.82418382
1.4964066 -0.49131703 -0.41201848
1.4255908 -0.40939087 -0.40306243
1.3369766 -0.33023995 -0.38883993
2.699295 -0.55951917 -0.80924273
5.8954697 -1.9433712 1.9177487
6.148355 -1.7689586 1.9002088
6.4844842 -1.6018878 1.9131467
0 -0 0
6.7979813 -2.2361391 1.9107035
7.1978698 -2.0729575 1.9176414
7.5961337 -1.882553 1.9241168
0.8165257 -0.17067313 0.19648299
8.1203394 -2.6709604 1.9413483
8.3307076 -2.3979506 1.87778
8.2737913 -2.0538695 1.7615441
0.83355266 -0.1748548 0.16745098
8.4087372 -2.7637069 1.6676649
8.3552818 -2.407393 1.5485356
8.3284588 -2.0719159 1.4443488
0.8321811 -0.17490071 0.13492756
8.4160776 -2.7669334 1.3331934
8.3582935 -2.4128432 1.2220285
0 -0 0
0.82368028 -0.17387979 0.10208175
7.9250469 -2.6070311 0.94331974
7.8594518 -2.2689879 0.84550858
0.760207 -0.18986771 0.073516242
0.81498629 -0.17246054 0.070361786
7.9321423 -2.6107461 0.63698357
7.8380814 -2.2654862 0.54348809
0.79227728 -0.19808319 0.046731044
0.83254272 -0.17646416 0.040461477
7.9339347 -2.6140988 0.32981583
7.8901925 -2.2847266 0.24580435
0.83209753 -0.2084865 0.01763922
0.82553446 -0.17534007 0.0092064301
7.9359193 -2.6159811 0.023771841
7.9023066 -2.291374 -0.056149393
0.81559545 -0.2046998 -0.013532734
0.81547016 -0.17351484 -0.02138049
7.941421 -2.6224055 -0.28328121
0 -0 -0
0.81347024 -0.20469472 -0.044342857
0.81801754 -0.17426582 -0.052180544
1.5691823 -0.51932776 -0.11668275
7.902976 -2.2991962 -0.65932953
7.8408513 -1.9743147 -0.72460747
0.82819521 -0.17669091 -0.08410728
1.5912838 -0.52713543 -0.18039009
7.7990932 -2.2726655 -0.95141447
7.7247882 -1.9472407 -1.0083725
0.88270873 -0.18854657 -0.12327457
1.6276438 -0.54066229 -0.24849312
2.8877399 -0.84324098 -0.46458632
0 -0 -0
0 -0 -0
4.1270256 -1.3744138 -0.79544687
2.9611828 -0.86620152 -0.59435332
3.8376565 -0.9714461 -0.80137831
3.7290111 -0.79835433 -0.81197894
3.5464642 -1.184854 -0.82922482
3.0384557 -0.89030224 -0.73324633
3.224442 -0.81657916 -0.80390167
3.1611786 -0.67563152 -0.81610596
1.4768524 -0.49495593 -0.40746301
1.4313848 -0.42057881 -0.40542263
1.3545151 -0.34340382 -0.39454615
2.7080095 -0.57867789 -0.81290448
5.8562675 -1.9703681 1.9088935
6.1484203 -1.8098992 1.9036255
6.4531002 -1.6362113 1.9068136
0 -0 0
6.7676463 -2.2722731 1.9060603
7.1645713 -2.1110601 1.9121852
7.5891457 -1.9303234 1.9253106
0 -0 0
8.1037979 -2.7207355 1.9413483
8.3327122 -2.4539914 1.8815905
8.2743196 -2.1079826 1.7643771
0.84780908 -0.18328345 0.17053764
8.4279575 -2.82744 1.674886
8.3686829 -2.4669659 1.5537955
8.3041239 -2.1200519 1.4423573
0.82143956 -0.17791295 0.13336045
8.421442 -2.826072 1.3367649
8.3898678 -2.4778271 1.2288445
0 -0 0
0.81677765 -0.1776645 0.10135947
7.933392 -2.6638324 0.94624084
7.8596916 -2.3213964 0.84705079
0 -0 0
0.8032034 -0.17512299 0.069435976
7.9396043 -2.6673062 0.63888508
7.8718753 -2.3276839 0.5468114
0.78427762 -0.20120414 0.046331145
0.83437186 -0.18220854 0.040603947
7.9433165 -2.6713309 0.33088103
7.9019017 -2.3407624 0.24661195
0.80078524 -0.20587116 0.017001905
0.83030403 -0.18168463 0.0092718778
7.950048 -2.6748302 0.023862878
7.9015198 -2.3437998 -0.056244932
0.80948263 -0.20845361 -0.013452278
0.81536663 -0.17872925 -0.021406125
7.9554877 -2.6812983 -0.28436452
7.8982387 -2.3459764 -0.3567093
0.80929822 -0.20893335 -0.044184491
0.82180715 -0.1803515 -0.052491881
1.5602958 -0.52703094 -0.11626023
7.9259806 -2.3587334 -0.66244376
7.8469124 -2.0271213 -0.7263034
0.84750563 -0.18625478 -0.086182781
1.6021477 -0.54166603 -0.18199499
7.7688203 -2.3156538 -0.94943696
7.7856908 -2.0134802 -1.0179162
0 -0 -0
1.5849303 -0.53729421 -0.24247079
2.9014504 -0.86660057 -0.46763879
4.6529107 -1.2052091 -0.79027629
4.4871593 -0.98802334 -0.80131602
4.1622887 -1.414588 -0.80390143
3.9746363 -1.1891785 -0.79921794
3.9492569 -1.0255216 -0.82598114
3.7173562 -0.81974572 -0.81052119
3.5030892 -1.1943059 -0.82078099
3.4220846 -1.0255517 -0.82732743
3.08672 -0.80188775 -0.7707777
3.1266725 -0.6883446 -0.8082729
1.5076572 -0.5155912 -0.41682705
1.4287772 -0.42935371 -0.40542263
1.3542454 -0.35219297 -0.39508966
2.2733517 -0.50040078 -0.68333548
5.8061128 -1.9932348 1.8964961
6.1335278 -1.8464857 1.9024866
6.4327049 -1.6731142 1.9037848
0 -0 0
6.7645445 -2.3175135 1.9091558
7.176527 -2.1625278 1.9188815
7.5658827 -1.9739114 1.9224455
0 -0 0
8.0989437 -2.7745168 1.9442272
8.3624172 -2.5186026 1.8917521
8.3067083 -2.1705971 1.7740903
0.84954178 -0.18912169 0.17111638
8.4346228 -2.8873749 1.6796999
8.3599863 -2.5202579 1.5550228
8.3167162 -2.1777098 1.4468383
0.80587304 -0.17972513 0.13100979
8.4535255 -2.89467 1.3446518
8.3963099 -2.5358448 1.2320439
7.8002267 -2.0468333 1.054814
0.8156721 -0.18267281 0.10135947
7.9535589 -2.7250216 0.95062268
7.8862453 -2.3819458 0.8514716
0 -0 0
0.80405819 -0.18048453 0.0696043
7.9504423 -2.7253492 0.64109075
7.9080644 -2.3912473 0.5503341
0 -0 0
0.83031452 -0.18666744 0.040461477
7.9702525 -2.7349384 0.33269581
7.914176 -2.3973172 0.24744944
0 -0 0
0.83210009 -0.18743506 0.0093046026
7.9609151 -2.7329769 0.023945382
7.9013429 -2.3965921 -0.056347292
0.80238801 -0.21188489 -0.013355731
0.82205588 -0.18548916 -0.021611216
7.9644032 -2.7388368 -0.28527853
7.8942103 -2.3975885 -0.35718507
0.81958526 -0.21696179 -0.044817962
0.81192333 -0.18341134 -0.051931471
1.5636343 -0.53886992 -0.11675316
7.9371061 -2.4151566 -0.66459966
7.8718762 -2.0851777 -0.72978455
0.83761156 -0.18947548 -0.085293278
1.5931543 -0.54954112 -0.18135302
7.6946106 -2.3450372 -0.94210845
7.8153839 -2.072403 -1.0234416
0 -0 -0
1.5872155 -0.5489499 -0.2433311
2.9017496 -0.88611907 -0.46855456
0 -0 -0
4.5280905 -1.0262067 -0.80973464
4.1721187 -1.4465455 -0.80749911
4.0264215 -1.2316394 -0.81113523
1.5656011 -0.41681749 -0.32797188
1.3715891 -0.31129801 -0.29946801
3.4698763 -1.2067984 -0.81471878
3.3728797 -1.033402 -0.81694919
2.9361548 -0.78203583 -0.73436487
1.3824755 -0.31326142 -0.35787249
1.5300421 -0.53375477 -0.42391339
1.4316505 -0.43981272 -0.40699604
1.3641474 -0.36371899 -0.3986221
1.3700038 -0.31038514 -0.41236734
5.8018894 -2.0316648 1.8991528
6.0890994 -1.873935 1.8922367
6.4158158 -1.7108192 1.9018574
6.7559476 -1.5340302 1.9123006
6.7675266 -2.3650324 1.914057
7.1760845 -2.2105141 1.9223537
7.5677004 -2.0240614 1.9260269
0 -0 0
8.0974169 -2.8296275 1.9479922
8.3673553 -2.5761929 1.8964094
8.3083687 -2.2255795 1.777328
0 -0 0
8.4380865 -2.9465258 1.6839584
8.3829403 -2.5833941 1.5622115
8.3203411 -2.2333007 1.4498254
0 -0 0
8.4524097 -2.9523551 1.3473305
8.3976231 -2.5925739 1.2345477
7.8382697 -2.1083062 1.0616879
0 -0 0
7.9516973 -2.7790177 0.95242029
7.8790841 -2.4326375 0.85229403
7.8263602 -2.1084721 0.76047742
0.79516846 -0.18362114 0.068930984
7.9467473 -2.7786884 0.64215559
7.9075418 -2.444145 0.55133104
0 -0 0
0.82818031 -0.19153357 0.040413983
7.9797282 -2.7930346 0.33380046
7.9145942 -2.4505627 0.24792799
0 -0 0
0.82606369 -0.19140862 0.0092500625
7.9553213 -2.7857387 0.02397952
7.9218292 -2.4559851 -0.056599788
0 -0 -0
0.81895465 -0.19007766 -0.021559943
7.9766841 -2.7979088 -0.28632799
7.9194245 -2.4584215 -0.3590017
0.80667335 -0.21884896 -0.044184491
0.81661558 -0.18974508 -0.052305076
1.5762966 -0.55407757 -0.11795027
7.9326086 -2.4670687 -0.66547811
7.8743129 -2.1376143 -0.73121268
0 -0 -0
1.5850629 -0.55765629 -0.18081807
7.7218018 -2.4052026 -0.94722682
7.7737999 -2.1125135 -1.0196744
0 -0 -0
1.5950171 -0.56262916 -0.24505179
2.8745594 -0.89713526 -0.4650442
1.6166977 -0.44000083 -0.27548534
1.4611844 -0.34058949 -0.26166475
4.1780028 -1.4773648 -0.81037718
3.9878602 -1.2466533 -0.80489284
1.5563952 -0.42461023 -0.326583
1.3915601 -0.32482162 -0.30425781
3.4329624 -1.2176231 -0.80779052
3.3683348 -1.0546602 -0.8174004
1.5378547 -0.41972512 -0.3852714
0 -0 -0
1.5249152 -0.54248434 -0.42340723
1.4390526 -0.45176834 -0.4098807
1.3832421 -0.37791598 -0.40487179
1.3634012 -0.31769672 -0.41095898
5.7866144 -2.0662622 1.8982671
6.0966897 -1.9173009 1.8982158
6.4413638 -1.7600358 1.912596
6.7586112 -1.5783048 1.9157596
6.7592583 -2.408783 1.9158628
7.1457529 -2.2492685 1.9178895
7.5523286 -2.0696876 1.9253106
7.9380264 -1.8636653 1.9205811
8.0624485 -2.8730397 1.9437844
8.3840199 -2.6377513 1.9038188
8.3172216 -2.2827377 1.7821846
0 -0 0
8.4596558 -3.0124209 1.6919199
8.3997974 -2.6451321 1.5683481
8.3254976 -2.289541 1.4531448
0 -0 0
8.4667387 -3.0157757 1.3525388
8.4051685 -2.6515002 1.2380254
7.8538632 -2.1642637 1.0655787
0.79211712 -0.18763451 0.098711126
7.9597683 -2.8367629 0.95545387
7.8915195 -2.4896157 0.85527557
7.8247924 -2.1596327 0.76159835
0.79111826 -0.18780628 0.068678491
7.9549055 -2.8364379 0.64420909
7.924746 -2.5028358 0.55359089
7.8688874 -2.1738722 0.46713904
0.81144094 -0.19291501 0.039654147
7.9793792 -2.8479905 0.33451056
7.9327636 -2.5096319 0.24897486
7.9271688 -2.1942923 0.16913503
0.81514645 -0.19415675 0.0091409814
8.0021181 -2.8573661 0.024172971
7.9342556 -2.5133033 -0.056797687
0 -0 -0
0.82944155 -0.19788292 -0.021867575
7.9904208 -2.8579073 -0.28744513
7.9222846 -2.5127068 -0.3598235
0 -0 -0
0.82126051 -0.19614325 -0.052678682
1.5794404 -0.56609499 -0.11844319
7.896421 -2.5090549 -0.66372132
7.8725638 -2.1890919 -0.73228383
0 -0 -0
1.5947136 -0.57207173 -0.18231596
1.6278846 -0.51803565 -0.20007737
7.7960539 -2.1700161 -1.0243206
0 -0 -0
1.5980537 -0.57474995 -0.24605551
2.8850076 -0.91986001 -0.46763879
2.9465837 -0.82139486 -0.50294733
1.3872154 -0.33233523 -0.24877907
4.1475759 -1.4952995 -0.8062399
3.98949 -1.2740862 -0.80678451
2.9498796 -0.824256 -0.62003154
1.2031274 -0.28863296 -0.26344022
3.4327712 -1.2413204 -0.80952257
3.3534489 -1.0726368 -0.81536984
1.532442 -0.42836827 -0.38456663
3.1257303 -0.74871594 -0.81145507
1.5215579 -0.55183083 -0.42340723
1.4371725 -0.46088439 -0.41014293
1.3827507 -0.38691494 -0.40541524
1.3548943 -0.32449204 -0.40898725
5.7621555 -2.0974808 1.8944298
6.1094527 -1.9625894 1.9059032
6.3989668 -1.7907176 1.903234
6.7197423 -1.6127712 1.9075111
6.7434425 -2.4498816 1.9156047
7.123517 -2.2904031 1.9156574
7.5067639 -2.1068051 1.9169543
7.9396887 -1.9155329 1.9237908
8.0263367 -2.9157963 1.939355
8.403966 -2.7008073 1.9120753
8.3181429 -2.3379679 1.7854223
8.2598476 -1.9990305 1.6708443
8.4751902 -3.0766788 1.6987705
8.4152737 -2.7068722 1.5743092
8.3312263 -2.3461957 1.4566299
0 -0 0
8.4750299 -3.0774574 1.3568542
8.4000511 -2.7066679 1.2396946
7.8738356 -2.2218382 1.0701181
0 -0 0
7.9627585 -2.8930144 0.95792562
7.8997645 -2.5456176 0.85784584
7.8506756 -2.2187057 0.76542825
0.78220642 -0.19076815 0.068005167
7.9598422 -2.8933704 0.64603448
7.9139876 -2.5529456 0.55392319
7.8707724 -2.2264621 0.46805313
0.8112123 -0.19812727 0.039701637
7.9786568 -2.9030473 0.33522072
7.9371891 -2.5647132 0.24960297
7.8837366 -2.2344398 0.16849771
0.82656646 -0.20224424 0.0092827864
8.0079269 -2.9149635 0.024244092
7.9481788 -2.5714819 -0.057009239
0 -0 -0
0.82529891 -0.20225471 -0.021790667
7.9971476 -2.9157829 -0.28832531
7.9143219 -2.5637329 -0.36016953
0 -0 -0
0.82004154 -0.20117871 -0.052678682
1.5759372 -0.57577562 -0.11844319
1.5682111 -0.50890732 -0.13207352
7.9155025 -2.2534459 -0.73755014
7.8633971 -1.9315811 -0.80420786
1.583703 -0.57911426 -0.18146002
1.6171188 -0.52555859 -0.19914679
7.7348871 -2.2042162 -1.0180418
0 -0 -0
1.5907803 -0.58318204 -0.24548197
2.8905859 -0.94121665 -0.46947029
2.9367437 -0.83810532 -0.50213611
1.5898615 -0.39121366 -0.28554615
4.1337061 -1.5190239 -0.80534047
3.9881322 -1.3006725 -0.80810863
2.9004772 -0.82967174 -0.61070621
3.6970687 -0.91096127 -0.81072938
1.6241468 -0.59859979 -0.38386831
3.3699558 -1.1007553 -0.82101023
2.9063106 -0.83166963 -0.73060614
3.1436737 -0.77344036 -0.81732994
1.52994 -0.56551701 -0.42669728
1.4508249 -0.47509968 -0.41486323
1.3794254 -0.39512703 -0.4051435
1.3472874 -0.33142424 -0.40729725
5.7420111 -2.1301389 1.8920685
6.0936527 -1.9988443 1.9047644
6.4072666 -1.835507 1.9090165
6.6853857 -1.6479739 1.900593
6.7047267 -2.4824903 1.9088979
7.1166925 -2.3364863 1.9176414
7.4974284 -2.1538985 1.9179093
7.9381781 -1.9667888 1.9263127
8.0092096 -2.9653289 1.9395765
8.4039507 -2.7578073 1.9158858
8.3375216 -2.3987107 1.7927073
8.2750416 -2.0565374 1.676439
8.5031576 -3.1460147 1.7082133
8.418149 -2.7649078 1.5779912
8.3536272 -2.407923 1.4631022
0 -0 0
8.4949389 -3.1438165 1.3631043
8.4086828 -2.7665148 1.2434504
7.9524589 -2.296797 1.0826986
0 -0 0
7.9811997 -2.9552753 0.96230745
7.920846 -2.6061661 0.86185539
7.8589115 -2.2731974 0.76757675
0 -0 0
7.9886894 -2.9594758 0.64983737
7.9199715 -2.6086361 0.55545193
7.876142 -2.280267 0.46919566
0.82160789 -0.20601638 0.040271517
7.9831791 -2.9602869 0.33616757
7.9355416 -2.6180642 0.25005165
7.8919635 -2.2891777 0.16897057
0.81755149 -0.20536327 0.0091955215
8.014267 -2.9730875 0.02431806
7.9369988 -2.6217709 -0.057043359
7.8993711 -2.2947645 -0.13238265
0.82985914 -0.20877825 -0.021944484
7.9950328 -2.9707153 -0.28890082
7.8680887 -2.6022072 -0.35878542
0 -0 -0
0.82750225 -0.20840029 -0.053239096
1.5835925 -0.58961129 -0.11928821
1.5906072 -0.52698445 -0.1342295
7.9933267 -2.3287165 -0.74611902
7.8166614 -1.9710348 -0.80064994
1.5857098 -0.59090382 -0.18210196
1.5893539 -0.52733898 -0.19612236
6.0402069 -1.7614248 -0.79640085
0 -0 -0
1.5834635 -0.59154654 -0.24490839
2.8978858 -0.96329963 -0.471607
2.9495425 -0.86136466 -0.50521868
4.487215 -1.1334038 -0.80715758
4.0902224 -1.5315958 -0.79868472
3.9810078 -1.325429 -0.80829781
2.9348392 -0.85901684 -0.61903948
3.7122705 -0.93890506 -0.81531101
1.6113038 -0.60512173 -0.38170323
3.3760769 -1.1257265 -0.8241688
2.9599221 -0.86669505 -0.74540621
3.127588 -0.78986603 -0.81439251
1.5182929 -0.57182509 -0.42441952
1.4533738 -0.48582849 -0.41643667
1.4037572 -0.41143331 -0.41302356
1.3582526 -0.34297356 -0.41124064
5.7520695 -2.174114 1.8997431
6.070365 -2.0325441 1.9013478
6.3580599 -1.8636996 1.8977269
6.6844931 -1.6913282 1.9032539
6.6902719 -2.5239241 1.9091558
7.0948739 -2.3776472 1.9156574
7.4859352 -2.2004092 1.9183869
7.9486012 -2.0212166 1.9318153
8.0081997 -3.0209563 1.9437844
8.4193058 -2.8201857 1.9232953
8.3545885 -2.4592259 1.7995877
8.3031511 -2.1177006 1.6847345
8.522315 -3.2126887 1.7159897
8.4271622 -2.8252714 1.5829006
8.3632879 -2.466387 1.4674172
8.319417 -2.125252 1.3624392
8.5050964 -3.2070458 1.3678663
8.4309778 -2.8312984 1.2492929
8.1188889 -2.3989336 1.1073407
0 -0 0
7.9908071 -3.0147138 0.96567798
7.9188499 -2.6594689 0.8633976
7.8810945 -2.3321114 0.77112645
0 -0 0
7.989037 -3.0154796 0.65135849
7.9255686 -2.6644962 0.55698061
7.8897629 -2.3367734 0.4708524
0 -0 0
7.9985147 -3.0219281 0.3375878
7.9259591 -2.6689394 0.25026101
7.9026895 -2.3449533 0.1695051
0.79303688 -0.20438647 0.0089337276
8.0099049 -3.0275095 0.024360733
7.9510851 -2.6806452 -0.057261735
7.9119782 -2.3511658 -0.1328332
0.83340222 -0.21511546 -0.022072665
7.9944134 -3.0264392 -0.28954402
1.5921663 -0.53743619 -0.072751909
7.8976631 -2.3521633 -0.43561581
0.82620794 -0.21347384 -0.053239096
1.5706183 -0.59577906 -0.11858404
1.5797894 -0.53417993 -0.1335907
8.0514317 -2.3993371 -0.75290275
7.7880425 -2.0147228 -0.79896975
1.5643933 -0.59391749 -0.18006912
1.5907921 -0.53867388 -0.19670397
6.0216794 -1.7961849 -0.79539615
0 -0 -0
1.5862787 -0.60371548 -0.24591212
2.9068949 -0.98614258 -0.474049
2.9839118 -0.89130801 -0.51203287
4.4649181 -1.1569617 -0.80440855
1.6194319 -0.61775732 -0.31695554
3.9662921 -1.3476198 -0.80697364
3.7839544 -1.1328026 -0.79959267
3.6969724 -0.95920908 -0.81322849
1.6102959 -0.61604363 -0.38235274
3.3091574 -1.1260216 -0.80950391
3.1584711 -0.94591206 -0.79685402
2.9743857 -0.77062011 -0.77571684
1.5328207 -0.58806098 -0.42948118
1.4704587 -0.50159115 -0.42220595
1.3781602 -0.41313034 -0.40623042
1.3579804 -0.35178241 -0.41180396
5.7430797 -2.2110837 1.9012189
6.0523362 -2.0678935 1.8996394
6.3492675 -1.9035051 1.8985531
6.6637259 -1.7296476 1.900327
6.6890893 -2.5704722 1.9132831
7.0554018 -2.4126723 1.9089611
7.4685726 -2.2451823 1.9174317
7.9388752 -2.0706873 1.9325031
7.9831409 -3.0675883 1.9422342
8.4305124 -2.8815918 1.929858
8.3693495 -2.5194757 1.8060632
8.2975941 -2.1705945 1.6862776
8.5262938 -3.2740793 1.7208037
8.4310932 -2.8842554 1.5869333
8.3734894 -2.5253448 1.4718982
8.3367939 -2.1842692 1.3674539
8.4972591 -3.2637813 1.3698008
8.4546661 -2.8971007 1.2554134
8.3270721 -2.5161035 1.1378192
7.8064914 -2.0527556 0.97880507
8.0046225 -3.0761635 0.96961033
7.951314 -2.7247758 0.86874372
7.8980837 -2.389941 0.77420908
0 -0 0
8.0094728 -3.0794713 0.65455294
7.9477663 -2.7263505 0.55970567
7.8991637 -2.3923748 0.47228059
0 -0 0
8.0339098 -3.0917647 0.33987603
7.9368482 -2.7269409 0.25112844
7.8958054 -2.3957214 0.16966955
0 -0 0
8.0145073 -3.0855825 0.024431854
7.9666371 -2.7404408 -0.057493754
7.9098401 -2.4034476 -0.1330424
0.82336903 -0.21792306 -0.02184194
8.0167227 -3.0912561 -0.29103354
1.5841156 -0.54556882 -0.072535641
7.9279809 -2.4142509 -0.43809691
0.82295299 -0.21802814 -0.05311456
1.5846121 -0.61223549 -0.11992197
1.5783666 -0.54451346 -0.13375039
8.0479908 -2.4521782 -0.75397384
7.7880373 -2.065788 -0.80025458
1.5607196 -0.60350525 -0.18006912
1.5827631 -0.54680306 -0.19612236
5.9706898 -1.8209444 -0.79012203
0 -0 -0
1.5751624 -0.61057585 -0.24476501
2.9334767 -1.0152735 -0.4793908
2.9878237 -0.91248232 -0.51365525
1.4148215 -0.37589142 -0.25530779
1.6091925 -0.62518871 -0.31569636
3.9533095 -1.3703231 -0.80602783
3.6944585 -1.1307565 -0.78213257
2.321418 -0.61753792 -0.51146966
1.6119437 -0.62803918 -0.38365179
3.3546457 -1.1645156 -0.82236391
3.1609724 -0.96783543 -0.79896832
2.9396145 -0.78089035 -0.76788378
1.5309858 -0.59815925 -0.42998737
1.501075 -0.52233863 -0.43190882
1.4252864 -0.43680635 -0.42090359
1.3576511 -0.36060086 -0.41236734
5.7231779 -2.2438395 1.8991528
6.0458708 -2.1071994 1.9016324
6.3484979 -1.9458083 1.9018574
6.662303 -1.7729819 1.9029878
6.6938848 -2.6195655 1.9192163
7.0368061 -2.4546416 1.9079689
7.4583693 -2.2921073 1.9183869
7.8677197 -2.1037712 1.9182884
7.9432817 -3.108341 1.9371405
8.4302063 -2.9393797 1.9338803
8.3696442 -2.5756783 1.8095033
8.3229771 -2.2318866 1.6941873
8.5234327 -3.3331342 1.7243216
8.4662199 -2.954423 1.5969273
8.3955307 -2.5882971 1.4785366
8.3375416 -2.2392242 1.3698045
8.526803 -3.33531 1.3778366
8.4638405 -2.9583991 1.2594475
8.3692675 -2.5849998 1.1457306
7.846468 -2.1148257 0.98542595
8.0152073 -3.1368093 0.97320575
7.9466519 -2.7777796 0.87008017
7.893734 -2.4415941 0.77523667
7.8363833 -2.1162159 0.6856066
8.0322075 -3.1449177 0.65797549
7.9478402 -2.7809973 0.56090206
7.9262996 -2.453789 0.4747943
0 -0 0
8.0464191 -3.1533976 0.34121737
7.9727912 -2.7941017 0.25280342
7.9134245 -2.4541931 0.17036855
0 -0 0
8.0363874 -3.1507609 0.024557028
7.9751492 -2.7982106 -0.05767801
7.9035378 -2.4546053 -0.1331872
0.82201636 -0.22297105 -0.02184194
8.0515614 -3.1615746 -0.29299703
1.5797957 -0.55494738 -0.072492391
7.9330411 -2.4690826 -0.43920547
0.81004143 -0.21993537 -0.052367344
1.5724714 -0.61866015 -0.11928821
1.5749959 -0.55418789 -0.13375039
8.0898504 -2.5192821 -0.75932938
7.8232284 -2.1265872 -0.80519623
1.5532868 -0.61161321 -0.17964114
1.5849986 -0.55848485 -0.19682029
1.6224506 -0.50571764 -0.21511109
0 -0 -0
1.5631013 -0.61695927 -0.24347451
1.5842808 -0.55922687 -0.25946015
2.9718075 -0.92756414 -0.51187062
1.5332057 -0.41743213 -0.2771275
1.6135584 -0.63830739 -0.31731528
3.9392722 -1.3925906 -0.80489284
3.7688329 -1.1788597 -0.79939425
1.5872062 -0.43267 -0.35028175
1.6026148 -0.63575804 -0.38235274
1.6126473 -0.5709179 -0.3961786
1.6011425 -0.50100815 -0.40547466
2.9160571 -0.79381931 -0.76298809
1.5218931 -0.60539639 -0.42846885
1.4905663 -0.52895737 -0.42981088
1.4179875 -0.44410536 -0.41954497
1.3498579 -0.36741245 -0.41067731
5.7093024 -2.2789142 1.8991528
6.0382466 -2.1461828 1.9033407
6.3254304 -1.9812771 1.8985531
6.6624589 -1.816871 1.9061809
6.6749926 -2.6595161 1.9184422
7.0499072 -2.5078378 1.9156574
7.4441648 -2.3378279 1.9183869
7.84903 -2.1504638 1.9169127
7.9521432 -3.1682103 1.9440058
8.4534512 -3.0057855 1.9434068
8.3929195 -2.6393237 1.8180023
8.3337259 -2.2896721 1.699203
8.5649052 -3.410089 1.7369119
8.485034 -3.0195179 1.6039406
8.3813725 -2.6403549 1.4788685
8.3350716 -2.2934844 1.371685
8.5410881 -3.4014697 1.3834914
8.475378 -3.0209157 1.2638987
8.4090385 -2.6539111 1.1533827
7.85918 -2.1700649 0.98867613
8.0124245 -3.1925511 0.97522807
7.9678736 -2.8401804 0.87429541
7.9004388 -2.4968839 0.77738518
7.8559031 -2.1732924 0.68846816
8.0461044 -3.2074354 0.66071361
7.9992294 -2.8541899 0.56575406
7.9310837 -2.5087006 0.47599399
7.8415298 -2.1721156 0.38685352
8.0594015 -3.2156706 0.34259817
7.9922056 -2.8560874 0.25396991
7.9344344 -2.514179 0.17114978
0 -0 0
8.0521955 -3.2140992 0.024665134
7.9804263 -2.8551772 -0.057841793
7.9226375 -2.513941 -0.1337665
0 -0 -0
8.0301542 -3.2101765 -0.29292932
1.5820042 -0.5666517 -0.072751909
7.9225001 -2.5192254 -0.43946943
0 -0 -0
1.5649418 -0.62681341 -0.11900654
1.5715657 -0.56384146 -0.13375039
1.6002316 -0.50912428 -0.15049128
7.8205771 -2.1774855 -0.80628335
1.5485818 -0.62076253 -0.17953415
1.5862155 -0.56987876 -0.19740191
1.6193171 -0.51566333 -0.21511109
0 -0 -0
1.5748975 -0.63281143 -0.24591212
1.6049969 -0.57763869 -0.26342839
2.9895627 -0.95327562 -0.5159266
2.9359732 -0.81873387 -0.53157628
1.6077865 -0.64746106 -0.31695554
3.9214158 -1.4134058 -0.80300122
3.7671304 -1.2037526 -0.80058473
2.5454085 -0.71068186 -0.56269997
1.6013995 -0.64667618 -0.38300225
1.6173611 -0.58377898 -0.39820915
1.6202589 -0.51792616 -0.41111279
1.5139378 -0.42212409 -0.39679298
1.5324975 -0.62053275 -0.43251818
1.4927373 -0.5400632 -0.43138435
1.4308182 -0.4577831 -0.42416432
1.3651392 -0.38058391 -0.41602907
5.6996369 -2.3157008 1.9006284
6.0195565 -2.1812329 1.9016324
6.3104072 -2.0191729 1.8977269
6.6613975 -1.8605692 1.9091076
6.6567578 -2.699697 1.9179264
7.0289221 -2.5490663 1.9141693
7.4259806 -2.3822739 1.9174317
7.8937922 -2.2148874 1.9311273
7.9325538 -3.2169442 1.9440058
8.450469 -3.0632606 1.9470057
8.4008093 -2.6985593 1.8232638
8.3384104 -2.3460789 1.7030613
8.5547495 -3.4670074 1.7391337
8.4774532 -3.0755534 1.6060445
8.4035015 -2.7041173 1.4856728
8.3493614 -2.3526201 1.3763863
8.5466318 -3.464586 1.3878068
8.4771585 -3.0803032 1.2669591
8.4445 -2.7221901 1.1605158
7.8686438 -2.2247293 0.99156529
8.0534592 -3.2663028 0.98264337
7.9746037 -2.8978498 0.8769685
7.930449 -2.5599942 0.78186905
7.8721414 -2.2298732 0.69107729
8.0392075 -3.2619934 0.66177839
7.9984446 -2.909358 0.56695044
7.932641 -2.5628421 0.47702226
7.8664927 -2.2310915 0.38875312
8.0571079 -3.2722054 0.34334773
7.9876785 -2.9098628 0.25438866
7.9569068 -2.5751302 0.17197213
7.8682022 -2.2351375 0.08922819
8.0675287 -3.2777493 0.02477324
7.9937592 -2.9153969 -0.05806699
7.9355979 -2.5717537 -0.13424923
0 -0 -0
8.027895 -3.2665451 -0.29357255
1.5906975 -0.58080256 -0.073314197
7.8651023 -2.5542178 -0.43714666
0 -0 -0
1.5675322 -0.63903987 -0.11949946
1.5783744 -0.57723987 -0.13462876
1.5980247 -0.51924127 -0.15058054
7.8520474 -2.2382519 -0.81092852
1.5447438 -0.63025278 -0.17953415
1.5854869 -0.58062553 -0.19775088
1.6274438 -0.52927142 -0.216618
1.5968592 -0.45561185 -0.22679274
1.5462524 -0.6323483 -0.24204062
1.582866 -0.58066851 -0.26037592
3.0193112 -0.98321164 -0.52209181
2.9413145 -0.83970815 -0.53346622
1.6028733 -0.656941 -0.31677562
3.9283383 -1.443197 -0.80621696
3.7606051 -1.2271487 -0.8007831
2.9425571 -0.84106272 -0.65162402
1.6001104 -0.65760338 -0.38365179
1.6174058 -0.5950374 -0.3991116
1.5976459 -0.52152383 -0.40617943
1.5364923 -0.43859118 -0.40340212
1.5286611 -0.6299243 -0.43251818
1.4848684 -0.54754293 -0.43007314
1.4151752 -0.46236947 -0.42036015
1.3535516 -0.3863197 -0.41321236
5.6862044 -2.3509948 1.9009237
6.0024624 -2.2167985 1.9004935
6.3582096 -2.0775614 1.9159002
6.6897092 -1.9128031 1.920549
6.6552496 -2.7467573 1.9223117
7.011332 -2.5914752 1.9136733
7.412147 -2.4280963 1.9176706
7.887538 -2.2654309 1.9329616
7.8883271 -3.2555122 1.9380263
8.410428 -3.107264 1.9421368
8.4213142 -2.7622638 1.8313581
8.3493166 -2.40453 1.7082701
8.5578432 -3.5295494 1.7441328
8.4898176 -3.1391208 1.6120057
8.4260988 -2.7685578 1.4926431
8.3717785 -2.4144804 1.3824981
8.5700054 -3.5354404 1.3950984
8.4878149 -3.1432648 1.2714103
8.442709 -2.7789137 1.1625911
7.8777318 -2.2795911 0.99445438
8.0635767 -3.328167 0.98635107
7.9930511 -2.9601991 0.88097805
7.9382315 -2.6163976 0.78420436
7.8764944 -2.2834053 0.69267642
8.0752592 -3.3344738 0.66641796
7.9926043 -2.9628892 0.56781447
7.9575357 -2.6249161 0.47947881
7.8996596 -2.2929609 0.39108011
8.0756645 -3.3376112 0.34500474
8.002471 -2.9709957 0.25543553
7.945703 -2.625473 0.17207491
7.9205928 -2.3026347 0.089980856
8.0629749 -3.3336847 0.024821604
8.0141497 -2.9786744 -0.058346778
7.9377046 -2.6263647 -0.13455497
7.9099374 -2.3026814 -0.21126692
8.052947 -3.3344769 -0.29523131
1.5824221 -0.58880997 -0.073097937
1.5497618 -0.51382345 -0.086310208
0 -0 -0
1.5746382 -0.65323281 -0.12034448
1.5776049 -0.5879581 -0.13486831
1.5900819 -0.5274688 -0.15013425
7.8696904 -2.2955847 -0.81419003
1.5619676 -0.64848781 -0.18199499
1.5725892 -0.58687037 -0.19658765
1.6175749 -0.53705901 -0.21573897
1.6282729 -0.47539812 -0.23166418
1.5487392 -0.64448559 -0.24304433
1.6033419 -0.59936732 -0.26434413
2.9879396 -0.99331456 -0.51771128
2.9247594 -0.85442489 -0.5314045
1.6042596 -0.66903549 -0.31785494
3.9203286 -1.4676179 -0.80640614
3.7771816 -1.2582541 -0.80594176
2.9504833 -0.86294591 -0.65453959
1.5933433 -0.66627914 -0.38300225
1.6191977 -0.60700226 -0.40046528
1.5907271 -0.53008777 -0.40523973
1.5607622 -0.45589432 -0.41050082
1.5113842 -0.633681 -0.42872196
1.4706407 -0.55257058 -0.42692626
1.4333091 -0.47804734 -0.42660984
1.3714185 -0.40053555 -0.41940913
5.6840014 -2.391027 1.9050562
5.9923363 -2.2549379 1.9016324
6.3216319 -2.1086268 1.908741
6.6399145 -1.9427162 1.9096398
6.6320353 -2.7849228 1.920506
7.026123 -2.6460557 1.9221058
7.3943458 -2.4726067 1.9169543
7.8520093 -2.3074729 1.9276882
7.866405 -3.3030977 1.9375834
8.3902893 -3.1584663 1.9419249
8.414422 -2.8173044 1.8335842
8.3551121 -2.4618165 1.7125143
8.5650234 -3.5941613 1.7500577
8.4888229 -3.1980963 1.6155125
8.428587 -2.8267922 1.4961283
8.3729095 -2.4705551 1.3851622
8.5837116 -3.6028845 1.4009022
8.5100622 -3.2110176 1.27767
8.4424171 -2.836349 1.1649256
7.863596 -2.3278852 0.99445438
8.0659075 -3.3872001 0.98915994
8.0017262 -3.0193717 0.88395953
7.9484506 -2.6739454 0.78681988
7.8890848 -2.3396244 0.69503307
8.0767107 -3.393229 0.66824335
8.0032101 -3.0228045 0.56987488
7.9611492 -2.680383 0.4806785
7.8969321 -2.3448009 0.39165002
8.0927982 -3.4029796 0.34662223
8.0102682 -3.0299442 0.25627303
7.9446015 -2.6792893 0.17240384
7.9216499 -2.3557515 0.090155378
8.0893774 -3.4028704 0.024966693
8.0275183 -3.0398326 -0.058578804
7.9422812 -2.6820581 -0.13490897
7.9253607 -2.3600171 -0.21206164
8.0608873 -3.3958545 -0.29628077
1.5843847 -0.60063332 -0.073357455
1.5863084 -0.53676605 -0.088527344
7.9024405 -2.3552942 -0.51445776
1.5595721 -0.6582278 -0.11949946
1.5776951 -0.59904236 -0.13518772
1.5877589 -0.53753483 -0.15022351
7.8401999 -2.3392768 -0.81260872
1.5524637 -0.65573841 -0.18135302
1.5503911 -0.58944929 -0.19426116
1.6114303 -0.54601902 -0.21536224
1.6481102 -0.49218443 -0.2349118
1.5465782 -0.65474802 -0.2433311
1.6033283 -0.61060083 -0.26495463
2.9864607 -1.0132146 -0.5185225
2.9609928 -0.88476461 -0.53896403
1.602841 -0.68001902 -0.3183946
1.6138607 -0.61548287 -0.33273947
3.7471187 -1.2738355 -0.80117989
3.6610355 -1.0951951 -0.81364501
1.5883267 -0.67566103 -0.38278577
1.6045214 -0.6127553 -0.39775792
1.6012486 -0.5445326 -0.40876359
1.5347105 -0.45852348 -0.40438125
1.5181462 -0.64749724 -0.43175894
1.4933585 -0.5715875 -0.43453121
1.4440145 -0.49148422 -0.43068573
1.3753705 -0.4108654 -0.42138082
5.6727366 -2.4273617 1.9062368
5.9595904 -2.2844584 1.8956534
6.3131247 -2.1489248 1.9101179
6.6195579 -1.9809341 1.907245
6.5970526 -2.8179734 1.9153467
7.0278449 -2.6960568 1.927066
7.379035 -2.517931 1.9169543
7.8386354 -2.3558888 1.9279176
7.8504734 -3.3532183 1.9386908
8.3908272 -3.2175872 1.9465824
8.4182911 -2.8761635 1.8382385
8.3755493 -2.5237935 1.7198449
8.5934219 -3.6682527 1.7604262
8.49018 -3.2582352 1.6195451
8.4334755 -2.8861189 1.5001113
8.3925772 -2.5324402 1.3909605
8.5969105 -3.670629 1.4067057
8.5290222 -3.2780952 1.2835124
8.4398623 -2.8932419 1.1670007
7.8719683 -2.3829944 0.99734354
8.0815239 -3.4522417 0.99365407
8.014617 -3.0805461 0.88745505
7.9375443 -2.7246053 0.7873804
7.9079552 -2.3981078 0.69797879
8.0795765 -3.4529107 0.67022085
8.0264187 -3.0879767 0.57286584
7.9643812 -2.7359927 0.48187819
7.9062905 -2.4004662 0.39283723
8.0928955 -3.4616101 0.34752962
8.0129786 -3.0873024 0.25696096
7.9403019 -2.7322147 0.17267109
7.9108725 -2.405477 0.090199009
8.1189108 -3.4740787 0.025123162
8.0432348 -3.1023462 -0.058831297
7.9464717 -2.737906 -0.13526298
7.9174247 -2.41064 -0.2122411
8.0748062 -3.4602096 -0.29756716
1.5769414 -0.60890412 -0.073184438
1.597144 -0.55137742 -0.089319184
7.9059796 -2.4092662 -0.51564085
1.5490876 -0.66503018 -0.11900654
1.5842165 -0.61266661 -0.13606608
1.5834893 -0.54694188 -0.15013425
7.8256989 -2.3873394 -0.81260872
1.5401893 -0.6617195 -0.18039009
1.5736047 -0.60935217 -0.19763458
1.5986732 -0.55265492 -0.21410649
1.5531405 -0.47422218 -0.22178596
1.531624 -0.65952837 -0.24161045
1.5931019 -0.61792547 -0.26388624
2.9531457 -1.0221602 -0.51381749
2.9555082 -0.90291631 -0.53896403
1.5787681 -0.68126673 -0.31443715
1.6100538 -0.62537378 -0.33273947
3.7392321 -1.2968035 -0.80117989
3.6439581 -1.1144915 -0.81135416
1.581463 -0.6842311 -0.38213623
1.6025473 -0.62329519 -0.39820915
1.6015505 -0.5556218 -0.40970325
1.53465 -0.46878141 -0.4051156
1.511482 -0.65564525 -0.4309997
1.4979151 -0.58389413 -0.43689138
1.4436991 -0.50128233 -0.43150091
1.3599764 -0.41537288 -0.41743743
5.647223 -2.4575484 1.9026947
5.9401031 -2.318891 1.8939451
6.2952795 -2.1860442 1.908741
6.6072783 -2.0215137 1.907245
6.5858407 -2.8610938 1.9171525
6.9768806 -2.7257321 1.9176414
7.3689494 -2.5650761 1.9183869
7.815659 -2.4013686 1.9258542
7.8360114 -3.4040444 1.940241
8.3754787 -3.2707896 1.9476409
8.4541206 -2.9464562 1.8499752
8.3842869 -2.5826476 1.7248608
8.604104 -3.7353914 1.7672768
8.5250463 -3.3317711 1.6300651
8.4454012 -2.9482117 1.505422
8.4080248 -2.5934949 1.3961319
8.6077871 -3.7378831 1.4122118
8.5318022 -3.3393903 1.28699
8.4743662 -2.9633021 1.1742637
7.888494 -2.4409351 1.0013161
8.1021118 -3.5199776 0.99882227
8.0335417 -3.1445303 0.89167029
7.9432292 -2.7811539 0.78962225
7.9064169 -2.4507153 0.69915712
8.0920725 -3.517127 0.67303497
8.0454102 -3.1520913 0.57559097
7.9662881 -2.7914128 0.48302078
7.9219408 -2.4584069 0.39435694
8.1099882 -3.5279431 0.3491866
8.0385475 -3.1539347 0.25839666
7.9922538 -2.8050542 0.17417186
7.9207911 -2.461688 0.090482622
8.1295338 -3.537796 0.025222732
8.0640707 -3.1673598 -0.059124738
7.9823489 -2.8051775 -0.1361641
7.9454379 -2.4725416 -0.21339472
8.0616693 -3.5132844 -0.29787186
1.5638777 -0.61491275 -0.072751909
1.579602 -0.5561921 -0.088527344
7.9444113 -2.4743516 -0.51912791
1.5477206 -0.6757201 -0.1192178
1.573935 -0.61981893 -0.13550711
1.5838612 -0.55797148 -0.15049128
7.808054 -2.4344234 -0.8123123
1.5424777 -0.673944 -0.18113904
1.5642923 -0.61681014 -0.19693662
1.600866 -0.5644331 -0.21485995
1.6495128 -0.51473337 -0.23599434
1.5438664 -0.67605954 -0.24419145
1.5754925 -0.6222434 -0.26159692
2.9337916 -1.0356627 -0.51154613
2.9696603 -0.92719966 -0.54257208
1.5898715 -0.69766074 -0.31749517
1.6125782 -0.63776904 -0.33406362
3.7385967 -1.3223372 -0.80276716
3.6006432 -1.1254494 -0.80323231
1.5700859 -0.69077665 -0.38040417
1.5995984 -0.63347518 -0.39843476
1.5907803 -0.56284451 -0.40782386
1.5502552 -0.48396775 -0.41001126
1.5083158 -0.66529763 -0.43125278
1.5077584 -0.598414 -0.44082499
1.4786977 -0.52362341 -0.44291341
1.4004505 -0.4371472 -0.43067598
5.6399012 -2.4956324 1.9053514
5.9453611 -2.3630848 1.9002088
6.2781234 -2.2233465 1.9076397
6.5956702 -2.0623047 1.9075111
6.5699291 -2.902231 1.9176685
6.9609246 -2.7688482 1.9178895
7.3549018 -2.6108925 1.9188644
7.8054209 -2.4507372 1.9270006
7.8212214 -3.4548194 1.9417912
8.3470774 -3.3188686 1.9457355
8.4654112 -3.0087693 1.8564509
8.3916817 -2.6414092 1.7296838
8.6151848 -3.803196 1.7743126
8.5520086 -3.4029443 1.6391822
8.4531641 -3.0092363 1.5100689
8.4155025 -2.6524591 1.4000496
8.6244926 -3.8082042 1.4187595
8.5562277 -3.4096403 1.2938061
8.4859104 -3.0259008 1.1784139
7.8941917 -2.4958756 1.0039643
8.118536 -3.5864892 1.0035411
8.0427408 -3.2051795 0.89485741
7.9522691 -2.8392141 0.79223782
7.9140296 -2.5064025 0.70117706
8.1287079 -3.592509 0.67790264
8.0398197 -3.2069426 0.57658792
7.9931974 -2.856029 0.48570582
7.9495535 -2.5205538 0.39649394
8.1375341 -3.5994658 0.35131699
8.048748 -3.2150643 0.25935379
8.0050144 -2.8648212 0.17482975
7.9265046 -2.5169003 0.090722598
8.135108 -3.599751 0.02530808
8.0741959 -3.2286613 -0.059343107
8.0224037 -2.8746777 -0.13714565
7.9529815 -2.5285168 -0.21400999
0 -0 -0
1.5758431 -0.63080877 -0.073487215
1.587438 -0.5699231 -0.089160822
7.9547582 -2.5312219 -0.52080911
1.5426334 -0.68479925 -0.11914738
1.569177 -0.62909383 -0.13542727
1.5804079 -0.56767935 -0.15049128
1.6071398 -0.51192069 -0.16752273
1.5392221 -0.68379951 -0.18124604
1.5650868 -0.62824684 -0.19751824
1.5889702 -0.57122463 -0.21372975
1.6246116 -0.51792324 -0.23288202
1.5188947 -0.67626143 -0.2408935
1.5743957 -0.63300472 -0.26205477
2.925525 -1.0529763 -0.51122165
2.9836245 -0.95169038 -0.54618001
1.5756792 -0.70299417 -0.31551644
1.6204761 -0.65241921 -0.33652276
3.7838888 -1.3645362 -0.81427497
3.610441 -1.1528766 -0.80698085
1.5622531 -0.69880301 -0.37953815
1.5911636 -0.6414569 -0.39730668
1.6028407 -0.57820195 -0.41181755
1.5842059 -0.50525516 -0.41980255
1.5006741 -0.67295653 -0.43024042
1.4879529 -0.60114747 -0.43610466
1.4492064 -0.52320939 -0.43503335
1.3949994 -0.44485739 -0.42983097
5.6070552 -2.5223517 1.8994479
5.9360814 -2.4016774 1.9019171
6.2553205 -2.2585616 1.9048861
6.5856466 -2.1036162 1.9083095
6.5493531 -2.9413011 1.9168946
6.9393144 -2.8096898 1.9166493
7.3350902 -2.6546502 1.9179093
7.8180418 -2.5075026 1.9338785
7.8123298 -3.5083375 1.9448917
8.2930365 -3.3564565 1.9379026
8.474412 -3.0706639 1.8625216
8.4033394 -2.70186 1.7354712
8.6383076 -3.87691 1.7839404
8.5464802 -3.4616375 1.6421629
8.4651308 -3.072149 1.5155456
8.4253931 -2.7125206 1.4044377
8.6415596 -3.8792753 1.4254559
8.5608397 -3.4724984 1.297701
8.5063229 -3.09214 1.183861
7.9193506 -2.5573845 1.0091406
8.1135998 -3.643971 1.0056758
8.061636 -3.2701724 0.89917541
7.9889627 -2.9077051 0.79765582
7.9392695 -2.5681019 0.7047962
8.1401644 -3.6574385 0.68071681
8.0394049 -3.264096 0.57798368
7.9924078 -2.911171 0.48673409
7.9538951 -2.5757468 0.39749128
8.137167 -3.6591644 0.35226384
8.0659075 -3.2794487 0.26055023
7.9947991 -2.9166262 0.17499422
7.9461055 -2.5769022 0.091126196
8.1548176 -3.6684706 0.025438944
8.0875769 -3.291714 -0.059588782
8.0243368 -2.9310522 -0.13748358
7.9477758 -2.5806637 -0.21429197
1.5500093 -0.69825268 -0.057583816
1.577494 -0.64272785 -0.073746733
1.5867244 -0.58068222 -0.089319184
1.5889544 -0.5163669 -0.10423654
1.5338565 -0.69220018 -0.11879528
1.5625187 -0.63758051 -0.13518772
1.5806359 -0.57873565 -0.15084833
1.6001834 -0.52054101 -0.1671274
1.5177807 -0.68545574 -0.17921317
1.5354583 -0.62732023 -0.19426116
1.5817093 -0.57959825 -0.21322747
1.6251715 -0.52910882 -0.23342329
1.5309458 -0.69291383 -0.24347451
1.5659087 -0.6407817 -0.26129165
1.6146722 -0.59238046 -0.28278619
2.9955258 -0.97577697 -0.54944438
1.5677526 -0.71102393 -0.31479692
1.6073562 -0.65862679 -0.33463112
3.8416808 -1.4120742 -0.82856053
3.6116681 -1.1777372 -0.80885518
1.5561583 -0.70756739 -0.37910512
1.5917042 -0.65305704 -0.39843476
1.6038243 -0.58970314 -0.41299215
1.5580281 -0.5074594 -0.413683
1.4973971 -0.68255305 -0.43049353
1.4869138 -0.61136693 -0.43689138
1.4839017 -0.54605043 -0.44644585
1.4022794 -0.45667693 -0.43292937
5.5853906 -2.5539274 1.8973817
5.8972998 -2.428201 1.8942298
6.2314205 -2.2932489 1.9018574
6.554287 -2.1380067 1.9029878
6.5382137 -2.9846413 1.9189582
6.9129872 -2.848525 1.9141693
7.3131971 -2.6975913 1.9164768
7.7756829 -2.5466402 1.9272298
7.7924304 -3.5570166 1.9453346
8.259634 -3.4020674 1.9349388
8.4792967 -3.1314251 1.867783
8.4229612 -2.7653079 1.742995
8.63939 -3.9412608 1.7891247
8.5605783 -3.528645 1.649001
8.4738684 -3.1342955 1.5205245
8.4479971 -2.7771211 1.4110194
8.6481819 -3.9461832 1.4305155
8.565917 -3.5359192 1.301735
8.4992781 -3.1487536 1.1855471
7.9148235 -2.609659 1.0105852
8.1399002 -3.7159698 1.0117429
8.0634861 -3.3286855 0.90164286
7.9999089 -2.9674037 0.80055165
7.9574256 -2.6280177 0.70782614
8.1429653 -3.718915 0.68284643
8.0542679 -3.3278422 0.58050936
8.0024729 -2.9705796 0.48844793
7.9673395 -2.6342225 0.39896342
8.1500034 -3.7252243 0.35380244
8.0742655 -3.3407252 0.26147744
7.9973693 -2.9732914 0.17544651
7.9529266 -2.6331532 0.091387995
8.175808 -3.738399 0.025575498
8.0838566 -3.3481641 -0.059711613
8.0240049 -2.986861 -0.13778931
7.9706964 -2.6422787 -0.21534307
0 -0 -0
1.5504485 -0.64282918 -0.072665401
1.5840672 -0.59075624 -0.089371972
1.6009127 -0.53113532 -0.10523283
1.5277669 -0.70076698 -0.11865445
1.5475299 -0.64256889 -0.1342295
1.5723894 -0.58668244 -0.15040202
1.5997925 -0.53129065 -0.1674239
1.5090282 -0.69268191 -0.1786782
1.5572594 -0.64740556 -0.19751824
1.5716174 -0.58686316 -0.21234843
1.6359979 -0.54375833 -0.23545307
1.5185734 -0.6985721 -0.24218401
1.5646844 -0.65151751 -0.26174951
1.6211741 -0.60607773 -0.28457084
3.0334177 -1.0087494 -0.55751938
1.5571069 -0.71774751 -0.31353772
1.6078163 -0.67036635 -0.33557695
1.6521311 -0.61880159 -0.35713816
3.6006615 -1.1986401 -0.80802214
1.5438114 -0.7134167 -0.37715656
1.5876672 -0.66281122 -0.39843476
1.6047268 -0.60123807 -0.41416678
1.5604054 -0.51884526 -0.41515172
1.4931808 -0.69172812 -0.43049353
1.4893662 -0.62308604 -0.43872705
1.4715122 -0.55176634 -0.4437286
1.3985404 -0.46496984 -0.43264768
5.583478 -2.5945926 1.9021044
5.8867106 -2.4661925 1.8956534
6.2145319 -2.3304284 1.9010311
6.5181804 -2.1705687 1.8963358
6.5311708 -3.0299888 1.9223117
6.8900185 -2.8886411 1.9126812
7.3137784 -2.7489047 1.9210131
7.7294474 -2.5841181 1.9196639
7.7607274 -3.6002493 1.9428985
8.261138 -3.4621272 1.9402312
8.5085011 -3.2016735 1.878508
8.4309549 -2.825356 1.7482036
8.6382246 -4.0049443 1.7939386
8.5986872 -3.606236 1.6605729
8.4720106 -3.1928387 1.5236777
8.4635696 -2.839901 1.4165043
8.6767349 -4.0237184 1.4392954
8.582407 -3.6045175 1.3075774
8.5169039 -3.2148516 1.190735
7.9137158 -2.6632404 1.0125113
8.141284 -3.7771368 1.0147765
8.092432 -3.3988996 0.90719455
8.0141478 -3.0287535 0.80382115
7.9515367 -2.6802952 0.70875192
8.1597881 -3.7872796 0.68619299
8.0870476 -3.399627 0.58436441
8.0214481 -3.0337527 0.49073309
7.972795 -2.6904054 0.40005574
8.1568975 -3.7890534 0.35510436
8.1015205 -3.4103708 0.26303279
8.0182438 -3.0371807 0.17630996
7.9555669 -2.6883042 0.091606162
8.1699457 -3.7965014 0.025629552
8.1000204 -3.4132349 -0.05998458
8.0298347 -3.0452573 -0.13820769
7.9855828 -2.7017086 -0.21618906
1.5358871 -0.71469116 -0.057380699
1.5750111 -0.6643675 -0.074006252
1.5738782 -0.59798205 -0.089002453
1.5853342 -0.53678721 -0.10442334
1.5252466 -0.71097088 -0.11879528
1.5582498 -0.65825856 -0.13550711
1.572484 -0.59773505 -0.15075907
1.602157 -0.54301327 -0.1680169
1.5110569 -0.70487028 -0.17942715
1.5486839 -0.65501404 -0.19693662
1.5800412 -0.60108113 -0.21398093
1.6298158 -0.55283159 -0.23504712
1.5097758 -0.70578122 -0.24146707
1.5460973 -0.65493828 -0.25930756
1.6183469 -0.6163649 -0.28473309
3.018775 -1.0244937 -0.55597311
1.5633632 -0.73229545 -0.31569636
1.5991528 -0.67830193 -0.33463112
1.6345673 -0.62368619 -0.35416201
3.5673084 -1.2119015 -0.80219108
1.5455909 -0.72578067 -0.37867212
1.5799836 -0.67101723 -0.39753231
1.5991912 -0.61037993 -0.41369691
1.5709648 -0.53308338 -0.41882345
1.4845318 -0.69881684 -0.42922813
1.4881788 -0.63334656 -0.43951377
1.4779881 -0.56456244 -0.44671756
1.4174683 -0.48094147 -0.4394078
5.5838685 -2.6365545 1.9077127
5.8882232 -2.509407 1.9010631
6.2243629 -2.3777788 1.9084657
6.5111279 -2.2126939 1.8981984
6.5080867 -3.0679464 1.9210219
6.8677087 -2.9289629 1.9114411
7.2904258 -2.7912989 1.9193419
7.7152882 -2.6321251 1.9201224
7.7261419 -3.6419792 1.9397981
8.249629 -3.5169678 1.9425601
8.4941826 -3.2559237 1.8797222
8.4375992 -2.8852887 1.7532195
8.6570501 -4.0783939 1.8030113
8.6189575 -3.6770861 1.6688135
8.521307 -3.2712686 1.5361247
8.4740162 -2.9013765 1.4212055
8.6894522 -4.0945854 1.4455453
8.5892687 -3.6695597 1.3120286
8.5516224 -3.2880449 1.198387
7.9366598 -2.7252889 1.0175672
8.1799717 -3.8562562 1.0225289
8.0869751 -3.4551337 0.90894234
8.0214291 -3.0878854 0.80643666
7.9632092 -2.7387567 0.71127683
8.1670589 -3.851737 0.68877894
8.0898886 -3.4593842 0.58609253
8.0334263 -3.0947578 0.49261832
7.966526 -2.7428517 0.40057811
8.173254 -3.8577981 0.35684019
8.1061697 -3.4710333 0.2638703
8.0134487 -3.0917208 0.17661834
7.9710627 -2.7481492 0.09197703
8.1917095 -3.8679078 0.025771793
8.117528 -3.4794178 -0.060271204
8.0417767 -3.1063595 -0.13873869
7.9839745 -2.7558751 -0.21659923
0 -0 -0
1.5543789 -0.66692829 -0.073227696
1.5673854 -0.6065467 -0.088844083
1.590501 -0.54943746 -0.10498376
1.5118403 -0.71604639 -0.11809111
1.5450231 -0.66387218 -0.1347086
1.5678579 -0.60701275 -0.1506698
1.6006759 -0.55348408 -0.16821456
1.4806484 -0.70177943 -0.17632437
1.5364244 -0.66097176 -0.19588971
1.5605969 -0.60467142 -0.21184613
1.623584 -0.56184947 -0.23464116
1.5134623 -0.71885312 -0.24275756
1.5638324 -0.67379802 -0.26297051
1.6071748 -0.6234284 -0.28343517
3.016156 -1.0442866 -0.55666035
1.54907 -0.73722434 -0.3137176
1.5913543 -0.68654549 -0.33387446
1.6352774 -0.63547903 -0.35515407
3.5598052 -1.2337674 -0.80219108
1.5411085 -0.73525059 -0.37867212
1.5731535 -0.67954022 -0.39685544
1.59451 -0.6198287 -0.41346201
1.5740778 -0.54493296 -0.42053691
1.483707 -0.70958221 -0.43024042
1.4904639 -0.64514923 -0.44134945
1.4700117 -0.57187599 -0.44535893
1.4280914 -0.49433783 -0.44363287
5.5658627 -2.6699402 1.9071224
5.8612809 -2.5405333 1.8973618
6.2087598 -2.4155774 1.9081904
6.5183768 -2.2598662 1.9043183
6.4917536 -3.1090736 1.9217957
6.8736038 -2.9814558 1.9181374
7.283113 -2.83986 1.9219681
7.6980739 -2.679096 1.9198933
7.7010107 -3.6880536 1.9391336
8.2314806 -3.5690753 1.9434068
8.531517 -3.3304172 1.8924708
8.4595747 -2.9509032 1.7615149
8.7080936 -4.167922 1.8189342
8.6188116 -3.7396986 1.6731968
8.5460777 -3.3410866 1.5442567
8.4672432 -2.9572253 1.423086
8.7007332 -4.1653323 1.4516466
8.6129122 -3.7423201 1.319123
8.5488291 -3.3473237 1.2008512
7.9591398 -2.787719 1.0226232
8.18573 -3.9205396 1.0262365
8.0738335 -3.5082569 0.90986764
8.0134544 -3.1414065 0.80755764
7.9631801 -2.7935038 0.71279186
8.1711473 -3.9151332 0.69113678
8.1206646 -3.5316393 0.589881
8.0570393 -3.1607637 0.49524623
7.9655676 -2.7973082 0.40138546
8.2025881 -3.9333665 0.35916784
8.1122122 -3.5326788 0.26476759
8.0455074 -3.1609399 0.17774907
7.9785767 -2.8056314 0.092260636
8.208396 -3.9375613 0.025899814
8.1207752 -3.5399492 -0.060455453
8.0560617 -3.1688201 -0.13931796
7.9782295 -2.8087957 -0.21690686
0 -0 -0
1.5328593 -0.66886157 -0.072405882
1.5877903 -0.62567127 -0.090216599
1.5842757 -0.55819124 -0.10479696
1.5011262 -0.72228193 -0.11759818
1.5445743 -0.67493635 -0.135028
1.5641038 -0.61662149 -0.1506698
1.5934958 -0.56197137 -0.16781923
1.4960226 -0.72034079 -0.1786782
1.5414393 -0.67436755 -0.19705296
1.5716231 -0.62006128 -0.21385534
1.6229089 -0.57279027 -0.23504712
1.5090231 -0.72812605 -0.24275756
1.5433749 -0.67624164 -0.26022327
1.6106614 -0.63617808 -0.28473309
2.9938998 -1.0571973 -0.55373961
1.5409749 -0.74500275 -0.31299809
1.5898094 -0.69748044 -0.33444196
1.6249679 -0.64297664 -0.35376519
3.5364914 -1.2500454 -0.79865074
1.5269041 -0.74000919 -0.3762905
1.5671705 -0.68839651 -0.39640424
1.5879654 -0.62852758 -0.41275722
1.5844185 -0.55942315 -0.42420864
1.4793252 -0.71867269 -0.43024042
1.4873605 -0.65467119 -0.44161171
1.4763173 -0.58478361 -0.44834793
1.4304601 -0.50500768 -0.44532293
5.5304794 -2.694834 1.9006284
5.8508453 -2.5787692 1.89907
6.1839895 -2.4497335 1.9051614
6.50984 -2.3017476 1.9059147
6.4569163 -3.1412396 1.9171525
6.8392262 -3.0165384 1.9136733
7.259233 -2.8819866 1.9202968
7.6869936 -2.7282331 1.9212687
7.6685905 -3.7305443 1.9366976
8.2103214 -3.61991 1.9436187
8.5354939 -3.3924692 1.8979347
8.4829102 -3.0175529 1.7701961
8.6911936 -4.2255721 1.8207858
