# .PCD v0.7 - Point Cloud Data file format
VERSION 0.7
FIELDS x y z
SIZE 4 4 4
TYPE F F F
COUNT 1 1 1
WIDTH 1527
HEIGHT 1
VIEWPOINT 0 0 0 1 0 0 0
POINTS 1527
DATA ascii
-0.040589329 2.3631797 -0.21181247
-0.13250066 2.467288 -0.24540348
0.13132094 2.3407838 -0.25228932
0.047339182 2.402112 -0.2813879
-0.040517822 2.3955405 -0.30326521
-0.13005823 2.432909 -0.3327466
0.13341293 2.3436947 -0.34011871
0.0485394 2.3951097 -0.36995965
-0.038830645 2.3491337 -0.386296
-0.053849101 1.0102948 -0.1764476
0.13541576 2.347111 -0.42992264
0.047598645 2.2952952 -0.44226542
-0.015818696 0.99371493 -0.20118783
-0 0 -0
0.12685639 2.1626501 -0.48043078
0.042581249 2.0093582 -0.46544221
-0 0 -0
-0 0 -0
0 0 -0
0 0 -0
-0 0 -0
-0 0 -0
0.14075506 2.3155427 0.71668369
0.052648757 2.3460898 0.69699001
-0.036859624 2.3742323 0.68011975
-0.12579936 2.3786001 0.65747803
0.13929553 2.3155541 0.61935991
0.053342916 2.3495979 0.60168111
-0.035131793 2.3779159 0.58470809
-0.12749374 2.4661293 0.58165383
0.13961755 2.321583 0.52819026
0.053550426 2.373342 0.51421952
-0.034381963 2.389272 0.49375844
-0.12464499 2.444957 0.48132512
0.13993132 2.3356442 0.44084716
0.053850532 2.3592544 0.42027169
-0.033253111 2.3950851 0.40311655
-0.12321919 2.4353795 0.38691768
0.13935471 2.3226244 0.35015115
0.055274777 2.3690901 0.33287582
-0.031989515 2.3943892 0.31321478
-0.12177297 2.4500065 0.29745755
0.1405582 2.3358638 0.26459241
0.055261359 2.3667436 0.24468757
-0.030652678 2.3654122 0.22194992
-0.1197545 2.4333799 0.20578298
0.14057164 2.3299825 0.17805117
0.056225948 2.3760679 0.15832075
-0.030474758 2.3968852 0.13716532
-0.11787092 2.4113939 0.11478332
0.1414828 2.3328929 0.092277423
0.05758509 2.3842373 0.071366414
-0.029510735 2.417309 0.049710531
-0.11780868 2.4310024 0.026550295
0.14185776 2.333683 0.0066513363
0.058336694 2.3792295 -0.01624156
-0.02857811 2.4205179 -0.038956895
-0.11808676 2.455354 -0.063039117
0.1435487 2.3412583 -0.079452805
0.058955852 2.3690469 -0.10259663
-0.026897525 2.4024949 -0.12701061
-0.11677265 2.4404576 -0.15243194
0.14488594 2.3376856 -0.16534163
0.060161546 2.3676488 -0.18972594
-0.026253276 2.3783233 -0.21315135
-0.11816268 2.4849522 -0.24708365
0.14493988 2.3280261 -0.25100544
0.0619234 2.3958189 -0.28068995
-0.025796914 2.39376 -0.30301404
-0.11662594 2.4653316 -0.33707678
0.14860106 2.3556721 -0.34198275
0.062947653 2.3838995 -0.36828083
-0.02555415 2.4588511 -0.40430477
-0.049551286 1.0509517 -0.18349175
0.15025361 2.3531077 -0.43118182
0.062314592 2.3185182 -0.44680539
-0.009941577 1.0163349 -0.20575126
-0 0 -0
0.14789087 2.281662 -0.50706118
0.055282265 2.0226929 -0.46860081
-0 0 -0
-0 0 -0
0 0 -0
0 0 -0
-0 0 -0
-0.038151361 0.80796748 -0.23744923
0.15527941 2.3194017 0.7181595
0.066741839 2.3351822 0.69385809
-0.022390187 2.3849881 0.68314868
-0.11079715 2.3706613 0.65508336
0.151519 2.2847707 0.61136323
0.067814641 2.3511634 0.60217714
-0.020431481 2.365463 0.58160424
-0.11032219 2.4221368 0.57110751
0.15482755 2.335278 0.5315122
0.067382902 2.3475685 0.50871533
-0.01979376 2.3982515 0.49557969
-0.10871785 2.4250913 0.47727391
0.15425994 2.3347418 0.44084716
0.068525165 2.3657682 0.42149901
-0.018678753 2.4110217 0.40577191
-0.10796669 2.429183 0.38582072
0.15334232 2.3177788 0.34955591
0.069605991 2.3617775 0.33190209
-0.017290054 2.3935487 0.31308508
-0.10591699 2.4318635 0.29517034
0.15515123 2.3389235 0.26504183
0.069958307 2.3723254 0.24530444
-0.016267257 2.3844724 0.22372477
-0.10456407 2.4280958 0.20527798
0.15632087 2.3509643 0.17972445
0.070417747 2.3627126 0.1574567
-0.015708074 2.388042 0.13665117
-0.10524756 2.4629679 0.11720531
0.15586111 2.3329778 0.092316873
0.072152875 2.3818407 0.071306594
-0.014605007 2.4054472 0.049463827
-0.10318603 2.438673 0.026626654
0.1561743 2.3327687 0.0066513363
0.072413318 2.3618352 -0.016125549
-0.013725555 2.4206476 -0.038956895
-0.10222277 2.4370551 -0.062552035
0.15737343 2.3323562 -0.079181984
0.07349094 2.3686407 -0.10259663
-0.012155588 2.4026146 -0.12701061
-0.10183767 2.4421253 -0.15249421
0.15983732 2.3457096 -0.16597539
0.074656591 2.3662388 -0.18964608
-0.011679196 2.3824236 -0.2135084
-0.10110181 2.4418833 -0.242735
0.15827146 2.3132057 -0.24950752
0.076527439 2.3924158 -0.28034097
-0.011034936 2.378 -0.30100483
-0.10080409 2.4491713 -0.3347764
0.16257381 2.3478048 -0.34097901
0.0775095 2.3814926 -0.36797556
-0.010575642 2.484617 -0.40852302
-0.044837207 1.0935611 -0.19087952
0.16304022 2.3285906 -0.42686462
0.077187672 2.3377204 -0.45058867
-0.003637387 0.99775463 -0.20198146
-0 0 -0
0.15131216 2.1317155 -0.47393554
0 0 -0
-0 0 -0
-0 0 -0
0.15769432 2.1923704 -0.57500368
0.046341714 1.3540711 -0.36818457
-0 0 -0
-0.032563049 0.7928471 -0.23294248
0.16971709 2.321264 0.71904504
0.080802873 2.3270645 0.69158036
-0.007777635 2.3918099 0.68507612
-0.095662549 2.356849 0.65109217
0.16756077 2.3117433 0.61884403
0.082138218 2.3477983 0.6014331
-0.0059581799 2.3820522 0.58566308
-0.095304877 2.4188778 0.57019043
0.16830786 2.3226125 0.52885461
0.081820071 2.3480875 0.50892699
-0.0050572585 2.3885348 0.49355608
-0.093608148 2.4198296 0.47611639
0.16865355 2.3347316 0.44103232
0.082901783 2.3613677 0.42079768
-0.0038894161 2.4140494 0.40626979
-0.091018364 2.3765061 0.37735838
0.16863105 2.3315885 0.35178804
0.083814308 2.3533885 0.33078924
-0.0026075048 2.3975761 0.31360388
-0.08921209 2.38485 0.28939211
0.16906856 2.3319809 0.2643677
0.084477887 2.3708575 0.24520163
-0.0016347357 2.3825359 0.22353794
-0.087641649 2.373924 0.20064892
0.17002061 2.3400159 0.17896387
0.08530803 2.3732045 0.15818781
-0.0010638487 2.4080608 0.13779373
-0.088087931 2.4076679 0.11454587
0.16980943 2.3269947 0.092119612
0.086584248 2.376359 0.071157038
0.00015494377 2.4074912 0.049504947
-0.088039964 2.4342637 0.026572112
0.17012037 2.3267798 0.0066371122
0.086609684 2.3533521 -0.016070955
0.0011275188 2.4206862 -0.038956895
-0.086981237 2.4296443 -0.062346946
0.17226872 2.3393204 -0.079452805
0.087577946 2.3561645 -0.10207759
0.0025782064 2.394655 -0.1265883
-0.086390123 2.4297376 -0.15168472
0.17356203 2.3357317 -0.16534163
0.089249253 2.3677285 -0.18980578
0.0029737076 2.4103386 -0.21600765
-0.086116791 2.4424577 -0.242735
0.17253602 2.3131826 -0.24961452
0.090751447 2.3799911 -0.27894506
0.0035875626 2.3988569 -0.30364195
-0.085392982 2.4388516 -0.33328786
0.17519048 2.3230784 -0.33753768
0.092655532 2.394798 -0.3701123
0.0045307856 2.4106288 -0.39635494
-0.034900583 1.0012696 -0.17472951
0.17493388 2.2961593 -0.42110834
0.092068158 2.3509395 -0.45323697
0.0029192609 1.1722189 -0.23729847
-0 0 -0
0.15312459 1.9847387 -0.44145936
0.085575894 2.1600926 -0.50063801
0 0 -0
-0 0 -0
0.15592739 1.996531 -0.52388102
0.039274298 0.97289544 -0.26459989
0.0028566171 0.9999032 -0.28232333
-0.027228734 0.779607 -0.22899906
0.18222003 2.2982726 0.71225601
0.095353954 2.3332295 0.69357336
0.0068900632 2.3889287 0.68425006
-0.081597596 2.3689523 0.65428513
0.18219677 2.3164508 0.62039185
0.096343428 2.3424103 0.60019302
0.0086296936 2.3742754 0.58375305
-0.080914065 2.4330366 0.57340014
0.1819444 2.3137589 0.52708292
0.095945939 2.3407056 0.5074451
0.0095907394 2.3865621 0.49315134
-0.078790501 2.421339 0.4763093
0.18320647 2.336592 0.44158778
0.096658885 2.3431084 0.41764173
0.010851594 2.3982499 0.40361443
-0.076688617 2.3849168 0.37861204
0.18130918 2.3098075 0.34866303
0.097509138 2.3350205 0.32828537
0.0121088 2.3985384 0.31373358
-0.075725071 2.4220657 0.29384616
0.18321829 2.3289185 0.26414299
0.098649926 2.3613501 0.24427633
0.012984261 2.3825011 0.22353794
-0.072859317 2.3674452 0.20005977
0.1846889 2.3429048 0.17926811
0.098231636 2.3337569 0.15559566
0.013774287 2.4190037 0.13842215
-0.073130727 2.4021726 0.11426093
0.18384789 2.3229206 0.092001259
0.10048331 2.3598046 0.070678473
0.014939426 2.4094443 0.049546059
-0.072801858 2.4247632 0.026463032
0.18463114 2.3286829 0.0066456469
0.10139121 2.3607688 -0.016125549
0.015907941 2.4096355 -0.038779892
-0.071804866 2.4211392 -0.062116221
0.18630123 2.3342345 -0.079317391
0.10164434 2.3465996 -0.10168831
0.017336307 2.4035814 -0.12706341
-0.071039759 2.4152575 -0.1507507
0.1880506 2.3366115 -0.16548248
0.10399397 2.3721156 -0.19020505
0.01771917 2.404299 -0.2154721
-0.069390863 2.3832593 -0.23680499
0.15415116 1.9087299 -0.2060684
0.10500162 2.3714516 -0.27801448
0.018397454 2.4106941 -0.30514884
-0.069368884 2.4026852 -0.32828113
0.16779318 2.0566211 -0.29896605
0.10686104 2.3833241 -0.36843342
0.01932995 2.4115424 -0.39651719
-0.065175183 2.2697899 -0.39601916
0.18692023 2.2695529 -0.41643134
0.10675819 2.356216 -0.45437196
0.019107591 2.2149868 -0.44840676
-0.02807134 0.98843527 -0.2105439
0.11763122 1.4116913 -0.31415281
0.046853285 1.0238045 -0.23734619
0 0 -0
-0 0 -0
0.20587212 2.4428453 -0.64131135
0 0 -0
0 0 -0
-0.023079608 0.80181903 -0.23547752
0.19591175 2.2923515 0.7107802
0.10953353 2.3297279 0.69271922
0.021626167 2.3974931 0.6867283
-0.066978633 2.3665175 0.65348685
0.19706012 2.3229907 0.62245548
0.11062288 2.3398399 0.59969699
0.023197811 2.3741777 0.58375305
-0.065165833 2.4033239 0.56629282
0.19655 2.3174574 0.52819026
0.10961616 2.3254292 0.50426966
0.02423423 2.3864584 0.49315134
-0.06359534 2.4090257 0.47380137
0.19712594 2.3305275 0.440662
0.11131379 2.3483715 0.41869369
0.025261907 2.3695419 0.39880159
-0.062978238 2.4208858 0.38425362
0.19489446 2.3017542 0.34762138
0.11131346 2.3234978 0.32675526
0.026803546 2.3964357 0.31347418
-0.060787331 2.4195075 0.29348502
0.19616066 2.3119085 0.26234534
0.11261325 2.349771 0.24314541
0.027729651 2.3933277 0.22456548
-0.058527898 2.3758171 0.2007331
0.19813222 2.3307986 0.17843148
0.11192445 2.3201542 0.1547316
0.0284396 2.4038994 0.13756523
-0.058389898 2.402576 0.11426093
0.19775781 2.3177664 0.091843449
0.11447439 2.34916 0.070379369
0.029698554 2.4073081 0.049504947
-0.058089547 2.4321618 0.026539387
0.2008747 2.3504226 0.0067110793
0.11558048 2.3541095 -0.016084604
0.030565532 2.3994946 -0.038618982
-0.056712653 2.4115403 -0.061859857
0.19950719 2.3201027 -0.078877307
0.11638639 2.3529165 -0.10199108
0.031870808 2.3874536 -0.12621878
-0.056288343 2.4186413 -0.1509375
0.20195362 2.3304446 -0.16513038
0.11730284 2.3465436 -0.18820876
0.032471336 2.404145 -0.2154721
-0.055177584 2.4015472 -0.23858398
0.14269471 1.6412972 -0.1772873
0.11865023 2.3529077 -0.27592066
0.033038612 2.3996241 -0.3037675
-0.054962732 2.4179239 -0.33031091
0.12762761 1.454168 -0.21149875
0.12007376 2.3549876 -0.36415997
0.034140497 2.4123652 -0.39667946
-0.051068924 2.2622681 -0.39464471
0.12744603 1.4394065 -0.26424953
0.12055763 2.3427682 -0.45191282
0.019199304 1.3004763 -0.26329017
-0 0 -0
0.19261332 2.1519067 -0.4791317
0.071014158 1.3679067 -0.31721362
0.017658314 1.1876702 -0.28707418
-0 0 -0
0.17928311 1.9819416 -0.52059096
0 0 -0
0 0 -0
-0 0 -0
0.21232802 2.3167956 0.71874988
0.1238264 2.3290119 0.69271922
0.035811998 2.362711 0.67681557
-0.052008163 2.3466461 0.64789927
0.2101716 2.3092296 0.619102
0.12420248 2.3246064 0.59597677
0.037765056 2.3739908 0.58375305
-0.050295621 2.3978398 0.56491727
0.21032408 2.311352 0.52708292
0.12409069 2.3286166 0.5051164
0.038685378 2.3745148 0.49072307
-0.048812639 2.4093704 0.47380137
0.21088907 2.3234019 0.43955109
0.12577368 2.3486276 0.41886905
0.039966296 2.3792021 0.4004612
-0.048436794 2.4370258 0.38676098
0.20919304 2.3024845 0.34791899
0.12546116 2.3207934 0.32647702
0.041318394 2.3853209 0.31204751
-0.045431588 2.3930359 0.29023477
0.20980208 2.304724 0.26167122
0.12686794 2.3460562 0.242837
0.042379029 2.3911216 0.22437866
-0.043949056 2.3761315 0.2007331
0.21252054 2.3305321 0.17850752
0.12724237 2.33935 0.1560609
0.043189112 2.4036796 0.13756523
-0.043755718 2.4088814 0.11454587
0.21179354 2.3145194 0.091764554
0.1284482 2.3404288 0.070140079
0.044302754 2.3980839 0.049319915
-0.043147251 2.4314728 0.02652848
0.21228111 2.3162837 0.0066171982
0.1296367 2.3463669 -0.016036835
0.045231368 2.3962629 -0.038570706
-0.041984133 2.4158409 -0.061962403
0.21373931 2.3188348 -0.078877307
0.12960088 2.3302128 -0.10103951
0.046227507 2.372237 -0.12542695
-0.041361287 2.4139516 -0.15062617
0.21173052 2.2804925 -0.16167988
0.13130763 2.3388131 -0.18764982
0.047085352 2.39693 -0.21484728
-0.040256649 2.3908961 -0.23749682
0.1421607 1.5265435 -0.16498311
0.13280462 2.3471773 -0.27533904
0.047742065 2.3983843 -0.30364195
-0.039895456 2.4043462 -0.32841644
0.14876771 1.5834208 -0.23042612
0.13401401 2.3453264 -0.36278635
0.048821747 2.4061909 -0.395706
-0.031990163 1.9463547 -0.33949408
0.13386369 1.4131354 -0.25957254
0.13560806 2.3537481 -0.45418277
0.045120023 2.158731 -0.4370974
-0.016081501 0.99750692 -0.2124182
0.1491753 1.5588331 -0.34727848
0.094090067 1.6203157 -0.37587336
0.023883885 1.137006 -0.27485827
-0 0 -0
0.19916533 2.0607295 -0.54159677
0 0 -0
0 0 -0
-0.012874105 0.77997613 -0.22899906
0.22486497 2.2983327 0.71343672
0.13771725 2.3215098 0.69072622
0.050185841 2.3566799 0.67516345
-0.037701104 2.352704 0.64949572
0.22237386 2.2877026 0.61368489
0.13788745 2.3141301 0.59349662
0.05228807 2.3717725 0.58327556
-0.035567362 2.39713 0.56468797
0.224408 2.3090475 0.52686149
0.13733256 2.3102503 0.50130582
0.052749302 2.3517141 0.48606879
-0.033903401 2.4007945 0.47206512
0.2237187 2.3073926 0.43677384
0.13906734 2.3291392 0.41553771
0.054043964 2.3562372 0.39664412
-0.032695703 2.3799989 0.37767178
0.22494064 2.3178897 0.35044876
0.1407108 2.3367841 0.32884178
0.056000184 2.3870051 0.31230694
-0.030976897 2.4111373 0.29240161
0.22480503 2.3122942 0.26268238
0.14108126 2.3422549 0.24252857
0.056836117 2.3818586 0.22353794
-0.029380873 2.3773527 0.20081726
0.2263332 2.3242221 0.17812723
0.14159396 2.3385253 0.1560609
0.057215191 2.3734269 0.13585137
-0.029046349 2.4150975 0.11483081
0.22628263 2.3161595 0.091882899
0.142441 2.3336105 0.069960624
0.058967084 2.3957679 0.049278799
-0.028308447 2.4386907 0.026604837
0.22610006 2.3109562 0.0066058179
0.14384744 2.3425331 -0.016016362
0.059733681 2.387944 -0.038441978
-0.027137551 2.4140539 -0.061911132
0.22835474 2.3214581 -0.079012714
0.14408116 2.3323653 -0.10116928
0.060705665 2.3689137 -0.12526858
-0.02650488 2.4101682 -0.15037709
0.23053657 2.3277907 -0.16513038
0.1457798 2.3399529 -0.1878095
0.061355334 2.3796694 -0.21332988
-0.025958287 2.4259248 -0.24095599
0.15830502 1.5939106 -0.17236562
0.14757727 2.3522658 -0.27603698
0.062199071 2.3881288 -0.30238619
-0.024996886 2.3906753 -0.32652199
0.14723803 1.4702176 -0.21407975
0.14852701 2.3464327 -0.36309162
0.062985323 2.3831587 -0.39197445
-0.02336444 2.268635 -0.39567557
0.14243323 1.4113088 -0.25939265
0.14929792 2.3411124 -0.45191282
0.060987741 2.2554097 -0.45673999
-0 0 -0
0.14131975 1.3869481 -0.30917311
0.075181611 1.1705451 -0.27163956
0.043731485 1.6110064 -0.38949999
-0 0 -0
0.2030962 1.9747803 -0.51932549
0 0 -0
0 0 -0
-0.0084163155 0.81170255 -0.23829423
0.23925966 2.2997606 0.71432227
0.15139543 2.312012 0.6881637
0.064302474 2.3438349 0.67158389
-0.023493212 2.3760247 0.65588158
0.23849356 2.3064766 0.619102
0.15170276 2.3074405 0.59200853
0.066156015 2.3471398 0.57730675
-0.020722682 2.3817298 0.56101966
0.23827097 2.3047171 0.52619708
0.15118551 2.3044882 0.5002473
0.066982381 2.3444939 0.48465228
-0.019109089 2.3931079 0.47052184
0.23797321 2.3069539 0.43695897
0.15283839 2.3203831 0.41413507
0.068357244 2.3509326 0.39581433
-0.018369444 2.4166965 0.38347006
0.2370261 2.2958095 0.34732375
0.1545217 2.3279719 0.32772896
0.07035213 2.3767052 0.31100994
-0.016281782 2.4261725 0.29420727
0.23898876 2.3108714 0.26268238
0.15558219 2.3433299 0.24273418
0.071419999 2.3804698 0.22344454
-0.014793158 2.3774881 0.20081726
0.23925462 2.3098962 0.17713848
0.15501042 2.3236744 0.1551304
0.071777187 2.3730311 0.13585137
-0.014227045 2.41523 0.11483081
0.24131614 2.3226786 0.092198521
0.15595286 2.320725 0.069601692
0.073451005 2.3883657 0.049134888
-0.013284206 2.4278195 0.026484849
0.24027556 2.3095255 0.0066058179
0.15767893 2.3336248 -0.015961768
0.074229024 2.3825355 -0.03836152
-0.012416543 2.4321687 -0.06237258
0.24186707 2.3130553 -0.078775749
0.15926987 2.3443949 -0.10173156
0.075081363 2.3635061 -0.12500462
-0.011730421 2.4132795 -0.15056391
0.2423097 2.3025236 -0.16344035
0.160339 2.3419979 -0.18804905
0.075574182 2.3673019 -0.21225876
-0.010990853 2.4081266 -0.23917699
0.16484773 1.5622573 -0.16904883
0.16084711 2.3344715 -0.27405947
0.076915011 2.3896852 -0.30263734
-0.010280429 2.379885 -0.32503352
0.15206997 1.4299219 -0.20834421
0.1623053 2.3366039 -0.361718
0.077510558 2.3797686 -0.39148772
-0.0098580876 2.3682327 -0.41302824
0.15339531 1.4319263 -0.26335013
0.16283783 2.3283975 -0.44964284
0.06578926 1.9826699 -0.40158203
-0 0 -0
0.15328965 1.4180856 -0.31631789
0.085646078 1.2167088 -0.28246903
0.032499205 0.97633362 -0.23609619
-0 0 -0
0.17084606 1.5666796 -0.41227159
0.10772351 1.5141222 -0.41250306
0 0 -0
-0 0 -0
0.2511676 2.2783058 0.70812362
0.16578434 2.3139081 0.68901789
0.078585982 2.3405137 0.67075783
-0.0089969262 2.3982949 0.66200137
0.25253609 2.3040094 0.61884403
0.16599707 2.3083987 0.59250462
0.080389969 2.3418372 0.57611293
-0.0061581978 2.4012792 0.56560498
0.25240797 2.3032117 0.52619708
0.16560258 2.3074162 0.5010941
0.081366666 2.3440387 0.48465228
-0.0044339658 2.3980861 0.47148639
0.25148293 2.2995889 0.43584806
0.16778046 2.3292212 0.4158884
0.082781009 2.3504689 0.39581433
-0.0035217176 2.4039245 0.3814328
0.25143123 2.297261 0.34777018
0.1691612 2.3319182 0.32842448
0.084083952 2.3524468 0.30789727
-0.0013930479 2.4232488 0.29384616
0.25435463 2.3202269 0.26391831
0.16952574 2.3363786 0.24211732
0.085701272 2.371032 0.2226038
-0.00020660291 2.3974633 0.20250055
0.25277054 2.302438 0.17668214
0.16955538 2.3266602 0.15539625
0.085755587 2.3565829 0.13493733
0.00059647427 2.4302549 0.11554316
0.2560007 2.3251269 0.092356324
0.17004335 2.3177304 0.069541872
0.087809451 2.3798773 0.048970424
0.0016208343 2.4398544 0.026615744
0.2546612 2.3099959 0.0066115079
0.17228895 2.3366024 -0.015989065
0.088175766 2.3640499 -0.038071878
0.0025030752 2.4282005 -0.062270038
0.25572506 2.3085475 -0.078674182
0.17306116 2.335403 -0.10138554
0.089317344 2.3560157 -0.1246351
0.003069768 2.4073176 -0.15019029
0.25764847 2.3118985 -0.16421494
0.1732225 2.321089 -0.18645203
0.089946702 2.3628128 -0.21190172
0.0037806486 2.4051635 -0.23888049
0.1812752 1.6224793 -0.1756824
0.17494509 2.3304691 -0.27371049
0.090778425 2.3683498 -0.30000025
0.0043494566 2.3947651 -0.32706326
0.16394043 1.4564986 -0.2123591
0.17604314 2.3276803 -0.36049703
0.091805704 2.3713603 -0.3901898
0.0047432845 2.4037135 -0.41921335
0.16184622 1.4280258 -0.26281047
0.17533319 2.3038557 -0.4451029
0.077414244 1.9685178 -0.39880425
0.0029666829 1.2969241 -0.27614364
0.15134399 1.3240016 -0.29553312
0.078533709 1.0257709 -0.23824863
0.038527563 0.97708714 -0.23633112
0 0 -0
0.16350693 1.4185563 -0.37354994
0 0 -0
0 0 -0
0.0014775799 0.77624291 -0.22787237
0.26547384 2.2795689 0.70900917
0.1794585 2.3061571 0.68702483
0.092869312 2.3380663 0.67020708
0.0057280976 2.4021606 0.66306567
0.26544571 2.2918591 0.61600649
0.17955472 2.2996101 0.59052044
0.09463989 2.3383889 0.57539666
0.0085550342 2.395432 0.56422943
0.26552585 2.2929013 0.5242039
0.17998533 2.3092799 0.50172919
0.095188186 2.3297963 0.48181918
0.01024264 2.3892374 0.46975017
0.26581389 2.2999551 0.43621838
0.18291347 2.3389444 0.41781703
0.097079389 2.346961 0.39531645
0.011200873 2.3979752 0.38049257
0.26484051 2.2897811 0.34687731
0.18261161 2.319977 0.32689434
0.098184727 2.343961 0.3068597
0.013442629 2.4172554 0.2931239
0.26755741 2.3097389 0.26290712
0.18323374 2.3273616 0.24129485
0.099238403 2.3465879 0.22036189
0.014509987 2.3984158 0.20258471
0.26620391 2.2949009 0.1762258
0.18414281 2.3295546 0.15566212
0.099874265 2.3480325 0.13448028
0.015412616 2.4152229 0.11483081
0.27037802 2.3245049 0.092395775
0.18418223 2.3156471 0.069511965
0.10163656 2.3613141 0.048600368
0.016571069 2.4367988 0.02658302
0.26987135 2.3173294 0.0066371122
0.18542805 2.3205492 -0.015886702
0.10263624 2.3624654 -0.038055785
0.01742368 2.4311385 -0.062346946
0.2702336 2.3099129 -0.078775749
0.18642834 2.3223467 -0.1008665
0.10355215 2.3504353 -0.12437116
0.017840734 2.4072535 -0.15019029
0.2731114 2.3211718 -0.16498955
0.18705977 2.3150148 -0.18605278
0.10475092 2.3691814 -0.21252654
0.018653434 2.4200211 -0.240363
0.1831914 1.5532049 -0.16829988
0.15715149 1.9343618 -0.2272972
0.10535272 2.3687394 -0.30012581
0.019208835 2.4154997 -0.32990494
0.16867204 1.420086 -0.20719709
0.16832474 2.0576527 -0.31883073
0.10661969 2.3766668 -0.39116323
0.019603945 2.4174306 -0.4216187
0.16032934 1.3410534 -0.24698067
0.1765022 2.1451757 -0.41464752
0.10658825 2.3439829 -0.47499374
0.018149668 2.1546228 -0.45878163
0.16028284 1.329833 -0.29704869
0 0 -0
0.052665349 1.1554976 -0.27955669
0.011844683 1.4669237 -0.37035644
0.24244452 1.9956774 -0.52590567
0 0 -0
0 0 -0
0.006194206 0.77046233 -0.22618236
0.28120115 2.2921219 0.71343672
0.19416706 2.3116994 0.68901789
0.10752202 2.3441749 0.67213464
0.020352386 2.3885856 0.65934062
0.27727947 2.2719657 0.61110526
0.19414949 2.3042572 0.59200853
0.10925753 2.3435843 0.5768292
0.023196274 2.3894944 0.56285381
0.27958983 2.2912288 0.5242039
0.19415142 2.3081322 0.50172919
0.10920586 2.3232989 0.48060504
0.024861626 2.385205 0.46897852
0.27944586 2.2943785 0.43547773
0.19577149 2.3201196 0.41466102
0.11110383 2.3384407 0.39398876
0.025839647 2.3909481 0.37939557
0.27900499 2.2890944 0.34702611
0.19701082 2.3207862 0.32717252
0.1122797 2.3373721 0.30608153
0.028123425 2.4042227 0.29155895
0.28353056 2.3228488 0.26459241
0.19860473 2.3390782 0.24263138
0.11363493 2.3459346 0.22036189
0.029226117 2.3982816 0.20258471
0.28015918 2.2922344 0.17614974
0.1986874 2.3313634 0.15586151
0.11403692 2.3423896 0.13419466
0.030119328 2.4060936 0.1144034
0.28451431 2.3218102 0.092356324
0.19881411 2.3194528 0.069661513
0.11538658 2.3456674 0.048291992
0.031367455 2.4246531 0.026452124
0.28384158 2.3136446 0.0066314223
0.19863401 2.3074124 -0.015804812
0.11668439 2.3528035 -0.037910968
0.032207556 2.42099 -0.062090583
0.2846463 2.310195 -0.078843445
0.20041633 2.3181732 -0.10073674
0.11777189 2.3457661 -0.12416
0.032570466 2.4041047 -0.15000349
0.28759396 2.3214321 -0.16513038
0.20238383 2.3267334 -0.18709086
0.1180335 2.3436255 -0.21029507
0.0333643 2.4099112 -0.23937467
0.18953282 1.5263978 -0.16551808
0.14220309 1.6266354 -0.19123673
0.11838022 2.3383238 -0.29635856
0.034029704 2.4153364 -0.32990494
0.17063077 1.3650131 -0.19931071
0.13183412 1.4983804 -0.23229316
0.12024552 2.357244 -0.38808069
0.034338418 2.4103694 -0.420416
0.17641176 1.4025081 -0.25849324
0.12701777 1.435889 -0.27769276
0.11950328 2.3148992 -0.46923983
0.018938672 1.3007019 -0.27697664
0.16524751 1.3036426 -0.29141948
0 0 -0
0.10986768 2.1239278 -0.51400846
0 0 -0
0.29745954 2.3290699 -0.61423147
0 0 -0
0 0 -0
0 0 -0
0.29660383 2.3007772 0.71668369
0.20671195 2.2923243 0.68360823
0.12140418 2.3338706 0.66938108
0.034697279 2.3672109 0.65348685
0.29219818 2.2778881 0.61316895
0.20898257 2.3107412 0.59399271
0.12286782 2.3283238 0.57324785
0.037734132 2.381521 0.56101966
0.29463571 2.2972081 0.52597558
0.20778283 2.3010571 0.50045902
0.12330337 2.3196516 0.47999799
0.039447758 2.3820643 0.46839976
0.29576498 2.3101664 0.4388105
0.20938221 2.3120112 0.4134337
0.12597857 2.3475621 0.39564836
0.040242024 2.3749447 0.37688825
0.29430199 2.2971478 0.3485142
0.2100796 2.3067133 0.3253642
0.12672673 2.3386195 0.30634093
0.042786416 2.3990421 0.29095703
0.2958813 2.3062816 0.26290712
0.21250212 2.3328624 0.24211732
0.12856989 2.3551347 0.22129603
0.043649055 2.3821166 0.20123807
0.29625139 2.3062959 0.17736666
0.21244371 2.3241389 0.15546273
0.12786075 2.3316772 0.13362338
0.044714592 2.3968751 0.11397599
0.29760674 2.3111014 0.092001259
0.21258491 2.3132126 0.069511965
0.13044012 2.3568943 0.048538692
0.046187047 2.4214156 0.026419399
0.29790467 2.3108678 0.0066285776
0.21297203 2.3081415 -0.01581846
0.13022828 2.3360701 -0.037653506
0.047023002 2.4187477 -0.062039312
0.29907265 2.3103874 -0.078911155
0.2144523 2.3149102 -0.10065024
0.13160111 2.3350289 -0.1236321
0.047046155 2.3898897 -0.14913175
0.3045356 2.3403966 -0.16660917
0.2162867 2.3214777 -0.18677145
0.13286111 2.3508124 -0.21100913
0.047872279 2.3957324 -0.23799101
0.18925244 1.4512628 -0.15749361
0.14671977 1.5673879 -0.18437362
0.13266943 2.3365631 -0.29623297
0.048628882 2.4041853 -0.32841644
0.18260895 1.3914155 -0.2033256
0.14269337 1.515254 -0.2350404
0.1342002 2.3475955 -0.38662049
0.048986983 2.4032187 -0.41921335
0.18488532 1.4004242 -0.25831336
0.13295758 1.4047778 -0.27182868
0.13025637 2.2544346 -0.45713684
0.028619435 1.3827019 -0.29446992
0.17131276 1.2880878 -0.28817186
0.13023761 1.3694149 -0.31856731
0.057236213 0.98882753 -0.2393851
0 0 -0
0 0 -0
0 0 -0
0 0 -0
0.015609523 0.76840973 -0.22561902
0.31084353 2.2998607 0.71697885
0.22077349 2.2910128 0.68360823
0.13555476 2.3302026 0.66855502
0.049061231 2.3592436 0.65135825
0.30604073 2.2750947 0.61291099
0.22175942 2.2949514 0.59027249
0.13669486 2.3197708 0.57133788
0.052196417 2.3744328 0.5594148
0.30963552 2.3021224 0.52752584
0.22236727 2.3046029 0.50151753
0.13730222 2.3149407 0.4791885
0.053684555 2.3651009 0.46512017
0.31045741 2.3122041 0.43955109
0.2233749 2.3087232 0.41308308
0.13973285 2.335917 0.39382279
0.054471776 2.3598421 0.37453756
0.30891821 2.2992191 0.34910947
0.22327068 2.2955244 0.32397315
0.14041685 2.3269103 0.30491427
0.056958634 2.3759081 0.28818831
0.31082177 2.3103316 0.26358125
0.22777539 2.3414149 0.24314541
0.14175051 2.3334317 0.21933433
0.058020942 2.3718424 0.20039642
0.31279284 2.322222 0.1787357
0.2251496 2.3069024 0.15439929
0.14246914 2.3358312 0.133909
0.05929691 2.3915629 0.11373854
0.31445575 2.3290367 0.092790291
0.22736 2.3178334 0.069691427
0.14416285 2.344075 0.048291992
0.060413606 2.396096 0.026146697
0.31194431 2.3080051 0.0066257319
0.2266406 2.3018155 -0.01578434
0.14412723 2.3282413 -0.037540868
0.061300877 2.3964279 -0.061475314
0.31404957 2.314451 -0.079114273
0.22865228 2.3135507 -0.10065024
0.14598842 2.3351743 -0.12368491
0.061348628 2.3755877 -0.14825998
0.3172729 2.3266234 -0.16576414
0.23003416 2.3151472 -0.18637219
0.14759444 2.3549235 -0.21145543
0.062493362 2.3924093 -0.2376945
0.1809229 1.3239808 -0.14379852
0.14084885 1.4112948 -0.16611075
0.14793855 2.3505569 -0.29811659
0.063379772 2.4038417 -0.32841644
0.19019948 1.3834056 -0.20232186
0.15563977 1.5507337 -0.24068746
0.14866459 2.3477125 -0.38678274
0.063705817 2.4018884 -0.41904154
0.19118424 1.3826982 -0.25525531
0.14019534 1.3902577 -0.26918039
0.1398343 2.1870806 -0.44364494
0.047310255 1.7628345 -0.37548038
0.18244457 1.3102192 -0.29336804
0.11860792 1.1708617 -0.272542
0.066470698 1.0379291 -0.25136611
0.03006362 1.1349777 -0.2866407
0.32427213 2.3127892 -0.61094141
0.14265488 1.3977834 -0.38182104
0 0 -0
0 0 -0
0.32387909 2.2903419 0.71461743
0.23512013 2.2924759 0.68446237
0.14966491 2.3264489 0.66772896
0.063588262 2.3608253 0.6518904
0.32349631 2.298049 0.61961794
0.23563862 2.29162 0.5897764
0.14979087 2.301446 0.56704026
0.066655234 2.3701758 0.55849773
0.322532 2.2914882 0.52553266
0.23730253 2.3109729 0.50321114
0.15105599 2.3072143 0.477772
0.067856111 2.3529575 0.46280521
0.3238185 2.3044167 0.43844017
0.23713344 2.3033917 0.41238171
0.15315422 2.3212397 0.39149937
0.069123566 2.365387 0.37547785
0.3232955 2.2992387 0.34940708
0.23623054 2.2832761 0.32244301
0.15429707 2.3200686 0.30413607
0.071565747 2.3765063 0.28830871
0.32332948 2.2965732 0.26223299
0.24121633 2.3310685 0.24222013
0.15659726 2.3404653 0.22008166
0.072512247 2.3694499 0.20022811
0.32620084 2.3143349 0.17827936
0.23930025 2.3054774 0.15439929
0.1564644 2.3299325 0.13362338
0.073290668 2.3691893 0.11269376
0.32720304 2.31618 0.092356324
0.24178502 2.3183827 0.06975124
0.15820563 2.3381586 0.048189197
0.074895278 2.388684 0.02607034
0.3268002 2.3109984 0.006639957
0.24055181 2.2983923 -0.015770691
0.15868194 2.3313034 -0.037605233
0.076130718 2.4000037 -0.061577864
0.32754257 2.3075328 -0.078945003
0.24253057 2.3091235 -0.10052048
0.16004035 2.3302495 -0.12347375
0.075732477 2.3691812 -0.14788637
0.33069775 2.3187077 -0.16534163
0.24433994 2.3146832 -0.18645203
0.16128878 2.3430431 -0.21047357
0.076979205 2.3860133 -0.2371015
0.1952322 1.3661531 -0.14850619
0.15672976 1.4785538 -0.17413712
0.16201657 2.3446562 -0.29748875
0.07806389 2.401427 -0.3281458
0.18896835 1.3146203 -0.19242802
0.15279438 1.4337887 -0.22267789
0.16251989 2.3388813 -0.38548481
0.077766933 2.3807755 -0.41543359
0.20388597 1.4107064 -0.26065186
0.1483051 1.3854657 -0.26842371
0.14763121 2.1060085 -0.42737532
0 0 -0
0.18823129 1.2936174 -0.28990394
0.11225296 1.0441893 -0.24321216
0.083797805 1.1936117 -0.28918847
0.033896755 1.0388347 -0.26240721
0 0 -0
0.10563168 0.97570664 -0.26669779
0 0 -0
0 0 -0
0.3377867 2.2873662 0.71432227
0.25001132 2.2986143 0.68674016
0.1635989 2.3206918 0.66635215
0.077913485 2.3555737 0.65056002
0.33773133 2.2969766 0.61987591
0.25043035 2.2968726 0.59151256
0.16363341 2.2966089 0.56608528
0.080997109 2.3638856 0.55712211
0.33899751 2.3058677 0.52929753
0.2515837 2.3104448 0.5034228
0.16527992 2.3072209 0.47797439
0.082189403 2.349555 0.46222645
0.34323257 2.3383613 0.44529083
0.2511555 2.3009145 0.41220638
0.16718131 2.3173056 0.39100149
0.083321847 2.356035 0.37406743
0.33797207 2.3011253 0.35000232
0.25055987 2.2847369 0.32286033
0.16903292 2.3260009 0.30504394
0.086074427 2.3740382 0.28806794
0.33842683 2.3014276 0.26301944
0.25356278 2.3117466 0.24036954
0.17117283 2.3424394 0.22036189
0.086976364 2.3669686 0.20005977
0.33865255 2.300452 0.17736666
0.25507838 2.3188426 0.15539625
0.17053863 2.3259416 0.13345198
0.087604299 2.3627059 0.11240882
0.34403381 2.3319223 0.093066461
0.25633514 2.3198361 0.069840975
0.1713715 2.3211906 0.047860261
0.089025997 2.3741903 0.025917627
0.34170452 2.3138962 0.0066541815
0.25520092 2.3018427 -0.015804812
0.17298357 2.3302858 -0.037605233
0.090136752 2.380511 -0.061090779
0.34169516 2.3054795 -0.078945003
0.2564736 2.3056059 -0.10043397
0.17500627 2.338186 -0.12394884
0.090078041 2.3636854 -0.14757504
0.34697548 2.3304482 -0.16632749
0.25809509 2.3091779 -0.18613264
0.17402348 2.3201587 -0.20850988
0.09119796 2.3745577 -0.23601431
0.22048087 1.478018 -0.16081038
0.17986482 1.6029154 -0.18891026
0.17401728 2.3119607 -0.29347032
0.091457956 2.3662508 -0.32340968
0.19174568 1.2782024 -0.18726604
0.15693742 1.3915776 -0.21626768
0.17634687 2.3309524 -0.38434914
0.091877006 2.3674564 -0.41320008
0.18994948 1.2596344 -0.23294972
0.15812941 1.3962383 -0.27069369
0.15786736 2.0698807 -0.42023253
0.091001518 2.3260391 -0.49564245
0.19572572 1.2895424 -0.2892544
0.12834422 1.1286629 -0.2630662
0.078684531 1.0302509 -0.24972166
0.039331149 1.0143859 -0.25628763
0.35146061 2.3009851 -0.60891676
0 0 -0
0 0 -0
0.030790767 0.79483837 -0.23350582
0.35515907 2.3069699 0.72111124
0.26334417 2.2903705 0.68474716
0.17739439 2.3138931 0.66470003
0.092327766 2.3540878 0.65029389
0.35181895 2.2948611 0.61987591
0.26363167 2.2875936 0.58952844
0.17772205 2.2955618 0.56608528
0.095264308 2.3575087 0.5557465
0.35506049 2.3162749 0.53217655
0.26396751 2.293323 0.50003564
0.17943366 2.3061633 0.47797439
0.096402854 2.3441043 0.46126184
0.35519513 2.3206689 0.44232839
0.26368928 2.2856381 0.40975174
0.18139689 2.3162363 0.39100149
0.097653747 2.3525188 0.37359729
0.35253423 2.3019407 0.35044876
0.26753783 2.3087325 0.32647702
0.18330181 2.3249199 0.30504394
0.10038729 2.3675144 0.28734568
0.35359591 2.3061831 0.26380593
0.26739907 2.307183 0.24006112
0.18491331 2.3334048 0.21961458
0.10081498 2.3504617 0.19871312
0.35276148 2.2983308 0.17736666
0.26838028 2.309305 0.15486453
0.18480712 2.3248513 0.13345198
0.10197054 2.3591301 0.11226635
0.35924712 2.3356929 0.093303159
0.27079633 2.3202055 0.069900803
0.18585002 2.3230851 0.047921937
0.10311248 2.3626103 0.025797637
0.35604805 2.3127444 0.0066570262
0.26931995 2.3002334 -0.015804812
0.18655744 2.3202107 -0.037460409
0.10408229 2.3649325 -0.060706232
0.35614008 2.305315 -0.079012714
0.27038264 2.3020043 -0.10034747
0.18926917 2.3360729 -0.12389605
0.10449139 2.3610938 -0.14745049
0.35759747 2.3046176 -0.16463745
0.27272627 2.3115106 -0.18645203
0.18906231 2.3289747 -0.20940247
0.10563339 2.3709712 -0.23571783
0.21182957 1.3626721 -0.1483992
0.17906718 1.5120267 -0.17832477
0.16138326 1.9815758 -0.25165361
0.10597528 2.3656449 -0.32340968
0.20416962 1.3063357 -0.19156769
0.16932666 1.4229733 -0.22130425
0.13986607 1.7092606 -0.281975
0.10640171 2.3668482 -0.41320008
0.20988645 1.336187 -0.24734044
0.16611114 1.3903667 -0.26974788
0.12425954 1.5072104 -0.30614677
0.087712012 1.9375384 -0.41296592
0.19067873 1.2063508 -0.27085122
0.14524399 1.2110407 -0.28246903
0.081006214 0.98131269 -0.23797555
0.096939415 2.1580436 -0.54537618
0 0 -0
0.12765709 1.0576873 -0.28951266
0 0 -0
0 0 -0
0.36915651 2.3038039 0.72081614
0.27646992 2.2810984 0.68246937
0.19127138 2.308929 0.66359866
0.10642095 2.3457735 0.64816535
0.36985224 2.3174653 0.6265828
0.27801356 2.2888179 0.59027249
0.1920467 2.2973311 0.56680155
0.10918471 2.345212 0.55299526
0.36941987 2.3150156 0.53239805
0.27744555 2.286809 0.49897712
0.19333476 2.3020914 0.47736731
0.11069153 2.3415086 0.46087605
0.36880925 2.314564 0.44158778
0.27830288 2.2888634 0.41062838
0.1948584 2.3062358 0.38950783
0.11171057 2.3439834 0.37234363
0.36883172 2.3134058 0.35253212
0.28073871 2.2991838 0.3253642
0.19647183 2.3109078 0.30335793
0.11414194 2.3509889 0.28541958
0.36930591 2.3137825 0.26492947
0.28155065 2.3054988 0.24006112
0.19922733 2.3322263 0.21961458
0.11518643 2.3488038 0.19862896
0.36843029 2.3059692 0.17812723
0.28290865 2.310586 0.15506394
0.19855736 2.3177052 0.13310921
0.11639471 2.3574624 0.11221886
0.37278214 2.3285115 0.093105905
0.28332025 2.304611 0.069482058
0.20001487 2.320905 0.047901377
0.11760724 2.3619332 0.025797637
0.37513682 2.3411255 0.0067452174
0.28391835 2.3025074 -0.015832109
0.20096299 2.3210146 -0.037492596
0.1182908 2.358259 -0.060552422
0.37249956 2.316901 -0.079486653
0.2849929 2.3042681 -0.10052048
0.20299225 2.3279037 -0.12352654
0.11862512 2.3534307 -0.14701462
0.37507051 2.3230603 -0.16611624
0.28432402 2.2890205 -0.18477517
0.20274232 2.3208251 -0.20877767
0.1197259 2.3613341 -0.23482832
0.21796428 1.3476056 -0.14690129
0.16905271 1.3561628 -0.1600619
0.1324923 1.5120952 -0.19213076
0.12018612 2.3590131 -0.32259777
0.22266331 1.3695297 -0.20103137
0.17117809 1.3669925 -0.21275733
0.13737504 1.5609275 -0.25763884
0.1204699 2.357296 -0.41165379
0.20697887 1.2669168 -0.23474856
0.16802588 1.3367102 -0.25953302
0.12528557 1.4136717 -0.28729782
0.1085894 2.1118083 -0.45024326
0.19997719 1.2167184 -0.27344933
0.16645154 1.3193474 -0.30796343
0.087283641 0.98370183 -0.23868033
0.050935581 0.99736553 -0.25212634
0.35000408 2.1170552 -0.56133723
0.12272279 0.96689564 -0.26486209
0.085564002 0.96146196 -0.2725412
0.040248904 0.78865105 -0.23181579
0.38501194 2.3118625 0.72406304
0.29058242 2.2803097 0.68275404
0.20492364 2.3019664 0.66194654
0.12076275 2.3441136 0.64789927
0.38374871 2.3132458 0.62606686
0.29119328 2.2803423 0.58853638
0.20657341 2.3009455 0.56799531
0.12336768 2.34061 0.55207825
0.38361758 2.3127053 0.53239805
0.29134828 2.2840941 0.49876544
0.20763236 2.3028121 0.477772
0.12484729 2.3368661 0.46010438
0.38380715 2.3171048 0.44251353
0.29496318 2.3076208 0.4143104
0.20873837 2.3020504 0.38900995
0.12619701 2.345226 0.37265703
0.3820495 2.3052456 0.35163924
0.29383251 2.2895601 0.32425135
0.21037742 2.3066964 0.30296883
0.12845676 2.3482618 0.28517884
0.38512242 2.3212757 0.26605299
0.29429865 2.2928753 0.23893021
0.21444212 2.3408747 0.2205487
0.12932168 2.3430779 0.19820814
0.38551286 2.3213706 0.17949627
0.29593474 2.2998998 0.15446575
0.21268345 2.315449 0.13305207
0.13024847 2.3457329 0.11169647
0.38837466 2.3340654 0.093421519
0.29950452 2.3186903 0.069960624
0.21471167 2.3246117 0.048004169
0.13075705 2.3372059 0.025535842
0.38719481 2.3249698 0.0067053894
0.29894018 2.3076639 -0.015879879
0.21455416 2.3127687 -0.037379958
0.13185929 2.3415194 -0.060142245
0.38440302 2.3007712 -0.079012714
0.3017005 2.3222907 -0.10138554
0.2168079 2.3216429 -0.12326258
0.13289419 2.3496692 -0.14682782
0.39030766 2.3266177 -0.16653873
0.30029789 2.3020592 -0.18597293
0.21642223 2.3135874 -0.2082421
0.13364765 2.35062 -0.23383999
0.21848476 1.3001587 -0.14187263
0.18716742 1.4299456 -0.16890252
0.13648629 1.4549521 -0.18497294
0.13465849 2.3582311 -0.32259777
0.20996682 1.2432293 -0.18267757
0.17943375 1.3649366 -0.2126047
0.1390844 1.4765509 -0.24384834
0.13459383 2.3506114 -0.41062292
0.21310304 1.2559247 -0.23294972
0.16877489 1.2791904 -0.24856149
0.13266216 1.3992159 -0.28452006
0.12958446 2.2507355 -0.48002344
0.21466577 1.2578126 -0.28297567
0.16840598 1.2719433 -0.29713395
0.094695605 0.99766272 -0.24220414
0 0 -0
0 0 -0
0 0 -0
0 0 -0
0 0 -0
0.39984095 2.3132224 0.72524369
0.3049497 2.2813344 0.68360823
0.21849768 2.2949235 0.66029441
0.13464418 2.3346672 0.64550453
0.40039474 2.32513 0.62993628
0.30736598 2.2948358 0.59275258
0.22050232 2.2977014 0.56751782
0.13772708 2.3398089 0.55207825
0.3987937 2.3160741 0.53372681
0.30743146 2.2977626 0.50215262
0.22222789 2.3063688 0.47878382
0.13895024 2.3321381 0.45933267
0.39984927 2.3253596 0.44455019
0.30924773 2.3067431 0.41448572
0.22266939 2.298763 0.38867801
0.14005262 2.3355348 0.37124667
0.39769602 2.3116291 0.35297856
0.30853584 2.2926211 0.32494688
0.22548825 2.3152308 0.3042658
0.14274238 2.3454475 0.28493807
0.40323716 2.3413918 0.26863712
0.30942342 2.2989128 0.23975268
0.22676635 2.318706 0.21858704
0.14351305 2.3392565 0.19795564
0.40415329 2.3445094 0.18147378
0.31217563 2.3138621 0.1555292
0.22756873 2.3210559 0.13345198
0.14439319 2.3409019 0.11150651
0.40285897 2.3326232 0.093460977
0.31573802 2.3316665 0.070409276
0.22975567 2.3312104 0.048168641
0.14509542 2.3363597 0.025535842
0.40332681 2.3333895 0.0067366827
0.31309414 2.3057861 -0.015879879
0.22844559 2.3084238 -0.037331682
0.14591244 2.3356774 -0.060014062
0.40226939 2.3200333 -0.079757482
0.31675285 2.3263354 -0.10164506
0.23095022 2.3192754 -0.1232098
0.14730899 2.3488095 -0.14682782
0.40457618 2.3241789 -0.16653873
0.3138774 2.2962227 -0.18565352
0.23002096 2.3062692 -0.20770654
0.14731728 2.3378379 -0.23265398
0.23038627 1.3213218 -0.14433347
0.18689668 1.3628422 -0.16110882
0.14807653 1.4807407 -0.18836349
0.14875047 2.3514276 -0.32178584
0.21485847 1.2263204 -0.18038334
0.18497424 1.34325 -0.20939963
0.1457762 1.4521062 -0.23995456
0.14913908 2.3517077 -0.41096655
0.21995272 1.2497494 -0.2320503
0.17998104 1.3024485 -0.25329062
0.13947214 1.3808228 -0.28094867
0.13704693 2.1503365 -0.45878163
0.20978878 1.1853325 -0.26695409
0.17848182 1.2872909 -0.30096942
0 0 -0
0 0 -0
0.35171831 1.9763958 -0.52514642
0 0 -0
0 0 -0
0.050894409 0.80341923 -0.23632254
0.41537517 2.3182492 0.7276051
0.31973901 2.2851164 0.68531656
0.23276894 2.2954526 0.66084516
0.14878267 2.3309112 0.64470631
0.41567275 2.328336 0.63148403
0.32171005 2.2948253 0.59324867
0.23341225 2.2847126 0.56465274
0.15170234 2.333092 0.55070263
0.41591063 2.3299036 0.53749168
0.32233775 2.3016403 0.5034228
0.23627539 2.3039875 0.47858143
0.15319298 2.3302624 0.45913979
0.41083291 2.3044808 0.44103232
0.32421663 2.310652 0.41553771
0.23656797 2.2953918 0.38834614
0.15418504 2.3316751 0.37077653
0.41395605 2.3208272 0.35476425
0.32301161 2.2936268 0.3253642
0.23693138 2.2871742 0.30076399
0.15733024 2.3474991 0.28529921
0.41724679 2.3369172 0.26841244
0.32393965 2.2999258 0.24006112
0.24129835 2.3202417 0.21886727
0.15759528 2.3343554 0.19761898
0.41782969 2.3380592 0.18116955
0.32329893 2.2901671 0.15406695
0.2412886 2.3146508 0.13316633
0.15821308 2.3319993 0.11112659
0.41681191 2.3281403 0.093382068
0.33130074 2.3385923 0.070678473
0.24290957 2.3188188 0.047942493
0.15976885 2.3404136 0.025590384
0.41604936 2.3220119 0.0067110793
0.32709566 2.3028316 -0.015873054
0.24187352 2.3000178 -0.037219044
0.15983044 2.3287542 -0.059860244
0.41472948 2.3076847 -0.07941895
0.32975328 2.3154464 -0.10125577
0.24612209 2.3267522 -0.12368491
0.16116957 2.339896 -0.14632969
0.42201719 2.339323 -0.16780627
0.33148733 2.318923 -0.18764982
0.24448243 2.307786 -0.20797431
0.16172788 2.3378828 -0.2327528
0.2439699 1.3502142 -0.14765026
0.1966652 1.3715013 -0.16227207
0.15254939 1.4363966 -0.18283816
0.16262682 2.3425632 -0.32070333
0.22114159 1.2181628 -0.17937963
0.19194534 1.3332859 -0.20802601
0.15907604 1.4923944 -0.24676867
0.16295065 2.3419034 -0.40942025
0.22549953 1.2367636 -0.2298917
0.18614438 1.2886854 -0.25083148
0.14950928 1.394559 -0.28392485
0.15398942 2.2031183 -0.47023556
0.22850055 1.2464411 -0.28102711
0.1881934 1.2987055 -0.30390239
0.13451982 1.2535053 -0.30469328
0.078433521 1.1278038 -0.28541678
0.18042889 0.9790132 -0.26042202
0 0 -0
0 0 -0
0 0 -0
0.43063754 2.3212936 0.7293762
0.33541813 2.2944942 0.68873316
0.2470549 2.295893 0.66139585
0.16274555 2.3251464 0.64337593
0.43276149 2.3409426 0.63561141
0.33381948 2.2793887 0.5897764
0.2478451 2.2870991 0.56560779
0.16566949 2.3272626 0.54955626
0.43214864 2.3378561 0.53992784
0.33687875 2.3025203 0.50405788
0.25040793 2.3024945 0.47858143
0.1675587 2.3302572 0.45933267
0.42799813 2.3183451 0.44417989
0.34010178 2.3203084 0.41764173
0.25032642 2.290956 0.38784826
0.16806175 2.3247745 0.36983627
0.42908666 2.3231058 0.35550833
0.33880827 2.3033583 0.32703343
0.2534498 2.3083467 0.303747
0.17173126 2.3464897 0.28529921
0.43049407 2.3284502 0.26773831
0.33819044 2.2988791 0.24016394
0.25476712 2.3117902 0.21821339
0.17176923 2.331357 0.19745067
0.43253073 2.3374121 0.18132167
0.33807272 2.293076 0.15439929
0.25526726 2.311142 0.13305207
0.17281388 2.334969 0.11131655
0.43272838 2.3343813 0.093737133
0.34520501 2.333549 0.070588738
0.25735354 2.319272 0.047983613
0.1740521 2.338392 0.025579475
0.43266037 2.3321974 0.0067480626
0.34239298 2.3086944 -0.015927646
0.25786301 2.3153837 -0.037492596
0.17381813 2.3237422 -0.059757698
0.42997819 2.3109918 -0.07962206
0.34454206 2.317332 -0.10142879
0.25972733 2.3192437 -0.12336817
0.17567325 2.3408532 -0.1464542
0.43874356 2.349437 -0.16872171
0.34497416 2.3119159 -0.18725054
0.25530803 2.2765484 -0.20529655
0.17375213 2.3060853 -0.22968897
0.23927197 1.2793025 -0.14005375
0.20551789 1.3732157 -0.16262104
0.17144507 1.525148 -0.19426553
0.17580253 2.3257134 -0.31853822
0.22587079 1.2021933 -0.17722879
0.1917536 1.276376 -0.19932647
0.16181512 1.4345194 -0.23735869
0.17664754 2.3320186 -0.40787399
0.2341782 1.2411563 -0.23097099
0.19609687 1.3011127 -0.25347975
0.15651692 1.3799812 -0.28114709
0.16505657 2.1699486 -0.4633632
0.22795743 1.2018524 -0.27128425
0.18596472 1.2300973 -0.28810939
0.11293363 0.99478495 -0.24196924
0.076714434 1.0132178 -0.25653243
0.23607551 1.2382777 -0.32976666
0 0 -0
0 0 -0
0.060387731 0.79795033 -0.23491418
0.44451255 2.3167307 0.72878581
0.35093534 2.3018694 0.69158036
0.2607027 2.2905128 0.66029441
0.17642367 2.3164146 0.64124727
0.4482058 2.3439369 0.63715911
0.35043189 2.2945354 0.59424067
0.26320028 2.2971125 0.5684728
0.17987111 2.3252318 0.54932702
0.44776726 2.3418651 0.54147804
0.35055816 2.2975113 0.5034228
0.26385999 2.2950773 0.47736731
0.18154822 2.3252723 0.45856103
0.44442713 2.3272583 0.44640172
0.35299373 2.3094189 0.41606373
0.26494437 2.294275 0.38867801
0.18201412 2.3197613 0.36920944
0.4459309 2.3340273 0.35759166
0.35353553 2.3051512 0.32758984
0.26783732 2.3087182 0.3040064
0.18510488 2.3325267 0.28373429
0.44682616 2.3365006 0.26897418
0.35319453 2.3026597 0.24078079
0.27055904 2.3240285 0.21952116
0.1859123 2.3282726 0.19728233
0.45005119 2.3513627 0.18261464
0.35547131 2.312655 0.15586151
0.27025321 2.3164737 0.13345198
0.1870579 2.3328691 0.11126906
0.44892523 2.3414958 0.094131649
0.36043093 2.3373144 0.070768207
0.27216128 2.3226144 0.048086405
0.18839693 2.33728 0.025579475
0.44941196 2.3422658 0.0067850463
0.35685796 2.3085268 -0.015941296
0.27183154 2.3117719 -0.037460409
0.18799239 2.3216355 -0.059732065
0.44924879 2.3348086 -0.080536097
0.35768357 2.3082635 -0.10112602
0.27278081 2.3076894 -0.12284028
0.19011396 2.3407261 -0.14651649
0.44936863 2.3271122 -0.16731334
0.36037859 2.3176355 -0.18788937
0.26927185 2.2749388 -0.20529655
0.13429424 1.6474031 -0.1641624
0.32338551 1.6721841 -0.1832789
0.20307457 1.3022528 -0.15436201
0.16373676 1.3802316 -0.17593148
0.16245535 1.9868637 -0.27225953
0.23456401 1.2075852 -0.17823251
0.20538881 1.3122785 -0.20512617
0.16420005 1.3796086 -0.22843544
0.14430079 1.761423 -0.30822489
0.23406869 1.2001108 -0.22359575
0.20240141 1.2892143 -0.25139898
0.16044059 1.3410407 -0.2734091
0.11920595 1.4495041 -0.30967242
0.24152534 1.2320466 -0.278429
0.20290408 1.2885994 -0.30209747
0.16237351 1.3559932 -0.33006483
0.081822127 0.99919909 -0.25310546
0.24535204 1.2453486 -0.33204439
0 0 -0
0 0 -0
0.064969622 0.7937395 -0.23378749
0.46299255 2.3355153 0.73557484
0.36730704 2.313874 0.69585109
0.27543956 2.2945971 0.66194654
0.19047542 2.3133674 0.64071518
0.46239224 2.3401949 0.6369012
0.36632988 2.3038228 0.59721684
0.27659139 2.2896698 0.56704026
0.19397302 2.3221443 0.54886842
0.46307328 2.3438568 0.54258531
0.36648893 2.3069 0.50596321
0.27793735 2.2934153 0.47736731
0.19540054 2.319226 0.45759648
0.46155235 2.3389494 0.44917899
0.36793101 2.3120708 0.41694036
0.28008905 2.3014164 0.39017168
0.19607788 2.3166325 0.36889601
0.46196759 2.3399785 0.35893098
0.36860976 2.3088062 0.32842448
0.28151709 2.3030944 0.30348763
0.1991597 2.3283796 0.28337315
0.46250263 2.3405387 0.26976067
0.36998305 2.317148 0.24252857
0.28311715 2.3084896 0.21821339
0.19951156 2.3191457 0.19660902
0.46505076 2.3514915 0.18284281
0.37138879 2.3212681 0.15659264
0.28446174 2.3147719 0.13345198
0.20076698 2.3247113 0.11093663
0.46833229 2.3641815 0.095157392
0.37460721 2.3340716 0.070738293
0.28763193 2.3308234 0.048291992
0.20264822 2.3350837 0.025568567
0.46280307 2.3345594 0.0067708213
0.37355727 2.3220899 -0.016050482
0.28551978 2.3060911 -0.037396047
0.2031021 2.3303974 -0.059988428
0.46726871 2.3506327 -0.081179298
0.37247622 2.3099706 -0.10129903
0.2873053 2.3089452 -0.12299865
0.20421211 2.3365328 -0.14632969
0.46773684 2.3448541 -0.16879211
0.37491092 2.3173485 -0.18804905
0.2860578 2.2959762 -0.20734951
0.13709739 1.5632789 -0.15586036
0.38233206 1.9139174 -0.21002713
0.21090218 1.3000019 -0.1542457
0.17183389 1.3762478 -0.17555477
0.12716335 1.4459444 -0.19824065
0.24041186 1.1983606 -0.1770854
0.19803263 1.2163757 -0.19032167
0.17155841 1.3697631 -0.22697526
0.12847684 1.4582551 -0.25530779
0.23540689 1.1687579 -0.21801934
0.2107828 1.2908554 -0.25196645
0.17233804 1.3692045 -0.2793614
0.12379044 1.4000317 -0.29925972
0.24501309 1.2104472 -0.27388236
0.1927018 1.1767678 -0.27615184
0.16996174 1.3491849 -0.3286553
0.08676073 0.98515654 -0.24967851
0.24411871 1.2002101 -0.32040259
0 0 -0
0 0 -0
0.069586262 0.7904585 -0.23294248
0.47980431 2.3447993 0.73941207
0.38274658 2.3191433 0.69812888
0.28963423 2.2938178 0.66222191
0.2044114 2.3092744 0.63991696
0.48060453 2.3562469 0.64206034
0.37998497 2.2986643 0.5964728
0.29100245 2.2908196 0.56775653
0.20839174 2.3228495 0.54932702
0.47647184 2.3361938 0.54147804
0.38111469 2.3075006 0.50659829
0.29163289 2.2887523 0.47676021
0.20989247 2.3209147 0.45817518
0.48119164 2.3620725 0.45417809
0.38243207 2.3117125 0.41729105
0.2945804 2.3025889 0.39066955
0.21028878 2.3153856 0.36889601
0.47789654 2.3448513 0.36012143
0.38455275 2.3172472 0.32995465
0.29576966 2.3023071 0.3036173
0.21289857 2.3211823 0.28265086
0.47943708 2.3503139 0.27122125
0.38614815 2.3266094 0.24376227
0.2965129 2.3007841 0.2176529
0.2133718 2.3139088 0.19627234
0.48086661 2.3554325 0.18337521
0.38677058 2.3258355 0.1570579
0.29917097 2.3169434 0.13368049
0.21539555 2.327414 0.11112659
0.48162875 2.3553896 0.09492068
0.38957959 2.3356731 0.070857935
0.30102843 2.3220739 0.048148077
0.21641682 2.3278224 0.025503119
0.48654103 2.3777215 0.0069045308
