# .PCD v0.7 - Point Cloud Data file format
VERSION 0.7
FIELDS x y z
SIZE 4 4 4
TYPE F F F
COUNT 1 1 1
WIDTH 1535
HEIGHT 1
VIEWPOINT 0 0 0 1 0 0 0
POINTS 1535
DATA ascii
0.16263506 2.0137794 -0.21740964
0.10500162 2.3714516 -0.27801448
0.018314173 2.3997815 -0.3037675
-0.069483258 2.4066467 -0.32882237
0.18726847 2.2953272 -0.33366618
0.10632984 2.3714767 -0.36660197
0.019551408 2.4391706 -0.40105996
-0 0 -0
0.16172838 1.963678 -0.36030754
0.10689153 2.3591588 -0.45493945
0.019378142 2.2463493 -0.4547559
-0 0 -0
0.16870473 2.0246241 -0.4505527
0.056072515 1.2252566 -0.28404835
0 0 -0
-0 0 -0
0.18612985 2.2085867 -0.57981229
0 0 -0
0 0 -0
-0 0 -0
0.19778301 2.3142469 0.71756923
0.10926341 2.3239825 0.69101089
0.021504767 2.3840349 0.68287331
-0.067769505 2.3944609 0.66120315
0.19804013 2.3345432 0.62555099
0.10993663 2.3253248 0.59597677
0.023093443 2.3634963 0.58112675
-0.064796478 2.3897018 0.56308305
0.19523142 2.3019106 0.52464682
0.11039847 2.3420255 0.50786853
0.024075121 2.3707902 0.48991358
-0.062507793 2.3678288 0.4656989
0.1963805 2.3217146 0.43899563
0.11126718 2.3473883 0.41851836
0.025472159 2.3892634 0.4021208
-0.062053598 2.3853426 0.37861204
0.1947276 2.2997835 0.34732375
0.11197688 2.3373458 0.32870269
0.026648292 2.382555 0.31165844
-0.060787331 2.4195075 0.29348502
0.19599265 2.3099284 0.26212063
0.11199424 2.3368547 0.24180888
0.027764255 2.3963144 0.22484572
-0.058797836 2.3867745 0.2016589
0.19787885 2.3278182 0.1782033
0.113511 2.3530428 0.15692496
0.028191578 2.382935 0.13636553
-0.057977337 2.3856003 0.1134536
0.1980976 2.3217487 0.092001259
0.11393923 2.3381777 0.070050351
0.029525885 2.393312 0.049217124
-0.058137301 2.4341612 0.026561204
0.1989162 2.3275063 0.0066456469
0.11582568 2.3591037 -0.016118726
0.030527323 2.3964953 -0.038570706
-0.056736156 2.4125397 -0.061885491
0.19839406 2.3071578 -0.078437217
0.11692934 2.363893 -0.10246687
0.032030761 2.3994358 -0.12685224
-0.056358006 2.4216347 -0.15112431
0.20169526 2.3274632 -0.16491911
0.11710378 2.3425615 -0.18788937
0.032713462 2.4220717 -0.21707878
-0.055703301 2.4244287 -0.24085715
0.13649434 1.5699795 -0.1695838
0.11870024 2.3538997 -0.27603698
0.033024956 2.398632 -0.30364195
-0.054827631 2.4119806 -0.32949898
0.14052017 1.6010636 -0.23286372
0.12032537 2.3599224 -0.36492309
0.034210313 2.4172983 -0.39749062
-0.051335715 2.2740865 -0.3967064
0.13230442 1.4942783 -0.27432305
0.12080994 2.3476713 -0.45285863
0.022440182 1.5199991 -0.30773404
-0 0 -0
0.13003358 1.4527558 -0.32346264
0.10131892 1.9516506 -0.45258215
0 0 -0
-0 0 -0
0.19462283 2.1515193 -0.56513345
0 0 -0
0 0 -0
-0.017855201 0.78851581 -0.23153411
0.20997368 2.2911062 0.7107802
0.12372462 2.3270977 0.69214982
0.035943121 2.371362 0.67929369
-0.053204242 2.400614 0.6627996
0.2116603 2.3255866 0.62348729
0.12477103 2.3352475 0.59870493
0.037641488 2.3662229 0.58184302
-0.049826141 2.3754575 0.5596441
0.21023571 2.3103809 0.52686149
0.12367462 2.3208089 0.5034228
0.038541801 2.3657022 0.48890179
-0.048276018 2.3828831 0.46859267
0.20973425 2.3106792 0.4371441
0.12514192 2.3368304 0.41676503
0.039800666 2.3693423 0.39880159
-0.047396619 2.384691 0.37845534
0.20874567 2.2975607 0.34717494
0.12546116 2.3207934 0.32647702
0.041318394 2.3853209 0.31204751
-0.045601182 2.401969 0.29131818
0.21070293 2.3146198 0.26279476
0.12654565 2.3400967 0.24222013
0.042379029 2.3911216 0.22437866
-0.044225462 2.3910756 0.20199555
0.21179615 2.3225882 0.17789908
0.12735076 2.3413427 0.15619385
0.042866271 2.3857117 0.13653691
-0.043338478 2.3859112 0.1134536
0.21279514 2.325465 0.092198521
0.12773612 2.3274541 0.06975124
0.044191949 2.3920863 0.049196564
-0.043147251 2.4314728 0.02652848
0.21319376 2.326242 0.0066456469
0.13002285 2.3533561 -0.016084604
0.045042668 2.386266 -0.038409796
-0.042088356 2.421838 -0.062116221
0.21300544 2.310873 -0.078606479
0.13132074 2.361136 -0.10238037
0.046752822 2.399194 -0.12685224
-0.041327089 2.4119558 -0.15050162
0.21486592 2.3142629 -0.16407411
0.13063712 2.3268702 -0.1866916
0.047202725 2.4029047 -0.21538284
-0.040558197 2.4088054 -0.23927581
0.1399481 1.5027841 -0.16241528
0.13353401 2.3600683 -0.27685124
0.047702573 2.3964005 -0.30339077
-0.039846141 2.4013741 -0.32801047
0.14210232 1.5124772 -0.2201021
0.1343523 2.3512464 -0.36370212
0.048781708 2.4042177 -0.39538151
-0.037041239 2.2536738 -0.39309841
0.13553351 1.4307629 -0.26281047
0.1352127 2.3468857 -0.45285863
0.046266969 2.2136056 -0.44820836
-0 0 -0
0 0 -0
0.069070913 1.1894634 -0.27592623
0.026353927 1.2545937 -0.30328375
-0 0 -0
0 0 -0
0 0 -0
0 0 -0
-0 0 -0
0.22467892 2.2964311 0.7128464
0.13766049 2.3205531 0.69044149
0.049940228 2.3451464 0.6718592
-0.038674135 2.4134252 0.66625863
0.22499111 2.3146279 0.62090772
0.13823318 2.3199325 0.59498471
0.051967025 2.3572099 0.57969427
-0.035177466 2.370852 0.55849773
0.22289874 2.2935178 0.52331805
0.13779652 2.3180554 0.50299942
0.052990869 2.3624837 0.48829472
-0.033501606 2.3723423 0.4664706
0.22352903 2.3054361 0.43640351
0.139126 2.3301218 0.41571304
0.054270089 2.3660958 0.39830372
-0.032980606 2.4007378 0.3809627
0.22455859 2.3139527 0.34985352
0.14035366 2.3308532 0.32800716
0.055790879 2.3780835 0.31113967
-0.030364754 2.3634903 0.28662339
0.22653578 2.3300965 0.26470476
0.14084202 2.3382831 0.24211732
0.056836117 2.3818586 0.22353794
-0.029331617 2.3733673 0.2004806
0.22517352 2.3123133 0.17721455
0.14044818 2.3196018 0.15479806
0.057600155 2.3893962 0.13676542
-0.028758047 2.3911259 0.11369105
0.22744855 2.3280933 0.092356324
0.1423801 2.3326128 0.06993071
0.058598083 2.3807757 0.048970424
-0.028227203 2.4316916 0.02652848
0.22804752 2.3308611 0.0066627157
0.14354098 2.3375425 -0.01598224
0.059408635 2.3749497 -0.038232792
-0.027216209 2.4210513 -0.062090583
0.22835474 2.3214581 -0.079012714
0.14438915 2.3373508 -0.10138554
0.061370794 2.3948691 -0.12664109
-0.026625605 2.4211459 -0.15106204
0.23024163 2.3248129 -0.16491911
0.14658555 2.3528864 -0.18884756
0.061663397 2.3916175 -0.21440099
-0.025830518 2.4139843 -0.23977
0.16144951 1.6255711 -0.1757894
0.14770165 2.354248 -0.27626961
0.062018257 2.3811862 -0.30150715
-0.025100479 2.4005828 -0.32787517
0.15384549 1.5361953 -0.22368683
0.14883916 2.3513641 -0.36385474
0.063454583 2.400914 -0.39489478
-0.023922425 2.3228142 -0.40512502
0.1421369 1.4083725 -0.25885299
0.14892295 2.3352325 -0.45077783
0.058974244 2.180948 -0.44166085
-0 0 -0
0.13548091 1.3296442 -0.29639915
0.092478372 1.4398482 -0.3341347
0.059794497 2.2027452 -0.53256726
-0.010159162 0.98309958 -0.2482098
0.22021884 2.1412702 -0.5631088
0 0 -0
0 0 -0
-0 0 -0
0.23916079 2.2988105 0.71402711
0.15114489 2.3081858 0.68702483
0.064487025 2.3505616 0.67351133
-0.023693355 2.3962665 0.66146916
0.2383942 2.3055155 0.61884403
0.15189344 2.3103404 0.59275258
0.065937132 2.3393741 0.57539666
-0.020824306 2.3934097 0.56377089
0.23837124 2.305687 0.52641851
0.15195327 2.3161907 0.50278771
0.067150183 2.3503671 0.4858664
-0.019116923 2.394089 0.47071472
0.2373682 2.3010888 0.43584806
0.15342075 2.3292243 0.41571304
0.068787158 2.3657184 0.39830372
-0.018376952 2.4176843 0.38362679
0.23529969 2.2790878 0.34479398
0.15386584 2.3180909 0.32633793
0.069237299 2.3390427 0.30608153
-0.015981995 2.381501 0.28879023
0.23990874 2.319767 0.26369357
0.15367118 2.3145471 0.23975268
0.070912413 2.3635516 0.22185649
-0.014867556 2.3894453 0.20182721
0.24120647 2.3287404 0.17858358
0.15594022 2.3376124 0.1560609
0.072109215 2.3840082 0.13647979
-0.01417409 2.4062405 0.1144034
0.23997378 2.3097582 0.091685645
0.15575181 2.317733 0.069511965
0.072928548 2.3713775 0.048785396
-0.013366275 2.4428182 0.026648469
0.24017209 2.308531 0.0066029732
0.15788117 2.3366177 -0.01598224
0.073606297 2.3625476 -0.038039695
-0.012406338 2.4301696 -0.062321313
0.2411395 2.3060973 -0.078538775
0.15737382 2.3164856 -0.10052048
0.076064274 2.3944473 -0.12664109
-0.011774082 2.4222617 -0.15112431
0.24272729 2.3064916 -0.16372201
0.15965815 2.3320532 -0.18725054
0.075447068 2.3633201 -0.21190172
-0.011072604 2.4260385 -0.24095599
0.16140471 1.5296279 -0.16551808
0.15961823 2.3166356 -0.27196562
0.076276712 2.3698537 -0.30012581
-0.010395987 2.4066362 -0.32868707
0.1455811 1.3689066 -0.19945408
0.16237378 2.3375897 -0.36187062
0.077992395 2.3945622 -0.39392135
-0.010083626 2.4224145 -0.42247772
0.15266185 1.4250796 -0.26209092
0.16318037 2.3332953 -0.45058867
0.07404542 2.2314832 -0.45197818
-0 0 -0
0.14521071 1.3433472 -0.29964676
0.082772963 1.1758926 -0.27299324
0 0 -0
-0 0 -0
0.24331668 2.2312441 -0.58715171
0.078892238 1.1088804 -0.30210015
0 0 -0
-0 0 -0
0.25085351 2.2754567 0.70723808
0.16544183 2.3091273 0.68759429
0.078392424 2.334749 0.66910571
-0.0089752292 2.3925111 0.66040492
0.25264135 2.3049698 0.619102
0.16683087 2.3199937 0.59548074
0.080056816 2.3321321 0.5737254
-0.0061606946 2.4022527 0.56583434
0.25283289 2.3070891 0.52708292
0.16616228 2.3152149 0.50278771
0.081468582 2.3469746 0.48525929
-0.004432152 2.397105 0.47129348
0.25212395 2.3054502 0.43695897
0.16707312 2.3194015 0.41413507
0.082642168 2.3465266 0.39515045
-0.0035347396 2.4128132 0.3828432
0.25336778 2.3149548 0.35044876
0.16744165 2.3082139 0.325086
0.084261045 2.3574014 0.30854574
-0.00137821 2.3974378 0.29071629
0.25370494 2.3143003 0.26324418
0.16851796 2.3224895 0.24067798
0.085197784 2.3571024 0.22129603
-0.00020677465 2.3994563 0.20266889
0.25483793 2.3212695 0.17812723
0.17020808 2.3356166 0.15599445
0.086300179 2.3715484 0.13579424
0.00058862916 2.3982909 0.11402348
0.25479782 2.3142016 0.091922358
0.17033589 2.321718 0.069661513
0.087440811 2.3698864 0.04876484
0.0016121988 2.4268551 0.026473939
0.25444204 2.3080077 0.0066058179
0.17199482 2.3326135 -0.015961768
0.088101231 2.3620515 -0.038039695
0.0025030752 2.4282005 -0.062270038
0.25484475 2.3006008 -0.078403369
0.17062472 2.3025241 -0.099958181
0.090225279 2.3799651 -0.12590206
0.0030837676 2.4182963 -0.15087524
0.25753802 2.3109071 -0.16414452
0.17492875 2.3439522 -0.18828861
0.089302607 2.3458929 -0.21038432
0.0038181895 2.4290462 -0.2412525
0.16692333 1.4940249 -0.16177332
0.17293765 2.3037279 -0.27056977
0.090284444 2.3554623 -0.29836777
0.0043926458 2.4185445 -0.33031091
0.15364571 1.3650372 -0.19902392
0.17693751 2.3395059 -0.3623285
0.092454642 2.3881226 -0.39294791
0.0047743884 2.4194756 -0.42196229
0.16240011 1.4329129 -0.26370987
0.17563124 2.3077722 -0.44585955
0.085887447 2.1839774 -0.44245449
0 0 -0
0.15766384 1.3792896 -0.30787405
0.088945381 1.1617634 -0.26983464
0.054421145 1.38016 -0.33382359
0.0018850731 0.97248489 -0.24551718
0.22609596 1.9615674 -0.5165416
0.08755441 1.1324286 -0.30865616
0 0 -0
0 0 -0
0.26514229 2.276722 0.70812362
0.17968161 2.3090243 0.68787903
0.09248776 2.3284605 0.66745359
0.0056959172 2.3886654 0.65934062
0.26711309 2.3062553 0.61987591
0.18053506 2.3121657 0.59374464
0.094325736 2.3306267 0.57348669
0.0085515566 2.3944583 0.56400013
0.26541367 2.2919326 0.52398247
0.17975751 2.3063567 0.5010941
0.095667928 2.3415382 0.48424754
0.010309943 2.4049368 0.47283682
0.26626518 2.3038599 0.43695897
0.18076424 2.3114619 0.41290772
0.097323917 2.3528724 0.39631218
0.011228552 2.4039009 0.3814328
0.26540861 2.2946928 0.34762138
0.18121289 2.302207 0.32439044
0.098765701 2.3578308 0.30867544
0.013304614 2.3924375 0.2901144
0.26835778 2.3166482 0.26369357
0.18307759 2.3253782 0.24108921
0.09944874 2.3515613 0.22082895
0.014485874 2.3944302 0.20224805
0.26942086 2.3226335 0.17835541
0.18390694 2.3265707 0.15546273
0.10072281 2.3679817 0.13562286
0.015285132 2.3952456 0.11388101
0.26795366 2.3036618 0.091567293
0.18529175 2.3295968 0.06993071
0.10150758 2.3583176 0.048538692
0.016509872 2.4277997 0.026484849
0.26975566 2.3163359 0.006634267
0.18582632 2.3255332 -0.015920823
0.10220226 2.3524761 -0.037894875
0.01729472 2.4131446 -0.061885491
0.27011749 2.3089204 -0.078741893
0.18490943 2.3034256 -0.10004469
0.1044312 2.370388 -0.12542695
0.017907303 2.4162357 -0.1507507
0.27217886 2.3132463 -0.16442619
0.18794288 2.3259439 -0.18693115
0.10453095 2.3642063 -0.21208026
0.018653434 2.4200211 -0.240363
0.17492275 1.4830984 -0.16070339
0.15996638 1.9690101 -0.23136854
0.10442703 2.3479261 -0.29748875
0.019279744 2.4244165 -0.33112279
0.16295236 1.3719308 -0.20017102
0.15825266 1.9345286 -0.2997528
0.10657547 2.3756809 -0.39100099
0.019587968 2.4154603 -0.42127508
0.16173063 1.3527743 -0.24913928
0.17376447 2.111902 -0.40821591
0.10182428 2.2392187 -0.45376387
0.018660463 2.2152612 -0.47169334
0.14264238 1.1834738 -0.26435602
0.11245904 1.3592592 -0.31585994
0.055586282 1.219584 -0.2950615
0 0 -0
0.27522936 2.2655454 -0.59702194
0.081494249 0.97608179 -0.26617333
0 0 -0
0 0 -0
0.28143385 2.2940187 0.71402711
0.19408683 2.3107443 0.68873316
0.10655295 2.3230476 0.66607684
0.020286679 2.3808739 0.65721196
0.281259 2.3045731 0.61987591
0.19455619 2.3090839 0.59324867
0.10862441 2.330004 0.57348669
0.023167929 2.3865745 0.56216604
0.2818341 2.3096206 0.52841169
0.19308646 2.2954714 0.49897712
0.10915989 2.3223207 0.48040268
0.025004802 2.3989413 0.47167933
0.28003994 2.2992563 0.43640351
0.19486092 2.3093283 0.41273239
0.11147825 2.3463211 0.39531645
0.026085129 2.4136624 0.3829999
0.27852643 2.2851679 0.34643087
0.19617318 2.310919 0.32578149
0.11156605 2.3225157 0.30413607
0.027960863 2.3903255 0.28987366
0.28328979 2.3208761 0.2643677
0.19675332 2.3172731 0.24036954
0.11349042 2.3429513 0.22008166
0.029116835 2.3893142 0.20182721
0.28197366 2.3070805 0.1772906
0.19851796 2.3293753 0.15572859
0.11398836 2.3413923 0.13413751
0.029969294 2.3941081 0.11383352
0.28597274 2.3337121 0.092829749
0.19941169 2.3264244 0.069870889
0.11489537 2.3356817 0.048086405
0.031212233 2.4126546 0.026321227
0.2849375 2.3225777 0.0066570262
0.20034933 2.3273382 -0.015941296
0.11663486 2.3518047 -0.037894875
0.032114472 2.4139929 -0.061911132
0.2852574 2.3151548 -0.079012714
0.19912554 2.3032429 -0.10008794
0.11772183 2.3447688 -0.12410721
0.032611027 2.4070988 -0.15019029
0.28980154 2.3392513 -0.1663979
0.20143366 2.3158095 -0.18621248
0.11853449 2.3535731 -0.21118766
0.0334194 2.4138911 -0.23977
0.20117186 1.6201327 -0.1756824
0.13701321 1.5672693 -0.1842573
0.1181294 2.3333697 -0.29573065
0.033848248 2.4024572 -0.3281458
0.16891219 1.3512647 -0.19730325
0.12377855 1.4068236 -0.21809916
0.12069795 2.3661132 -0.38954082
0.034408584 2.4152946 -0.42127508
0.17935811 1.4259322 -0.26281047
0.12641211 1.4290422 -0.27636862
0.11424818 2.2131023 -0.44860521
0.034089606 2.3412633 -0.49855798
0.16119613 1.2716812 -0.28427473
0.10397186 1.1693178 -0.27186516
0.051669944 0.99886727 -0.24173431
0.01999113 1.4067156 -0.35517991
0.27564341 2.1582522 -0.56918281
0 0 -0
0 0 -0
0 0 -0
0.29379416 2.2789824 0.70989466
0.20757288 2.3018718 0.68645537
0.12095471 2.3252301 0.6669029
0.034923322 2.3826325 0.65774411
0.29637769 2.3104701 0.62193954
0.20837176 2.3039873 0.59225655
0.12256079 2.3225055 0.57181537
0.03759535 2.372762 0.55895627
0.29475978 2.2981753 0.52619708
0.20751914 2.2981369 0.4998239
0.12387517 2.3304086 0.48222393
0.039610229 2.391875 0.47032893
0.29364347 2.2935958 0.4356629
0.20876063 2.3051476 0.41220638
0.12571436 2.3426387 0.39481857
0.040392615 2.383832 0.37829861
0.29379934 2.2932246 0.34791899
0.21070831 2.3136168 0.32633793
0.12538542 2.3138669 0.30309853
0.042644799 2.3911016 0.28999403
0.29714575 2.3161376 0.26403064
0.21114862 2.3180037 0.24057518
0.12737592 2.3332634 0.21924092
0.043649055 2.3821166 0.20123807
0.29739472 2.3151968 0.17805117
0.21162626 2.3151958 0.15486453
0.12862606 2.3456333 0.13442317
0.044546913 2.3878868 0.11354858
0.29633057 2.3011911 0.091606736
0.21313375 2.3191848 0.069691427
0.12955615 2.3409221 0.048209753
0.04592007 2.407419 0.026266687
0.29918322 2.3207855 0.0066570262
0.21508521 2.3310437 -0.015975416
0.1306735 2.3440566 -0.037782237
0.046809264 2.4077535 -0.061757315
0.29997075 2.3173256 -0.079148121
0.21417582 2.3119259 -0.10052048
0.13221923 2.3459964 -0.12421279
0.047321163 2.4038596 -0.15000349
0.30041677 2.3087428 -0.16435578
0.21711892 2.33041 -0.18749011
0.1325801 2.3458405 -0.21056284
0.047931917 2.3987169 -0.23828748
0.18308115 1.4039389 -0.15235794
0.13894409 1.4843212 -0.1746024
0.13244447 2.3326008 -0.29573065
0.048729066 2.4091384 -0.32909304
0.17256415 1.3148777 -0.19214125
0.13518807 1.4355557 -0.22267789
0.13476335 2.3574469 -0.3882429
0.049127519 2.4101133 -0.420416
0.18887658 1.4306562 -0.26388976
0.13878661 1.4663652 -0.283746
0.12895606 2.2319295 -0.45257342
0.035258174 1.7034419 -0.36277694
0.17182758 1.2919588 -0.28903788
0.11760125 1.2365468 -0.28765818
0.079142123 1.3672796 -0.3310045
0.020080907 0.98682606 -0.24918891
0.30545089 2.2802157 -0.60183042
0 0 -0
0 0 -0
0 0 -0
0.31353092 2.3197441 0.72317749
0.22114131 2.2948298 0.68474716
0.13510811 2.3225248 0.66635215
0.049061231 2.3592436 0.65135825
0.31145054 2.3153112 0.62374532
0.22120038 2.2891657 0.5887844
0.13749458 2.3333426 0.57468039
0.052025285 2.3666477 0.55758065
0.31015548 2.3059881 0.52841169
0.22227339 2.3036301 0.50130582
0.13683836 2.3071201 0.47756964
0.053818155 2.3709867 0.46627766
0.30849582 2.2975945 0.43677384
0.22328007 2.3077431 0.41290772
0.14008616 2.3418233 0.39481857
0.054768067 2.372678 0.37657481
0.31049836 2.3109798 0.3508952
0.22422937 2.3053811 0.3253642
0.14005849 2.3209717 0.30413607
0.057172764 2.3848403 0.28927174
0.31280911 2.3251033 0.26526651
0.22575288 2.3206244 0.24098641
0.14084496 2.3185248 0.21793315
0.058191519 2.3788154 0.20098557
0.31226042 2.3182693 0.17843148
0.2257311 2.3128605 0.15479806
0.14307694 2.3457963 0.13448028
0.059049323 2.3815773 0.11326364
0.31485683 2.3320074 0.092908643
0.22794548 2.323802 0.069870889
0.14342637 2.3320999 0.048045289
0.060211975 2.3880992 0.026059432
0.31073886 2.2990866 0.0066001285
0.22938417 2.32968 -0.015975416
0.14455968 2.335227 -0.037653506
0.061147504 2.3904321 -0.061321504
0.3151246 2.3223736 -0.079385094
0.22875053 2.3145449 -0.10069349
0.14648688 2.3431475 -0.12410721
0.061606288 2.3855648 -0.14888266
0.31363383 2.2999375 -0.16386285
0.22924571 2.3072119 -0.18573339
0.1466599 2.3400126 -0.21011654
0.062519342 2.393404 -0.23779333
0.19546133 1.430372 -0.15535374
0.15337531 1.5368091 -0.1808839
0.14744003 2.3426359 -0.29711202
0.063118622 2.3939371 -0.32706326
0.18426839 1.3402662 -0.19601275
0.14251354 1.4199491 -0.22038853
0.1489764 2.3526366 -0.38759395
0.06352298 2.3949947 -0.4178389
0.19320522 1.3973144 -0.25795358
0.14502287 1.4381303 -0.27844942
0.14127266 2.2095776 -0.44820836
0.045001157 1.6767949 -0.3571541
0.1804249 1.2957149 -0.29012042
0.10417467 1.0283811 -0.23937672
0.074795067 1.1679128 -0.28284562
0 0 -0
0.31755567 2.2648857 -0.59828728
0 0 -0
0 0 -0
0.020882316 0.78940129 -0.23181579
0.3277587 2.3177767 0.72317749
0.23512013 2.2924759 0.68446237
0.14910945 2.3178146 0.66525078
0.063354671 2.3521531 0.64949572
0.3243044 2.3037891 0.62116569
0.23692681 2.3041477 0.59300059
0.15149377 2.3276098 0.57348669
0.066053256 2.3487704 0.5534538
0.32416302 2.303076 0.52819026
0.23650387 2.3031952 0.50151753
0.15169579 2.3169863 0.4797956
0.068252102 2.3666887 0.46550602
0.3243655 2.3083093 0.43918082
0.23743591 2.3063297 0.41290772
0.15425791 2.3379676 0.3943207
0.069065869 2.3634124 0.37516439
0.32508549 2.3119688 0.35134161
0.23755538 2.2960815 0.32425135
0.15377069 2.3121538 0.30309853
0.071356572 2.3695602 0.28746605
0.32596156 2.3152685 0.2643677
0.2413187 2.332058 0.24232294
0.15520144 2.3196037 0.21811996
0.072298884 2.362478 0.19963895
0.32425255 2.3005121 0.17721455
0.24012434 2.313417 0.15493099
0.15726711 2.3418858 0.1343089
0.073352441 2.371186 0.11278874
0.32608491 2.308265 0.092040718
0.24282183 2.3283243 0.070050351
0.15753068 2.3281834 0.047983613
0.074675918 2.3816879 0.025993984
0.32540002 2.3010972 0.0066115079
0.24148862 2.3073432 -0.015832109
0.15868194 2.3313034 -0.037605233
0.07546512 2.3790209 -0.061039504
0.32866624 2.315449 -0.079215832
0.24263492 2.310117 -0.10056373
0.16092981 2.3432007 -0.12416
0.075828142 2.3721738 -0.14807318
0.3298527 2.3127825 -0.16491911
0.24245639 2.29684 -0.18501472
0.15998918 2.3241639 -0.20877767
0.076786675 2.3800457 -0.23650849
0.20282768 1.4193032 -0.15428381
0.15725324 1.4834921 -0.17471874
0.16099072 2.3298104 -0.29560509
0.077935122 2.3974659 -0.3276045
0.18868673 1.3126611 -0.19214125
0.14745338 1.3836699 -0.21489407
0.1631355 2.3477407 -0.38694498
0.077766933 2.3807755 -0.41543359
0.20219746 1.3990234 -0.25849324
0.15018634 1.4030404 -0.27182868
0.15660971 2.2340899 -0.45336705
0.072633214 2.2024055 -0.46919426
0.1828894 1.2569053 -0.28167665
0.18701884 1.7396697 -0.40520319
0 0 -0
0.031620108 0.96906221 -0.24478284
0.29933959 2.0436885 -0.54033136
0 0 -0
0 0 -0
0 0 -0
0.33499509 2.2684624 0.70841879
0.25011495 2.2995672 0.68702483
0.16319327 2.3149381 0.66470003
0.077499218 2.343049 0.64710104
0.34012061 2.3132265 0.6242612
0.25032532 2.2959094 0.59126449
0.16570383 2.3256676 0.57324785
0.080363795 2.3454025 0.55276597
0.33474231 2.2769237 0.52265364
0.25031418 2.2987859 0.50088245
0.16479009 2.3003831 0.47655782
0.082635336 2.362303 0.46473435
0.33795205 2.3023863 0.43844017
0.250835 2.2979786 0.4116804
0.16796187 2.3281248 0.39282703
0.083321847 2.356035 0.37406743
0.33940905 2.310909 0.35149044
0.25250304 2.3024557 0.3253642
0.16781116 2.3091888 0.30283913
0.08546295 2.357173 0.2860215
0.33799314 2.2984784 0.26268238
0.25453886 2.3206456 0.24129485
0.17051977 2.3335025 0.21952116
0.086537272 2.3550193 0.19904979
0.33923346 2.3043981 0.1776709
0.25540569 2.3218181 0.15559566
0.17112266 2.3339069 0.133909
0.087826364 2.368695 0.11269376
0.34359631 2.3289566 0.092948101
0.25710359 2.3267906 0.070050351
0.17159234 2.3241818 0.047921937
0.088951059 2.3721917 0.02589581
0.34389585 2.3287351 0.0066968543
0.25773528 2.324702 -0.015961768
0.17290956 2.3292887 -0.037589144
0.089985453 2.3765154 -0.060988232
0.34081605 2.2995479 -0.078741893
0.25691545 2.3095777 -0.10060699
0.175528 2.3451567 -0.12431837
0.090078041 2.3636854 -0.14757504
0.34403744 2.310715 -0.16491911
0.25676641 2.2972903 -0.18517442
0.17402348 2.3201587 -0.20850988
0.0910834 2.3715749 -0.23571783
0.20683835 1.3865639 -0.15086004
0.1704507 1.5190189 -0.17902271
0.17312373 2.3000894 -0.2919634
0.091955431 2.3791215 -0.32516882
0.20275711 1.351606 -0.19802019
0.16236433 1.4396985 -0.22374624
0.17671905 2.3358719 -0.38516033
0.091915205 2.3684409 -0.41337186
0.1946432 1.2907604 -0.23870599
0.16056046 1.4177039 -0.27485529
0.15391694 2.018085 -0.40971681
0.087369107 2.2331929 -0.47585839
0.20275778 1.3358732 -0.29964676
0.13032553 1.1460866 -0.26712725
0.074095219 0.97016102 -0.23515651
0.04654374 1.2004051 -0.30328596
0.19808003 1.2968146 -0.34318003
0.12917663 1.1284387 -0.30865616
0 0 -0
0 0 -0
0.35544983 2.3088586 0.72170162
0.26224917 2.2808471 0.68189996
0.17710046 2.3100591 0.66359866
0.091647774 2.33675 0.64550453
0.35460073 2.3130059 0.62477714
0.26573896 2.3058789 0.59424067
0.17907128 2.3129892 0.57038283
0.094635509 2.3419476 0.55207825
0.35373068 2.3075998 0.53018337
0.26463804 2.2991483 0.50130582
0.17988944 2.3120213 0.4791885
0.096564136 2.348026 0.46203354
0.35445172 2.3158116 0.44140261
0.2644791 2.292484 0.41097906
0.18131988 2.3152528 0.39083549
0.097203173 2.3416643 0.3718735
0.35507908 2.3185577 0.35297856
0.26708186 2.3047979 0.32592061
0.1821328 2.3100927 0.30309853
0.10013495 2.3615632 0.28662339
0.35374653 2.3071654 0.26391831
0.26888782 2.3200281 0.24139765
0.18373352 2.3185172 0.21821339
0.10081498 2.3504617 0.19871312
0.36032501 2.347609 0.18116955
0.26768917 2.3033583 0.15446575
0.18496534 2.3268416 0.13356623
0.10227248 2.3661156 0.11259878
0.35423437 2.3031018 0.092001259
0.26871058 2.3023345 0.069362409
0.18680678 2.3350444 0.048168641
0.10306888 2.3616114 0.02578673
0.35909119 2.3325114 0.006713924
0.27152938 2.319104 -0.015934471
0.1871184 2.3271871 -0.037573047
0.10390648 2.3609378 -0.060603689
0.35888663 2.3230939 -0.07962206
0.2706157 2.3039887 -0.10043397
0.18967238 2.3410494 -0.12416
0.1041825 2.3541143 -0.14701462
0.35866812 2.3115177 -0.16513038
0.27155828 2.3016112 -0.18565352
0.18785347 2.3140833 -0.20806357
0.10541193 2.3660007 -0.23522365
0.21671677 1.3941107 -0.15182297
0.1724091 1.4558065 -0.17169431
0.14157273 1.7383285 -0.22076201
0.10637435 2.3745532 -0.32462755
0.20401679 1.3053578 -0.1914243
0.1605684 1.3493713 -0.20985749
0.1599849 1.9551266 -0.32253525
0.10657868 2.3707848 -0.41388729
0.21202347 1.3497918 -0.24985881
0.16762547 1.4030417 -0.27220699
0.11966927 1.4515324 -0.29483739
0.05422841 1.1978931 -0.25531834
0 0 -0
0.1444319 1.2042696 -0.28088972
0 0 -0
0 0 -0
0 0 -0
0.12141299 1.0059525 -0.2753517
0 0 -0
0.03416137 0.76108539 -0.22364731
0.37081936 2.3141813 0.72406304
0.27658525 2.2820499 0.68275404
0.19127138 2.308929 0.66359866
0.10554721 2.3265142 0.64284378
0.37076584 2.3231897 0.62813061
0.2784808 2.2926645 0.59126449
0.19253208 2.3031375 0.56823409
0.10895837 2.3403504 0.55184895
0.36757585 2.3034599 0.52974051
0.2788581 2.2984517 0.50151753
0.19317085 2.3001394 0.47696257
0.11018185 2.3307271 0.45875394
0.36958244 2.319416 0.44251353
0.27770871 2.283977 0.40975174
0.1938621 2.2944441 0.38751632
0.11171057 2.3439834 0.37234363
0.37085572 2.3261006 0.35446665
0.28073871 2.2991838 0.3253642
0.19714381 2.3188117 0.3043955
0.11322726 2.332149 0.28313237
0.37087211 2.323595 0.26605299
0.28275642 2.3153725 0.24108921
0.19871888 2.3262742 0.21905409
0.11450313 2.3348703 0.19745067
0.3700034 2.3158152 0.1788878
0.28254485 2.3076148 0.15486453
0.19872779 2.3196945 0.13322346
0.11614842 2.352474 0.11198141
0.36899114 2.3048317 0.09215907
0.28222257 2.2956822 0.069212861
0.20010071 2.3219011 0.047921937
0.11706024 2.3509474 0.025677649
0.37086493 2.3144655 0.0066684056
0.28404072 2.3034999 -0.015838932
0.20182548 2.330976 -0.037653506
0.11778998 2.3482747 -0.060296055
0.37313414 2.320848 -0.07962206
0.28352132 2.2923698 -0.10000143
0.20299225 2.3279037 -0.12352654
0.11817292 2.3444595 -0.1464542
0.3722086 2.3053346 -0.1648487
0.28481549 2.2929771 -0.18509458
0.2011821 2.3029649 -0.20717098
0.11952434 2.3573587 -0.234433
0.21764678 1.3456426 -0.14668731
0.17408989 1.3965718 -0.16483118
0.13353145 1.5239547 -0.19363765
0.12038778 2.3629711 -0.32313904
0.20884611 1.2845446 -0.18855652
0.16798538 1.3414962 -0.20878913
0.14048934 1.5963137 -0.2634795
0.12127437 2.3730376 -0.41440272
0.23330721 1.4280725 -0.26460931
0.16876069 1.3425558 -0.26066798
0.12666994 1.4292924 -0.29047236
0.073430941 1.428059 -0.30446607
0.19586049 1.1916713 -0.26782015
0.17254868 1.3676752 -0.31924415
0 0 -0
0.056573108 1.1077535 -0.28003156
0.27205005 1.6455379 -0.43631443
0 0 -0
0 0 -0
0.039368615 0.77140236 -0.22674571
0.37747809 2.2666242 0.70989466
0.29094598 2.2831626 0.68360823
0.20500889 2.3029242 0.66222191
0.11967167 2.3229346 0.64204556
0.38532987 2.322777 0.62864649
0.29291123 2.2937956 0.59200853
0.20587873 2.2932079 0.56608528
0.12326521 2.338666 0.55161965
0.38425592 2.3165536 0.53328389
0.29307953 2.2976668 0.50172919
0.20728059 2.2989109 0.47696257
0.12448085 2.3300071 0.45875394
0.38412833 2.3190439 0.44288385
0.29346526 2.2959018 0.41220638
0.20856026 2.300086 0.38867801
0.12619701 2.345226 0.37265703
0.38221118 2.3062212 0.35178804
0.29610148 2.30724 0.32675526
0.21001717 2.3027463 0.30245003
0.12753493 2.3314104 0.28313237
0.38561034 2.3242164 0.26639006
0.29771778 2.3195136 0.24170607
0.21262558 2.3210452 0.21868044
0.12833324 2.3251693 0.19669318
0.3895967 2.3459616 0.18139774
0.29746282 2.3117754 0.15526333
0.21387061 2.3283734 0.13379474
0.12997159 2.3407464 0.11145902
0.38476646 2.312381 0.092553586
0.29643133 2.2948985 0.069242768
0.21480364 2.3256075 0.048024729
0.13176246 2.3551769 0.025732189
0.38719481 2.3249698 0.0067053894
0.29804093 2.3007221 -0.015832109
0.21575485 2.3257115 -0.037589144
0.13219652 2.3475077 -0.060296055
0.3858853 2.309643 -0.079317391
0.29951239 2.3054483 -0.10065024
0.21699362 2.3236315 -0.12336817
0.13204882 2.3347223 -0.14589381
0.38684195 2.3059585 -0.16505995
0.29952428 2.2961287 -0.18549384
0.21688604 2.3185456 -0.20868839
0.13432549 2.3625417 -0.23502597
0.21436551 1.275646 -0.13919781
0.1857495 1.4191127 -0.16762297
0.14176784 1.5112537 -0.19213076
0.13409366 2.3483393 -0.3212446
0.21622957 1.2803115 -0.18812636
0.17672873 1.3443598 -0.20939963
0.13473512 1.4303781 -0.23622301
0.13465014 2.3515949 -0.41079471
0.23054622 1.3587261 -0.25201741
0.18367435 1.3921175 -0.27050453
0.13164453 1.3884828 -0.28233755
0.084159628 1.4617577 -0.31175494
0.20990273 1.2299041 -0.27669695
0.17812416 1.3453432 -0.31428063
0.10902394 1.1486185 -0.27885193
0 0 -0
0.18542145 1.0803179 -0.2867426
0 0 -0
0 0 -0
0.04399154 0.76923037 -0.22618236
0.39902729 2.3085151 0.72376788
0.30571178 2.2870355 0.68531656
0.21931773 2.3035367 0.6627726
0.13420019 2.3269687 0.64337593
0.39891908 2.3165605 0.62761462
0.30955228 2.3111589 0.59696883
0.21976021 2.2899685 0.56560779
0.13755548 2.3368938 0.55139041
0.39829728 2.3131912 0.5330624
0.30769065 2.2997 0.50257599
0.22185218 2.3024697 0.47797439
0.13883352 2.3301792 0.45894688
0.39901662 2.3205171 0.44362444
0.30793959 2.2969854 0.41273239
0.22304972 2.3026893 0.38934189
0.14046644 2.3424358 0.37234363
0.3958517 2.3009088 0.35134161
0.31078118 2.3093054 0.32731166
0.22529601 2.313257 0.3040064
0.14201872 2.3335567 0.28349352
0.3998642 2.3218067 0.26639006
0.31220981 2.3196149 0.24191171
0.22773543 2.328615 0.21952116
0.14235373 2.3203597 0.19635652
0.40415329 2.3445094 0.18147378
0.31217563 2.3138621 0.1555292
0.22737388 2.3190684 0.13333772
0.14439319 2.3409019 0.11150651
0.40370923 2.3375463 0.093658231
0.31117767 2.2979891 0.069392323
0.22838281 2.3172808 0.047880817
0.14583918 2.348336 0.025666742
0.40247524 2.3284626 0.0067224586
0.31309414 2.3057861 -0.015879879
0.22962719 2.3203635 -0.037524775
0.14541382 2.3276958 -0.059808973
0.40261087 2.3220026 -0.079825185
0.31405708 2.3065369 -0.10078
0.23055442 2.3153005 -0.12299865
0.14643438 2.3348641 -0.14595607
0.4057737 2.3310583 -0.16703168
0.31401244 2.2972105 -0.18573339
0.22932902 2.2993317 -0.20708174
0.1476302 2.3428037 -0.23314816
0.2151866 1.2341479 -0.1348111
0.19458845 1.4189302 -0.16773929
0.14600345 1.4600103 -0.18572639
0.14756198 2.3326399 -0.31921482
0.21622483 1.2341189 -0.18153046
0.18322156 1.3305224 -0.20741552
0.14242502 1.4187244 -0.23443836
0.14901438 2.3497412 -0.41062292
0.22285131 1.266219 -0.23510832
0.17904013 1.2956394 -0.25196645
0.14065412 1.3925247 -0.28332961
0.13897543 2.1805956 -0.4652375
0.21251111 1.200714 -0.27041823
0.18022116 1.2998358 -0.30390239
0.1024777 1.0135034 -0.24619783
0.073781222 1.1640664 -0.29447377
0 0 -0
0 0 -0
0.19791549 1.9522756 -0.55404931
0.050833751 0.80246168 -0.23604088
0.41267902 2.3032019 0.72288233
0.32080171 2.2927115 0.68759429
0.23199305 2.2878013 0.65864235
0.14841425 2.3251393 0.6431098
0.41091833 2.3017046 0.6242612
0.32399645 2.3111348 0.59746486
0.23430051 2.293407 0.56680155
0.15151286 2.330178 0.55001479
0.41762429 2.3395035 0.53970629
0.32233775 2.3016403 0.5034228
0.2359757 2.3010652 0.47797439
0.15299989 2.3273251 0.45856103
0.41376495 2.3209276 0.44417989
0.32312223 2.3028524 0.41413507
0.23636577 2.2934299 0.3880142
0.15392438 2.327733 0.3701497
0.41430333 2.3227744 0.35506189
0.32577357 2.3132389 0.32814628
0.2385661 2.3029547 0.30283913
0.15606894 2.3286796 0.283012
0.41480163 2.3232222 0.26683947
0.32643685 2.3176556 0.24191171
0.24253418 2.3321252 0.21998823
0.15705834 2.3264019 0.19694567
0.4213379 2.3576903 0.18269071
0.32859892 2.3277109 0.15659264
0.24232373 2.3245807 0.13373762
0.15821308 2.3319993 0.11112659
0.41804454 2.3350253 0.093658231
0.32821625 2.3168194 0.070020437
0.24165963 2.3068867 0.047695793
0.15963264 2.3384182 0.025568567
0.41851848 2.3357925 0.0067509073
0.32822064 2.3107519 -0.015927646
0.24469694 2.3268661 -0.037653506
0.1596251 2.3257623 -0.059783336
0.41773474 2.3244071 -0.079994448
0.32735866 2.2986319 -0.10052048
0.24496657 2.3158283 -0.12310421
0.16178682 2.3488572 -0.14689009
0.4181211 2.3177261 -0.16625707
0.32725558 2.2893198 -0.18525428
0.24290849 2.2929287 -0.20663542
0.16062911 2.3219991 -0.23117149
0.23194818 1.2836819 -0.14037473
0.19751105 1.3774002 -0.16296999
0.15076824 1.4196254 -0.18070336
0.16187201 2.3316905 -0.31921482
0.22202545 1.2230315 -0.18009657
0.18687563 1.2980707 -0.20253155
0.1510229 1.4168427 -0.23427613
0.16308743 2.343869 -0.4097639
0.21967675 1.2048283 -0.22395551
0.20186698 1.3975337 -0.27201784
0.14762865 1.3770174 -0.28035346
0.14928381 2.1357954 -0.4558661
0.22110683 1.2061094 -0.27193376
0.1838623 1.2688169 -0.29690835
0.13151205 1.2254778 -0.29788056
0.081056938 1.1655263 -0.29496333
0.23022658 1.249217 -0.33229747
0.14689837 1.0083994 -0.27692512
0 0 -0
0.052629441 0.75714618 -0.22280228
0.42906904 2.3128388 0.72671962
0.33763668 2.3096707 0.69328868
0.24633493 2.2892022 0.65946841
0.16227441 2.3184152 0.64151335
0.43311271 2.3428426 0.63612729
0.33662704 2.2985592 0.5947367
0.24805433 2.2890298 0.56608528
0.16587682 2.3301752 0.55024403
0.43126234 2.3330612 0.53882045
0.33560538 2.293817 0.50215262
0.24987856 2.2976267 0.47756964
0.16657348 2.3165557 0.45663187
0.43352872 2.3483026 0.44991961
0.33753175 2.3027744 0.41448572
0.250862 2.2958574 0.38867801
0.16749205 2.3168938 0.36858258
0.4337565 2.3483887 0.35937741
0.34024939 2.3131557 0.32842448
0.25334159 2.3073614 0.3036173
0.17013714 2.3247077 0.28265086
0.43320385 2.3431067 0.2694236
0.34007248 2.3116727 0.24150047
0.25531241 2.3167381 0.21868044
0.17067096 2.3164506 0.19618818
0.43634081 2.3580019 0.18291888
0.34258422 2.3236766 0.1564597
0.25603452 2.3180883 0.13345198
0.17207663 2.3250077 0.11084165
0.4329105 2.3353639 0.093776584
0.34023175 2.2999303 0.069571786
0.25536883 2.3013859 0.047613561
0.1739779 2.3373947 0.025568567
0.43430197 2.3410461 0.006773666
0.34356654 2.3166075 -0.01598224
0.2583057 2.3193586 -0.037556957
0.17389269 2.324739 -0.059783336
0.43381733 2.3316257 -0.08033298
0.34321976 2.3084385 -0.10103951
0.25872707 2.310312 -0.12289307
0.1761214 2.3468249 -0.14682782
0.43434882 2.3259034 -0.16703168
0.34350306 2.302057 -0.18645203
0.25697306 2.2913952 -0.20663542
0.17397642 2.3090622 -0.22998548
0.24384174 1.3037354 -0.14272858
0.19904952 1.3299956 -0.15750277
0.16734459 1.4886708 -0.18961924
0.17557847 2.3227496 -0.31813228
0.22440884 1.194412 -0.17608169
0.19703929 1.3115593 -0.2048209
0.15971363 1.4158894 -0.23427613
0.17642432 2.3290718 -0.40735856
0.22651818 1.2005578 -0.22341588
0.20560904 1.3642263 -0.26577544
0.15519144 1.3682947 -0.27876619
0.1683948 2.2138352 -0.47273463
0.23305145 1.2287095 -0.27734646
0.19513917 1.2907833 -0.30232307
0.13255996 1.167665 -0.28402022
0 0 -0
0.23734376 1.2449299 -0.33153823
0 0 -0
0 0 -0
0 0 -0
0.44523266 2.3204839 0.72996652
0.35209113 2.3094506 0.69385809
0.26026782 2.2866921 0.65919304
0.17700933 2.3241041 0.64337593
0.44620976 2.3334982 0.63432157
0.35218698 2.3060272 0.59721684
0.26098946 2.277817 0.5636977
0.18032154 2.3310547 0.55070263
0.44666845 2.336118 0.54014927
0.35055816 2.2975113 0.5034228
0.26419553 2.297996 0.47797439
0.18116635 2.3203812 0.45759648
0.44387418 2.3243628 0.44584629
0.35299373 2.3094189 0.41606373
0.26641503 2.3070102 0.39083549
0.18147333 2.3128688 0.36811247
0.44927117 2.3515105 0.36027023
0.35413602 2.3090668 0.32814628
0.26852292 2.3146279 0.30478457
0.18486927 2.3295579 0.28337315
0.445333 2.3286929 0.26807538
0.35515505 2.3154414 0.24211732
0.27067417 2.3250175 0.21961458
0.18503985 2.3173463 0.19635652
0.45361263 2.3699701 0.18405974
0.36108005 2.3491447 0.15832075
0.2704846 2.3184569 0.13356623
0.18625952 2.3229125 0.11079416
0.45118299 2.3532717 0.094605066
0.35464209 2.2997749 0.069631606
0.27053225 2.3087125 0.047798585
0.1883166 2.3362832 0.025568567
0.4511078 2.3511043 0.0068106498
0.35594136 2.302597 -0.015900351
0.27206507 2.3137579 -0.037492596
0.18831512 2.3256211 -0.059834607
0.45113719 2.3446229 -0.080874629
0.35737762 2.306289 -0.10103951
0.27160856 2.2977724 -0.12231239
0.18954839 2.3337629 -0.14608061
0.45220551 2.3418033 -0.16836961
0.35900018 2.3087707 -0.1871707
0.27254993 2.3026338 -0.2077958
0.12750271 1.5640907 -0.15586036
0.30148667 1.5589482 -0.17086773
0.20292155 1.3012714 -0.1542457
0.16712603 1.4088018 -0.17957319
0.13895908 1.6994992 -0.23288202
0.23814946 1.2260439 -0.18095692
0.2037078 1.3015381 -0.2034473
0.1680485 1.4119432 -0.2337894
0.13529204 1.6514567 -0.2889823
0.23783489 1.2194207 -0.22719343
0.19463432 1.2397411 -0.24175161
0.15950917 1.3332554 -0.27182183
0.11872496 1.4436554 -0.30842289
0.23758131 1.2119278 -0.27388236
0.19259974 1.2231588 -0.28675571
0 0 -0
0 0 -0
0.23151359 1.1751078 -0.31331629
0 0 -0
0 0 -0
0.065126173 0.79565215 -0.23435083
0.46132043 2.3270805 0.73291826
0.36610475 2.3062999 0.69357336
0.27452299 2.2869613 0.65974373
0.19071271 2.3162491 0.64151335
0.46538872 2.35536 0.64102852
0.36724263 2.3095632 0.59870493
0.2771737 2.2944901 0.56823409
0.19454019 2.3289342 0.55047327
0.46949962 2.376384 0.55011511
0.36464882 2.2953172 0.5034228
0.27829081 2.2963319 0.47797439
0.19540054 2.319226 0.45759648
0.45964983 2.3293083 0.44732749
0.36731213 2.3081818 0.41623902
0.28032732 2.3033743 0.39050362
0.19549482 2.3097436 0.36779904
0.46560666 2.3584113 0.36175838
0.36892202 2.3107619 0.32870269
0.28235924 2.309984 0.3043955
0.19941351 2.331347 0.28373429
0.46308053 2.3434632 0.27009773
0.37170824 2.3279526 0.24365947
0.28493509 2.323313 0.21961458
0.19934073 2.3171601 0.19644068
0.46833938 2.3681202 0.18413579
0.37359568 2.3350618 0.15752316
0.28519237 2.3207171 0.13379474
0.20042318 2.3207304 0.11074667
0.46697313 2.3573205 0.094881237
0.37254807 2.3212416 0.070349455
0.2850605 2.3099859 0.047860261
0.20161077 2.3231294 0.02543767
0.46688661 2.3551586 0.0068305638
0.37228668 2.3141918 -0.015995888
0.28588834 2.3090682 -0.03744432
0.20206055 2.3184464 -0.05968079
0.46668416 2.347692 -0.081077747
0.37199914 2.3070118 -0.10116928
0.28619552 2.3000264 -0.12252354
0.20490728 2.344487 -0.14682782
0.46890765 2.3507237 -0.16921462
0.37109017 2.2937324 -0.18613264
0.28507265 2.2880692 -0.20663542
0.13657579 1.5573312 -0.15526737
0.44193146 2.2122662 -0.24276696
0.22585301 1.3921589 -0.16518016
0.17330885 1.388061 -0.17706168
0.13549624 1.5406958 -0.21123117
0.24391584 1.2158265 -0.1796664
0.2105784 1.2934357 -0.20237894
0.16971898 1.3550767 -0.22454165
0.12700707 1.4415725 -0.25238708
0.24744916 1.2285459 -0.22917216
0.20382001 1.2482146 -0.24364325
0.16780926 1.3332239 -0.27202022
0.12499648 1.4136715 -0.30217528
0.24675626 1.219059 -0.27583092
0.20403717 1.2459893 -0.29239604
0.14882283 1.1813806 -0.28777894
0 0 -0
0.25414571 1.2495079 -0.33356288
0 0 -0
0 0 -0
0 0 -0
0.4776974 2.3345027 0.73616523
0.38071734 2.3068478 0.69442755
0.29011592 2.2976329 0.66332334
0.20492135 2.3150353 0.64151335
0.47925287 2.3496203 0.64025468
0.38361892 2.3206475 0.60217714
0.29088008 2.2898562 0.56751782
0.20726106 2.3102462 0.54634649
0.48368225 2.3715472 0.54967219
0.38031837 2.3026793 0.50553977
0.29324207 2.3013811 0.47939089
0.20962736 2.3179834 0.45759648
0.48060313 2.3591835 0.45362264
0.38227141 2.3107412 0.41711572
0.29395473 2.2976983 0.38983977
0.21011011 2.3134184 0.36858258
0.48085871 2.3593857 0.36235362
0.38212091 2.3025932 0.32786807
0.29627502 2.306241 0.30413607
0.21289857 2.3211823 0.28265086
0.48261482 2.3658917 0.27301893
0.38451952 2.3167965 0.24273418
0.29867628 2.3175709 0.21924092
0.2143783 2.3248236 0.19719817
0.48425725 2.3720407 0.18466821
0.38693425 2.3268197 0.15712436
0.29968235 2.320904 0.133909
0.21484326 2.3214464 0.11084165
0.48363054 2.3651793 0.095315196
0.38612613 2.3149683 0.070229813
0.29794359 2.2982783 0.047654673
0.21586142 2.3218486 0.02543767
0.48092788 2.3502901 0.0068248743
0.38812807 2.3217268 -0.016064132
0.3014695 2.318177 -0.037621323
0.21739733 2.3291073 -0.059988428
0.48329011 2.3555536 -0.081450127
0.38763347 2.3135536 -0.10155855
0.30120853 2.3051584 -0.12289307
0.21854496 2.3352358 -0.14632969
0.48573622 2.3595266 -0.17005965
0.3897838 2.3189368 -0.18836847
0.29910663 2.2862771 -0.20663542
0.14557071 1.5505193 -0.15467438
0.39748117 1.9280899 -0.21184602
0.22547743 1.3378593 -0.15889865
0.18349895 1.3997592 -0.17869416
0.13473314 1.4313267 -0.19634621
0.25618622 1.2375659 -0.18310775
0.21669813 1.2814002 -0.20070007
0.17867355 1.3589014 -0.22535285
0.13548008 1.4368429 -0.25169981
0.24557599 1.1817383 -0.22071762
0.20408657 1.203375 -0.23513085
0.1767568 1.3379993 -0.2732107
0.13680038 1.4459846 -0.30925587
0.24884367 1.1917189 -0.2699852
0.21527191 1.2658434 -0.29735959
0.16014574 1.2112814 -0.29529643
0 0 -0
0.24452606 1.1655506 -0.31154469
0.16331391 0.95597827 -0.26355091
0 0 -0
0 0 -0
0.49181533 2.3305926 0.73587
0.39405522 2.2997439 0.69300389
0.30483988 2.3005743 0.66470003
0.21912229 2.3137345 0.64151335
0.49724096 2.3636537 0.64489788
0.39948952 2.3277979 0.60465729
0.30684915 2.3024671 0.5710991
0.2224547 2.3195891 0.54886842
0.49561512 2.3561292 0.54679316
0.39956066 2.330164 0.51210254
0.30709806 2.2975972 0.47898617
0.22384629 2.3166535 0.45759648
0.49446353 2.3533051 0.45306718
0.39727584 2.3132036 0.41799235
0.30870327 2.3007381 0.39066955
0.22363345 2.3052044 0.36748558
0.49634367 2.3612292 0.36309764
0.39876387 2.3148439 0.32995465
0.31042027 2.3043797 0.30413607
0.22742729 2.3227963 0.283012
0.49630427 2.3589964 0.27256951
0.40244329 2.3359594 0.244996
0.31542403 2.3344414 0.22101578
0.22824878 2.3194978 0.19686152
0.49900812 2.3700004 0.18474427
0.40341035 2.337184 0.15798841
0.31619421 2.3358402 0.13488019
0.22967224 2.3260486 0.11112659
0.50390697 2.3895433 0.096419841
0.4023692 2.3243744 0.070588738
0.31284764 2.302351 0.047778025
0.22970927 2.3165002 0.025394037
0.50628322 2.3991525 0.0069756531
0.40185383 2.3163457 -0.016043657
0.31514779 2.3123209 -0.037556957
0.23118931 2.3227556 -0.059860244
0.4977344 2.3525438 -0.081450127
0.40233529 2.3140845 -0.10168831
0.31561798 2.3052456 -0.12299865
0.23158136 2.3209403 -0.1455202
0.49834073 2.3477197 -0.16942587
0.40623161 2.3292673 -0.18940654
0.31339985 2.2863722 -0.20681395
0.14715427 1.4703842 -0.14676769
0.40558329 1.9081091 -0.20992014
0.2217072 1.2679647 -0.15075597
0.18762974 1.3661727 -0.17455016
0.14766711 1.4718789 -0.20202956
0.25530607 1.196288 -0.17722879
0.22062896 1.2576579 -0.19718973
0.18485408 1.3421391 -0.222757
0.14389986 1.4320638 -0.25101259
0.25529498 1.1917516 -0.22287622
0.22422595 1.2746322 -0.24931817
0.18630651 1.3465983 -0.27519479
0.1420407 1.4091117 -0.30155054
0.25553501 1.1873063 -0.26933569
0.21846591 1.2385947 -0.29126799
0.18410587 1.3296666 -0.32442671
0.116868 1.1634562 -0.29520813
0.25719318 1.1895592 -0.31837791
0 0 -0
0 0 -0
0.081390217 0.81054866 -0.23913924
0.51686591 2.3770132 0.7515142
0.41000339 2.3076651 0.69613588
0.31921446 2.3005652 0.66525078
0.2325408 2.3046739 0.63938475
0.51480514 2.3747215 0.64876729
0.41478336 2.3310251 0.60614532
0.31989753 2.2928467 0.56918907
0.23539799 2.3055923 0.54588795
0.5168801 2.3844938 0.55410147
0.41367969 2.3267062 0.51189083
0.3210544 2.2946997 0.47878382
0.23735425 2.3084037 0.45624602
0.51388508 2.3732779 0.45751086
0.4138782 2.3242919 0.42044699
0.32377449 2.3056364 0.39183128
0.23706394 2.296912 0.36638862
0.51438153 2.3745689 0.36562741
0.4157455 2.327951 0.33218026
0.32372344 2.2965407 0.30335793
0.24146983 2.3193824 0.28277126
0.51519078 2.3763001 0.27492893
0.41519484 2.3246331 0.24407071
0.32793015 2.3196464 0.21980141
0.24289131 2.3220177 0.19719817
0.51650065 2.3805358 0.18580906
0.42055535 2.3503797 0.15905187
0.32856083 2.3200171 0.1340804
0.24425304 2.3275759 0.11126906
0.52280301 2.4059353 0.09720888
0.41821256 2.3307164 0.070857935
0.32964188 2.319195 0.048168641
0.24370919 2.3130584 0.025372224
0.51823246 2.3832979 0.0069386698
0.41765186 2.3226941 -0.016105076
0.32848337 2.3044045 -0.037460409
0.24533202 2.3202991 -0.059834607
0.51407582 2.3582342 -0.081754804
0.41829836 2.3214045 -0.10212084
0.33159661 2.3161166 -0.12368491
0.24592321 2.3204679 -0.14558247
0.51635951 2.3611841 -0.17062299
0.4198069 2.3228071 -0.18908712
0.33024913 2.3041248 -0.20859914
0.15785629 1.4852862 -0.14834903
0.49406207 2.2562044 -0.2485446
0.23355572 1.2890584 -0.15343142
0.1910734 1.3306252 -0.170155
0.15354702 1.4413884 -0.19797002
0.26051661 1.1850331 -0.1757949
0.22551389 1.2407228 -0.19474775
0.19182014 1.3321896 -0.22129683
0.14975794 1.4037259 -0.24620195
0.25370082 1.1498182 -0.21532109
0.22218356 1.2191346 -0.23872498
0.19274196 1.3328193 -0.27261546
0.15068418 1.4082137 -0.30155054
0.26281536 1.185716 -0.26933569
0.21625574 1.1835632 -0.27863359
0.18404718 1.2717544 -0.31056634
0.10745011 1.0074954 -0.25579807
0.25565708 1.1482972 -0.30774847
0 0 -0
0 0 -0
0.089210331 0.8367489 -0.24702606
0.53352863 2.383121 0.75446606
0.42606348 2.3154764 0.69926775
0.33373836 2.3014174 0.66607684
0.24595907 2.2964942 0.63752222
0.53168178 2.3818903 0.65160483
0.43013185 2.3341527 0.60763341
0.33606145 2.3052545 0.57277042
0.24891157 2.2982981 0.54451233
0.52895212 2.3698564 0.55144387
0.43325782 2.3529594 0.51824182
0.33583656 2.2975316 0.4797956
0.25162023 2.3078794 0.45643899
0.53036225 2.3787124 0.4591772
0.42688224 2.3149314 0.41921967
0.33634114 2.2928739 0.39000574
0.25265697 2.309159 0.36858258
0.53540039 2.4003227 0.37009177
0.43308306 2.3419104 0.33454508
0.33968616 2.3072636 0.30504394
0.25580558 2.3188438 0.28289163
0.53041124 2.3760035 0.27526599
0.43053609 2.3279104 0.24468757
0.34201163 2.3166053 0.21970798
0.25724411 2.3214741 0.19728233
0.53305423 2.38608 0.18649359
0.4349691 2.3477552 0.15905187
0.34220579 2.314007 0.13385189
0.25853017 2.3260334 0.11126906
0.53231972 2.3792791 0.096262038
0.4330534 2.3310547 0.070947669
0.34327894 2.3131731 0.048086405
0.25789726 2.3115194 0.025372224
0.54049277 2.4142277 0.0070382408
0.43171278 2.3191047 -0.016098252
0.34453002 2.3152022 -0.037669595
0.25934204 2.3167632 -0.059783336
0.53641474 2.3901415 -0.08297351
0.43290079 2.3207586 -0.10220736
0.34447348 2.3051493 -0.1232098
0.26060179 2.3228827 -0.14583153
0.53806746 2.3900857 -0.17294678
0.43606779 2.3309655 -0.18996549
0.33951789 2.2695487 -0.20565358
0.19733459 1.7542504 -0.17533056
0.5194844 2.3045363 -0.25421521
0.23523669 1.2544105 -0.14947641
0.19276477 1.2862582 -0.16462968
0.15850343 1.4059594 -0.19323391
0.26669082 1.178586 -0.17507796
0.2318437 1.2325169 -0.19367938
0.19691165 1.3104957 -0.21788977
0.16212574 1.4360636 -0.25204346
0.26140472 1.1511177 -0.21586074
0.25786686 1.3673133 -0.2680454
0.19609086 1.2996297 -0.26606792
0.1544807 1.3645004 -0.2923874
0.26639494 1.1679 -0.26565507
0.22459979 1.1879575 -0.27998728
0.18836422 1.2475344 -0.30492824
0 0 -0
0.26658672 1.1636813 -0.31230396
0.24315673 1.2808425 -0.35428587
0.14551197 0.96201819 -0.27471501
0.094020121 0.83332533 -0.24618104
0.55800599 2.4226315 0.76804405
0.44438595 2.3344777 0.70581627
0.34828469 2.3021779 0.6669029
0.26102227 2.3035624 0.63991696
0.55385607 2.4115407 0.66063344
0.443176 2.3248081 0.60589731
0.35092977 2.3079493 0.57396412
0.26500234 2.3141346 0.54863918
0.54348338 2.3665662 0.55144387
0.45024747 2.3636978 0.5212056
0.35125592 2.3041408 0.48161685
0.2657764 2.3062921 0.45643899
0.54648596 2.3821182 0.4604733
0.44624367 2.3393466 0.42412901
0.35308754 2.3083131 0.39299297
0.26670751 2.3065841 0.36842588
0.55542713 2.4201236 0.37366322
0.44577014 2.3304553 0.33329314
0.35488996 2.3119967 0.30595183
0.27037367 2.3201888 0.28325278
0.55298805 2.4075685 0.2793107
0.44593316 2.3310869 0.24530444
0.35667399 2.3174155 0.21998823
0.27159938 2.3208416 0.19736649
0.55371565 2.4090021 0.18854715
0.45199543 2.3587613 0.15998237
0.3586795 2.3266642 0.13470881
0.27303043 2.3263872 0.11136404
0.55475372 2.4100497 0.097642846
0.44847986 2.3342431 0.071127124
0.35838279 2.3169513 0.048209753
0.27289441 2.3168449 0.025448579
0.55619383 2.4147637 0.0070496202
0.4534958 2.35569 -0.01637122
0.35857612 2.3120568 -0.037653506
0.27449101 2.3230705 -0.059988428
0.55354345 2.397517 -0.08334589
0.45167387 2.3416021 -0.10324542
0.35953301 2.3089128 -0.12352654
0.27426305 2.3162844 -0.1455202
0.55024707 2.3760493 -0.17217219
0.45111933 2.3321605 -0.19028489
0.35849944 2.2998986 -0.20859914
