# .PCD v0.7 - Point Cloud Data file format
VERSION 0.7
FIELDS x y z
SIZE 4 4 4
TYPE F F F
COUNT 1 1 1
WIDTH 1524
HEIGHT 1
VIEWPOINT 0 0 0 1 0 0 0
POINTS 1524
DATA ascii
1.5277009 2.2564154 -0.018595904
1.4297606 2.2864187 -0.043398079
1.6106337 2.7962468 -0.082753263
0 0 -0
1.50976 2.228157 -0.11652417
1.4372963 2.2953494 -0.14316408
0 0 -0
0 0 -0
0.74704129 1.1012677 -0.10660106
0.65509731 1.0458193 -0.11059235
0.51106399 0.88615739 -0.1016008
0 0 -0
1.5141995 2.2300961 -0.31570348
0 0 -0
0 0 -0
0 0 -0
0.46671289 0.68654418 -0.12820385
0.45776311 0.72974044 -0.14163646
0.44965595 0.77895641 -0.15686139
0 0 -0
0.46625051 0.68516934 -0.15965442
0.45773581 0.72870773 -0.17420405
0.4329797 0.74952364 -0.18430401
0.47858167 0.64904046 -0.17883542
0.46288913 0.67956644 -0.19041842
0.4648858 0.73991835 -0.21119452
0.44253039 0.7666744 -0.22348674
0 0 -0
0.463911 0.67996931 -0.22369048
0.44407684 0.70638788 -0.23558646
0.43167385 0.74792594 -0.25350451
0 0 0
0 0 0
1.7519673 2.7866657 0.94280577
0 0 0
0 0 0
0 0 0
0 0 0
0 0 0
0 0 0
0 0 0
1.7607782 2.7936416 0.68235797
1.614452 2.7818928 0.63237822
0 0 0
0 0 0
0 0 0
0 0 0
0 0 0
0 0 0
0 0 0
0 0 0
0 0 0
1.9077041 2.7877557 0.34914243
0 0 0
0 0 0
0 0 0
1.8710954 2.7324166 0.22059889
0 0 0
1.5940808 2.7335868 0.15044831
1.7772719 2.400317 0.11792099
1.602772 2.338124 0.084826134
1.4587785 2.303335 0.056063116
0 0 0
1.715896 2.3167484 0.0082017975
1.5946925 2.3245103 -0.019237377
1.4400156 2.2716913 -0.043285441
0 0 -0
0 0 -0
1.5188794 2.2122624 -0.11617814
1.4588454 2.2982903 -0.14390314
0 0 -0
0.81051213 1.0916167 -0.095979832
0.78258073 1.1385583 -0.11067346
0.6465528 1.018237 -0.10809309
0.53457898 0.9139272 -0.10515881
0.59945619 0.80689073 -0.10816985
0 0 -0
0 0 -0
0 0 -0
0 0 -0
0.4765228 0.69180644 -0.12973008
0.45323101 0.71276259 -0.13887836
0.44596565 0.76173025 -0.15394065
0 0 -0
0.47379026 0.68714601 -0.1607894
0.46061921 0.72340518 -0.17360882
0.44350371 0.75697958 -0.18680304
0.50592339 0.67737949 -0.18749574
0.47147718 0.68312776 -0.19222334
0.46106261 0.72393417 -0.20743576
0.44820595 0.76561809 -0.2239763
0 0 -0
0.47740304 0.69060457 -0.22814856
0.45667779 0.71663523 -0.23993407
0.43189237 0.73781055 -0.25096947
5.9647079 1.4593341 1.8970865
6.1157975 1.7468632 1.8891048
6.2560263 2.0467184 1.885336
1.8819478 0.69443643 0.55370772
6.9633574 1.708303 1.914315
7.1861515 2.0505552 1.9131771
2.1085181 0.68807036 0.54531372
1.3986859 0.51422822 0.35100985
8.6402168 2.1198423 2.0204105
2.0825615 0.59456962 0.46912739
2.0251656 0.66000974 0.44013306
1.4435024 0.52953279 0.30229917
2.0728514 0.50906444 0.40215039
2.0118518 0.57381243 0.37258127
1.9664632 0.63977754 0.34801787
1.363212 0.49948534 0.23036411
2.1031671 0.51631492 0.32589501
1.414371 0.40262732 0.20656939
1.3863078 0.45022473 0.19065247
1.3809315 0.50458407 0.17828192
1.5440891 0.3787789 0.17976554
1.4273926 0.40630722 0.15339237
1.383661 0.44875118 0.13647677
1.3929116 0.5081901 0.12523724
1.4516753 0.35586724 0.11401056
1.4185147 0.40329844 0.098235957
1.4417135 0.46718958 0.086720936
1.371124 0.49972597 0.069382884
1.4655472 0.35877979 0.059572
1.4702604 0.41723377 0.045733128
1.4249781 0.4609696 0.030796679
1.3681024 0.49797562 0.015882183
1.5726099 0.38475701 0.0046058656
1.4787339 0.41905284 -0.010488772
1.390076 0.44906271 -0.023509305
1.348187 0.49016705 -0.036787774
1.5991018 0.39035127 -0.055755761
1.4419693 0.40806335 -0.064879827
1.3667312 0.44059932 -0.075910755
1.3648942 0.4958638 -0.090599865
1.5488131 0.37698725 -0.11252808
1.4456391 0.40828446 -0.12033543
1.3528173 0.43587926 -0.12737311
1.3432266 0.4875409 -0.14192486
1.4771975 0.35911879 -0.16359219
1.4138358 0.39863637 -0.17204328
1.3457119 0.43320107 -0.1789453
1.3570985 0.49220064 -0.19715811
1.3889087 0.33644864 -0.20705371
1.3594761 0.38248995 -0.21809916
1.3461586 0.43277451 -0.23249146
1.3438497 0.48715663 -0.2492945
1.4630092 0.3532095 -0.27522245
1.4019854 0.39373711 -0.28053021
1.3943027 0.44731268 -0.29642466
1.3757602 0.49823552 -0.31154668
1.5206739 0.36558679 -0.34684548
1.4399062 0.40368205 -0.34631786
1.3809683 0.44287533 -0.35050303
1.395539 0.50594956 -0.37476251
2.6485093 0.63409102 -0.71242756
1.7323513 0.48426789 -0.48881483
1.8393748 0.58935481 -0.54535413
1.8104056 0.65643001 -0.56531507
5.9735503 1.4227079 1.8970865
6.1485615 1.7154874 1.895938
6.2840304 2.0132799 1.8900172
6.5739617 2.3800573 1.9298617
6.981226 1.6673399 1.9163786
7.2256608 2.0139663 1.9203696
2.0738504 0.66270512 0.53528601
1.9868964 0.716676 0.49751234
8.6615973 2.068826 2.0224037
2.114413 0.58965611 0.47547838
2.0245123 0.6460824 0.43912125
1.4347222 0.51634616 0.29979125
2.0979187 0.50159192 0.40640888
2.022922 0.56357086 0.37398395
1.9900835 0.63398546 0.35150301
1.3532392 0.48643419 0.22817017
2.1168752 0.50592893 0.32753196
1.4301721 0.39765525 0.20851685
1.3975487 0.44441441 0.19181974
1.3914776 0.49878114 0.17924495
1.9813048 0.47316235 0.23032461
1.4269837 0.3967419 0.15308395
1.3835416 0.43934873 0.13619654
1.4025708 0.50198424 0.1258264
1.4615905 0.34880489 0.11461902
1.4171171 0.39351913 0.097970098
1.4426496 0.45773068 0.086606674
1.3816891 0.49399376 0.069762804
1.479385 0.35256031 0.060045417
1.4843518 0.41140831 0.046092056
1.4277798 0.45221743 0.030796679
1.3673654 0.48822671 0.015838549
1.9387634 0.46175119 0.0056698518
1.4899511 0.41237223 -0.01055019
1.4023384 0.44354013 -0.023670217
1.3483444 0.48087806 -0.036710866
1.6160522 0.38399768 -0.056263551
1.4868163 0.41091797 -0.066782966
1.3884549 0.43821612 -0.076966532
1.3594497 0.48446429 -0.090039454
1.5472146 0.36655697 -0.11224641
1.4740621 0.40656242 -0.1224914
1.3640152 0.43026701 -0.12817645
1.3443178 0.47862226 -0.14172718
1.4726005 0.34844553 -0.16284324
1.4277459 0.39311764 -0.17343916
1.3511833 0.42583039 -0.17932203
1.3572927 0.48286811 -0.19675218
1.3899837 0.32769302 -0.20691031
1.3589386 0.37335572 -0.21764131
1.3431413 0.42272905 -0.23151802
1.3440289 0.47791159 -0.24877907
1.4603609 0.34310105 -0.27432305
1.3986931 0.38356912 -0.27939525
1.3988912 0.43933633 -0.29682148
1.3815564 0.49076682 -0.31217143
1.5637649 0.36581147 -0.35615531
1.4338992 0.3925243 -0.34428734
1.3818049 0.43381122 -0.35003316
1.4004444 0.49802694 -0.3752521
2.647639 0.61673081 -0.71116215
2.5433543 0.69418192 -0.71643889
1.8227545 0.57172108 -0.53937614
1.8162072 0.64595222 -0.56587839
6.0072985 1.3918508 1.9050562
6.135849 1.6714295 1.8888201
6.3054385 1.9775609 1.8927706
6.4730783 2.2987077 1.8960699
7.0120292 1.6292831 1.9220537
7.2434912 1.9711187 1.9218577
2.0454397 0.63982105 0.52692962
2.0655844 0.73076713 0.51608306
8.6741285 2.0156405 2.0224037
8.9953337 2.4491839 2.0194073
2.0144172 0.62926805 0.43608585
1.4313866 0.505247 0.29844084
10.693344 2.487411 2.0685194
2.0557916 0.55915797 0.37941924
1.9939361 0.62176257 0.35150301
1.3571298 0.47845006 0.22832687
2.1295714 0.49517009 0.32902005
1.4230282 0.38627818 0.20712581
1.3945687 0.43406275 0.19104156
1.3907657 0.48891684 0.17876343
2.1641979 0.50282335 0.25122234
1.4226714 0.38615468 0.15236428
1.3938174 0.43321529 0.13694385
1.399043 0.49105865 0.12523724
1.6297903 0.37839088 0.1276249
1.4223942 0.38559967 0.098169498
1.4435242 0.44827798 0.086492419
1.3941202 0.48881158 0.070237704
1.5165629 0.35160062 0.061465681
1.4887779 0.40281487 0.046151876
1.4381673 0.44581643 0.030961147
1.3835479 0.48445398 0.015991263
2.1704946 0.5028891 0.0063383994
1.505003 0.4066129 -0.010638904
1.4155403 0.43817952 -0.02384722
1.3569314 0.47457588 -0.036864683
1.6242204 0.37542501 -0.056466673
1.5095658 0.40725204 -0.067691281
1.3901634 0.42939374 -0.076913744
1.3529749 0.47282112 -0.08941678
1.5426304 0.35548854 -0.11175349
1.4832668 0.39932403 -0.12305037
1.3742431 0.42423984 -0.12889053
1.3462898 0.47003669 -0.14162835
1.4795554 0.34051827 -0.16337821
1.4339679 0.38538089 -0.17390446
1.3556668 0.41811645 -0.17957319
1.3555523 0.47289902 -0.19607557
1.3977561 0.32048514 -0.20777066
1.3650221 0.36603427 -0.21825179
1.3494821 0.41564158 -0.23216699
1.3385642 0.46673664 -0.24723278
1.4921669 0.34092623 -0.27989945
1.4209399 0.38031113 -0.28336766
1.4015607 0.43074462 -0.29682148
1.3817707 0.48131531 -0.31154668
1.568836 0.35685912 -0.35680485
1.4400456 0.38472453 -0.34518981
1.3844408 0.42532447 -0.35003316
1.4080514 0.49102089 -0.37647602
2.6400506 0.59790927 -0.70812517
2.6137729 0.69619787 -0.73505795
1.6035846 0.49218991 -0.47361845
1.8291965 0.63795578 -0.56869507
6.0306387 1.3583236 1.909779
6.1682239 1.6396596 1.8956534
6.3137774 1.9377059 1.8916693
6.516192 2.2690904 1.9045843
7.0171824 1.5851631 1.920764
7.2488952 1.924896 1.9201217
7.4572473 2.2825158 1.9174317
2.0681903 0.71744114 0.51562452
8.6806259 1.9610898 2.021075
9.018693 2.3962021 2.0213125
2.0257325 0.61918604 0.43770471
1.4817497 0.51282126 0.30827957
10.707447 2.4215341 2.0683341
2.0553777 0.54552311 0.3787179
2.0033729 0.61124301 0.35249877
1.3488386 0.46624199 0.22644636
2.1219597 0.47969547 0.32738313
1.4205853 0.37627161 0.2064303
1.4152281 0.43098611 0.19350578
1.3974936 0.48166803 0.17924495
2.1711192 0.49041033 0.25167176
1.4298218 0.37869141 0.15287833
1.3964494 0.42465484 0.13694385
1.4020296 0.48246503 0.12523724
2.1125631 0.47683495 0.16519743
1.4305209 0.37839568 0.098568283
1.4433818 0.43854153 0.086321034
1.4140965 0.48609301 0.071092524
1.9173728 0.43214476 0.07760141
1.4834899 0.39163122 0.045912594
1.4590541 0.44249669 0.03135176
1.3968979 0.47952688 0.016111253
2.1706128 0.48890251 0.0063298647
1.5461475 0.40756625 -0.010911872
1.4162883 0.42890605 -0.023815038
1.3531984 0.46397138 -0.036685232
1.6274685 0.36567098 -0.056500521
1.5323255 0.40332219 -0.068599604
1.3975515 0.42230004 -0.077177688
1.357739 0.46515748 -0.089541309
1.5379688 0.3444902 -0.11126055
1.4982224 0.39350721 -0.12408842
1.4006572 0.4229984 -0.13112201
1.3472656 0.46112269 -0.14143069
1.4757951 0.33013117 -0.16273625
1.4449522 0.37884197 -0.17495137
1.3781525 0.41580826 -0.18221028
1.3565534 0.46393135 -0.19580494
1.4267435 0.31792974 -0.21178555
1.3691546 0.35815197 -0.21855703
1.3557862 0.40849212 -0.23281595
1.3386064 0.45755872 -0.24671738
1.5211191 0.3377341 -0.28493619
1.4146959 0.36935276 -0.28166521
1.4069932 0.42298323 -0.29741672
1.3791445 0.47093153 -0.31029716
1.5872017 0.35080802 -0.36048546
1.4697182 0.38300586 -0.35173258
1.3879553 0.41710141 -0.3502681
1.3991108 0.47829476 -0.37329385
2.7334299 0.60144931 -0.73216802
2.6245334 0.68184549 -0.73689359
1.5936704 0.47846702 -0.4698143
1.8267211 0.62454718 -0.56672341
6.0304599 1.3194567 1.9071224
6.1855917 1.6037059 1.8979311
6.356854 1.9083267 1.9010311
6.4889402 2.2150517 1.8926108
7.0069585 1.5377275 1.9153467
7.2540045 1.8786811 1.9183854
7.49437 2.243679 1.9234008
2.067946 0.70317072 0.51447821
8.6896381 1.9071624 2.0204105
9.0266037 2.3391032 2.0198305
2.0388765 0.60954982 0.43972832
1.8100899 0.61404639 0.37580013
10.722103 2.3557889 2.0683341
2.0729828 0.53660202 0.38134792
2.0023611 0.59752911 0.35166901
1.3638344 0.46207693 0.22848359
2.2059944 0.48448452 0.33988321
1.4564254 0.37621656 0.21129893
1.4121442 0.42059606 0.19272761
1.3994823 0.47276637 0.17912456
2.1818523 0.47878325 0.2525706
1.4783469 0.38185167 0.15781321
1.4142978 0.42061949 0.13843846
1.4040195 0.47353482 0.12515308
2.170965 0.47603673 0.16953272
1.4376466 0.37085721 0.098900609
1.4431745 0.42882374 0.086149648
1.4161057 0.47708821 0.071045034
2.1249692 0.46525139 0.085886247
1.5013529 0.38650852 0.046391159
1.475161 0.43751577 0.03163958
1.4045526 0.47254092 0.016165793
2.1677105 0.47429222 0.0063127954
1.562178 0.40155691 -0.01100741
1.4323153 0.42418277 -0.024040315
1.3749719 0.462028 -0.037197951
1.6326109 0.35631749 -0.056602079
1.5570285 0.39962491 -0.069594428
1.433635 0.42362118 -0.079025313
1.3634061 0.45777082 -0.089728117
1.5449271 0.33610719 -0.11161264
1.5208871 0.38950023 -0.12576529
1.4175547 0.41862756 -0.13246089
1.3434654 0.45063213 -0.14073886
1.482651 0.32212511 -0.16327122
1.4530232 0.37144473 -0.17564933
1.3816293 0.40762496 -0.18233584
1.3574957 0.45496926 -0.1955343
1.4267328 0.30875075 -0.21149875
1.3684534 0.34901154 -0.21809916
1.3601601 0.40072322 -0.23314042
1.3460592 0.45090112 -0.24757642
1.5337403 0.33067483 -0.28691489
1.4426287 0.36720532 -0.28677264
1.4123831 0.41517136 -0.29801196
1.3875731 0.46432263 -0.31154668
1.5750061 0.3379899 -0.35723785
1.4852598 0.37733901 -0.35489121
1.4035447 0.41241366 -0.35355699
1.4139709 0.47370496 -0.37647602
2.6755722 0.57152963 -0.71571761
2.6333449 0.66691333 -0.73820478
1.6205848 0.47572726 -0.47687918
1.8259699 0.61180276 -0.56531507
6.0365729 1.2820326 1.9065319
6.1915979 1.5647821 1.8967922
6.3915043 1.8760548 1.907915
6.5170355 2.1800876 1.896868
7.0219316 1.4959124 1.9168946
7.2494278 1.8301049 1.9141693
7.4968119 2.1943786 1.9205357
2.0463648 0.68185329 0.50805867
8.7040377 1.8544176 2.021075
9.0502615 2.2860665 2.0219476
2.0397582 0.5962038 0.43912125
1.9991167 0.6645211 0.41419038
10.753655 2.2936447 2.0716667
2.1020103 0.53037554 0.38608187
1.9908429 0.58081269 0.34901363
1.8643724 0.61893624 0.31169674
2.1905501 0.46702203 0.3370558
1.5969907 0.40209022 0.23132992
1.4251705 0.41497263 0.19415426
1.4032992 0.46448237 0.17924495
2.1964111 0.46787089 0.25391883
1.4536532 0.36597374 0.15493453
1.4235443 0.41387931 0.13909234
1.3917605 0.4599086 0.12380645
2.1865234 0.46540558 0.17052147
1.439895 0.36202899 0.098900609
1.4409848 0.41856807 0.085864007
1.4256462 0.47058183 0.071377464
2.1688344 0.46092829 0.087543219
1.4959401 0.37534308 0.046151876
1.4951022 0.4334673 0.032009631
1.3931805 0.45921835 0.016002171
2.1412344 0.45475018 0.006227449
1.5849825 0.39706707 -0.011150718
1.4454559 0.41844466 -0.024217321
1.390125 0.45764643 -0.037531219
1.6455215 0.34857151 -0.056974463
1.5691433 0.39248788 -0.070026956
1.4294916 0.4128769 -0.078655787
1.3605007 0.44752529 -0.089354508
1.5372003 0.32456067 -0.11090846
1.5155113 0.37822995 -0.12512648
1.4325368 0.41351268 -0.13362128
1.3490412 0.44331229 -0.14103535
1.4738982 0.3107653 -0.1620943
1.4552751 0.36252216 -0.17564933
1.3812448 0.39831513 -0.18195914
1.3564963 0.4453949 -0.19499303
1.431506 0.30060083 -0.21192893
1.360019 0.33798641 -0.21642031
1.3635416 0.39264295 -0.23330267
1.3525445 0.44386202 -0.24826364
1.5501832 0.32427901 -0.28961319
1.4496201 0.35952848 -0.28771845
1.4130199 0.40595606 -0.29761514
1.3903961 0.45579988 -0.31154668
2.0205359 0.42064691 -0.45769745
1.502678 0.37196392 -0.35850105
1.4172598 0.40701351 -0.35637605
1.4039537 0.46078712 -0.37304905
2.1987362 0.45558399 -0.58740473
2.6401982 0.65143639 -0.7389915
1.6021971 0.45967039 -0.47062948
1.8570391 0.60956466 -0.57376522
6.0461974 1.2453544 1.9071224
6.1954975 1.5253867 1.8950839
6.390882 1.8333557 1.9043355
6.5202141 2.1367567 1.8939413
7.0328708 1.4531896 1.9174105
7.2511129 1.7832752 1.911689
7.5045333 2.1467352 1.919103
2.0283024 0.66203564 0.50255626
8.7238474 1.8027518 2.0230682
9.086895 2.2360971 2.0270286
2.0471447 0.58475274 0.43993068
2.0227497 0.65862197 0.41824165
10.727109 2.2192566 2.0638905
2.0813236 0.51159286 0.38169855
2.0029042 0.57101947 0.35050726
1.9395167 0.63069713 0.32360673
2.2272677 0.46058115 0.34226421
2.0418432 0.50079274 0.29531774
1.4171993 0.40323523 0.19272761
1.4042342 0.45525083 0.17900419
2.2079988 0.45619467 0.25492999
1.5119036 0.37078911 0.16089749
1.4337189 0.4073135 0.13983965
1.3983483 0.4525876 0.1241431
2.1844552 0.45097256 0.17014116
1.45275 0.35579807 0.099631734
1.4396843 0.40862811 0.085635498
1.4484659 0.46827802 0.072374754
2.1872802 0.45083937 0.088174447
1.4991859 0.36639437 0.046181783
1.5102389 0.42782789 0.032276895
1.4254709 0.46018448 0.016340321
2.2184215 0.45693529 0.0064436598
1.6048756 0.39160118 -0.011273553
1.4624281 0.41364971 -0.024458688
1.4081298 0.45401642 -0.037941396
1.6329446 0.33545157 -0.056466673
1.5831701 0.38569012 -0.070545994
1.4627523 0.41277656 -0.080345035
1.3670208 0.44039315 -0.089603573
1.5411173 0.31552264 -0.11104929
1.5207094 0.36963013 -0.12536605
1.4475092 0.40822959 -0.13478164
1.3517359 0.43502638 -0.14103535
1.4640878 0.29932594 -0.16081038
1.4603677 0.35428843 -0.1759983
1.3979864 0.393868 -0.18384276
1.356374 0.43615329 -0.19458708
1.4507794 0.29536548 -0.21450993
1.3860811 0.33544675 -0.2202359
1.3668749 0.38453621 -0.2334649
1.3552426 0.43555462 -0.24826364
2.0592415 0.41759616 -0.38423213
1.4661163 0.35408488 -0.29055589
1.4079349 0.39515945 -0.29602787
1.3931667 0.44725999 -0.31154668
2.1895955 0.44184291 -0.49536979
1.5731229 0.37917283 -0.37474528
1.4131794 0.39647177 -0.35473162
1.4113699 0.45364743 -0.37427294
2.2005417 0.44189376 -0.58715171
2.6357009 0.63319546 -0.73663133
1.7161875 0.48099697 -0.50323659
1.852523 0.59551579 -0.57123017
6.0443549 1.2063621 1.9041706
6.2261815 1.4924827 1.9016324
6.3992338 1.7933291 1.9035093
6.5405445 2.0990655 1.8960699
7.0520759 1.4120959 1.920248
7.2656875 1.739652 1.9126812
7.5128875 2.0993409 1.9179093
2.023982 0.64691067 0.50049281
8.7404823 1.7503383 2.0243971
9.0719309 2.1734674 2.0206773
2.0705032 0.57770777 0.44418025
2.0258179 0.64590007 0.41804871
10.737634 2.1528149 2.0633349
2.1284673 0.50935239 0.38976383
2.0234702 0.56348097 0.35349455
1.8991189 0.60470092 0.31624135
2.222295 0.44535175 0.34107369
2.1286759 0.50826335 0.30741978
1.4311109 0.39771783 0.19428395
1.4126782 0.44842815 0.17972647
2.2088077 0.4422479 0.25470531
1.9011537 0.45390281 0.20202146
1.4265974 0.39584666 0.13890553
1.3982494 0.44309595 0.12389062
2.2184687 0.44381976 0.17257501
1.4393764 0.34317496 0.098568283
1.4325436 0.39711964 0.08506421
1.4541689 0.4602859 0.072517224
2.1998041 0.43936709 0.088568963
1.494599 0.35556927 0.045972411
1.5022361 0.41562063 0.032050747
1.4387558 0.45474419 0.016460311
2.1947057 0.43803018 0.006366848
2.0859201 0.49543849 -0.014631052
1.4890331 0.41132435 -0.024860969
1.3880099 0.43814561 -0.037326131
1.7310317 0.34454542 -0.059784256
1.5971723 0.37873489 -0.071065038
1.5076172 0.4154669 -0.082667761
1.3877823 0.4377009 -0.090786666
1.572378 0.31188291 -0.11316184
1.5316792 0.36235765 -0.1260847
1.4663111 0.40383601 -0.13629904
1.3600745 0.42851833 -0.14162835
1.6287744 0.32259649 -0.1786782
1.462514 0.34532109 -0.1759983
1.416638 0.38975662 -0.18597755
1.3618599 0.42871508 -0.19499303
1.4700418 0.2899048 -0.21709093
1.3765697 0.32421681 -0.21840441
1.3682573 0.37588063 -0.23330267
1.359769 0.42782211 -0.24860726
2.2268221 0.43737203 -0.4149923
1.4873794 0.34957558 -0.29433921
1.4264026 0.39091706 -0.29940081
1.3902863 0.4369438 -0.31029716
2.214303 0.43270594 -0.50034946
1.5830075 0.37129286 -0.37655017
1.430585 0.39190224 -0.35849032
1.4076527 0.44294173 -0.37255949
2.2013123 0.42801386 -0.58664548
2.6423554 0.61767012 -0.73741806
1.7321018 0.47401392 -0.50704074
1.8598032 0.58528984 -0.57235682
6.0497675 1.1688894 1.9035803
6.2342887 1.4540337 1.9013478
6.402699 1.7520007 1.9013065
6.5505419 2.0580273 1.8952715
7.0606074 1.3687986 1.920248
7.297925 1.700093 1.9183854
7.5143852 2.0501361 1.9150442
2.0585687 0.64407086 0.50805867
8.7433987 1.6951898 2.0226252
9.0565424 2.1111062 2.0143263
2.072119 0.56447774 0.4437755
2.0269327 0.63258076 0.41746995
10.766077 2.089886 2.0662975
2.1631951 0.50365001 0.3955498
2.0611467 0.56036818 0.35946912
1.9367384 0.60361618 0.32188293
2.2696407 0.4403719 0.34791899
2.1414006 0.49743313 0.3088108
1.4363952 0.38970813 0.19467303
1.4078189 0.43739533 0.17876343
2.2368431 0.43360317 0.2576265
2.1461298 0.49849221 0.22772394
1.4434143 0.39099047 0.14030673
1.3990383 0.43391773 0.12372228
2.1976564 0.42564881 0.17074963
1.4599228 0.33862016 0.099831134
1.4368807 0.38884383 0.085178465
1.4569658 0.45135462 0.072517224
2.1995153 0.42529199 0.088450611
1.8862783 0.43653941 0.057936605
1.5134449 0.40874135 0.032235775
1.4443847 0.44679409 0.016493035
2.211098 0.42721128 0.0064066765
2.1532252 0.49748728 -0.015081448
1.5098714 0.40712598 -0.025166703
1.4279224 0.44112837 -0.038325939
2.2080998 0.42543283 -0.076169066
1.6033599 0.36982587 -0.071238048
1.5072451 0.40543035 -0.082509391
1.4066541 0.43418151 -0.091845222
2.1698759 0.41657591 -0.15597603
1.5319308 0.35250553 -0.12592499
1.4677995 0.39457273 -0.13620979
1.3702856 0.42251065 -0.14241903
2.1121283 0.4048779 -0.23142572
1.4665414 0.33678538 -0.17623095
1.4199611 0.38131425 -0.18610312
1.3606772 0.41918394 -0.19445175
2.2242155 0.42447284 -0.32807401
1.4026166 0.32128072 -0.22222
1.3686317 0.36696699 -0.23297819
1.3746082 0.42323926 -0.25084078
2.2178671 0.42149633 -0.41283366
1.4904536 0.34066138 -0.29452834
1.4401363 0.38519648 -0.30178174
1.3966806 0.429555 -0.31113017
2.2236314 0.42038056 -0.50186503
1.5947542 0.36373916 -0.37880632
1.4667679 0.39215511 -0.3669475
1.4223905 0.43800569 -0.37574166
2.2124541 0.41610816 -0.58892328
2.6423318 0.60058981 -0.73636913
2.6173432 0.69903874 -0.76490873
1.7313104 0.53319955 -0.53179616
6.0530686 1.1310447 1.9023995
6.2524414 1.4178735 1.9041948
6.406827 1.7109452 1.899379
6.5409336 2.0109966 1.8888857
7.0546293 1.3227789 1.9163786
7.2949915 1.6522858 1.9149133
7.5287008 2.0044899 1.9155219
2.0736508 0.63484693 0.5108099
8.7430925 1.6395323 2.0201893
9.0883884 2.0598171 2.0185604
2.0755436 0.55175281 0.4437755
2.0382836 0.62242442 0.41901329
10.770005 2.022155 2.0646312
2.1374383 0.48384655 0.39028984
2.0740778 0.55023932 0.36112872
1.9649677 0.59921139 0.32595739
2.2888224 0.42953804 0.35044876
2.1550381 0.48668402 0.31034097
1.4368423 0.38037974 0.19441365
1.4161751 0.4304812 0.17948571
2.2423913 0.42041928 0.25796354
2.1685534 0.4896965 0.22978014
1.448674 0.38288972 0.14058696
1.4045351 0.42619324 0.12397477
2.2315886 0.41803107 0.17318349
2.1491587 0.48460728 0.14675575
1.444066 0.38129437 0.085464105
1.4549283 0.44095773 0.072279774
2.2148521 0.41417572 0.088963486
2.1502693 0.48375359 0.065952614
1.522692 0.4012306 0.032379687
1.4537985 0.43995053 0.016569391
2.2077796 0.41253415 0.0063896072
2.1650183 0.48623812 -0.015142865
1.5297463 0.4024328 -0.025456345
1.4373007 0.43438292 -0.03850539
2.2096863 0.41169316 -0.076135218
1.6065739 0.36019945 -0.071281299
1.5415791 0.40453896 -0.084251434
1.4121581 0.42640778 -0.092032023
2.1812181 0.40489247 -0.1566098
1.5214189 0.34027085 -0.12488694
1.4788638 0.387833 -0.13701312
1.3976228 0.42156631 -0.1449887
2.2299309 0.41329074 -0.24405089
1.462764 0.32648236 -0.175533
1.422274 0.37259436 -0.18610312
1.3717617 0.41340014 -0.19566962
2.2248316 0.41045821 -0.32778722
1.3929855 0.31009147 -0.22038853
1.3718121 0.358812 -0.23314042
1.3743494 0.41394451 -0.25032535
2.2407293 0.41161209 -0.41661125
1.5356522 0.34109095 -0.30304074
1.4491113 0.37808481 -0.30317062
1.4002267 0.42125884 -0.31133842
2.2194462 0.40550047 -0.50034946
1.5693731 0.34783363 -0.37226352
1.4888982 0.38829896 -0.37188086
1.4185526 0.42731223 -0.37402821
2.2197249 0.40338987 -0.59018862
2.6440828 0.58394927 -0.73584467
2.6271708 0.6844216 -0.7665391
1.593066 0.47994176 -0.4884187
6.0805802 1.0976166 1.9088935
6.2132792 1.3689631 1.8896742
6.419065 1.6720861 1.8999298
6.5762277 1.9777647 1.8955377
7.0588102 1.2787788 1.9153467
7.323915 1.6116575 1.9198736
7.5474377 1.9599656 1.9171932
2.0803044 0.62294894 0.51149774
8.7654619 1.5881149 2.0230682
9.1075373 2.0054843 2.0200424
9.4796629 2.4578528 2.0236001
2.0420644 0.60990602 0.41901329
10.773507 1.9544547 2.0629647
11.371059 2.5007918 2.0734806
2.0888715 0.54046685 0.36312023
1.9780719 0.58996612 0.32752448
2.3137939 0.41954383 0.35387138
2.1831329 0.4789694 0.31395769
1.4295485 0.36907756 0.19311669
1.4235477 0.42319804 0.18008761
2.2635062 0.41001746 0.26009825
2.169574 0.47595498 0.2295745
1.4538883 0.37473908 0.14086719
1.408079 0.41785064 0.12405894
2.2645276 0.40983513 0.17554127
2.156965 0.47247866 0.14708808
1.4541131 0.37441814 0.085921139
1.4633527 0.43372527 0.072564714
2.2468507 0.40590703 0.090147033
2.1854219 0.47759295 0.066939659
1.5193152 0.39038712 0.032256335
1.4785239 0.43754825 0.016820278
2.2092853 0.39880207 0.0063867625
2.1562371 0.47038704 -0.015060975
1.5651163 0.40148598 -0.026003446
1.4361041 0.42442232 -0.038402844
2.2161052 0.39883509 -0.076270625
1.6107062 0.35076007 -0.071367808
1.5575765 0.39853793 -0.084990479
1.4185768 0.41886547 -0.092281103
2.1532235 0.38604406 -0.15442683
1.5186075 0.32987121 -0.12448768
1.49762 0.38294619 -0.13853052
1.4278623 0.42114666 -0.14785486
2.2519989 0.4031041 -0.24619074
1.4686224 0.31834251 -0.1759983
1.4341457 0.36631563 -0.18735889
1.3809252 0.40693584 -0.19661684
2.2555637 0.40183294 -0.33194551
1.4344666 0.31010008 -0.22664608
1.3730319 0.35014415 -0.23297819
1.3693036 0.4032774 -0.2489509
2.2277155 0.39510691 -0.41373309
1.5357963 0.33124787 -0.3026624
1.4447548 0.36749479 -0.30178174
1.4065384 0.41376334 -0.31217143
2.2228539 0.39204413 -0.50056601
1.6019549 0.34475657 -0.37948316
1.5600219 0.39664072 -0.38903016
1.4211478 0.41860011 -0.37402821
2.2231112 0.38992944 -0.59044176
2.2003706 0.47181398 -0.611543
2.6397159 0.67042083 -0.76898462
1.5950605 0.46988672 -0.48813701
6.0872006 1.0602862 1.9088935
6.2393732 1.3346231 1.8950839
6.4217501 1.630775 1.8977269
6.5956373 1.9395521 1.8976663
7.0665236 1.2354426 1.9153467
7.3270345 1.5652717 1.9181374
7.5687351 1.9160014 1.9195805
2.08689 0.61099321 0.51218551
8.7913713 1.5371565 2.0268331
9.1368742 1.9532412 2.0238528
9.5268469 2.4077992 2.0304804
2.0448263 0.59708959 0.41882035
10.787232 1.8886518 2.0633349
11.391005 2.4320011 2.0743573
2.0940607 0.52812189 0.36345214
2.0072548 0.58528239 0.33175567
2.3406763 0.40960011 0.35759166
2.178282 0.46391469 0.31284484
1.4808266 0.37263975 0.19973117
1.430884 0.41584057 0.1806895
2.2679369 0.39646339 0.26032299
2.2016401 0.46884915 0.2326588
1.4522978 0.36484084 0.14049354
1.4249713 0.41336715 0.12532142
2.2758398 0.39747646 0.1762258
2.240829 0.47645876 0.1526047
1.4602563 0.36646086 0.086149648
1.4621487 0.42362624 0.072374754
2.2424085 0.39091176 0.08987087
2.1892889 0.46438184 0.066969573
1.5333201 0.38397181 0.032503039
1.4898258 0.43096876 0.016918451
2.2028241 0.38369426 0.0063611581
2.176692 0.46087623 -0.015183811
1.5714304 0.39284506 -0.026067812
1.4559685 0.42059645 -0.038864296
2.2116179 0.38403293 -0.076033659
1.6206478 0.34252307 -0.071713835
1.5619304 0.38945651 -0.085096061
1.4412575 0.41596523 -0.093588725
2.2086298 0.38200524 -0.15822941
1.5371844 0.32404238 -0.12584515
1.4951092 0.37254569 -0.13808423
1.4189456 0.40906969 -0.14666887
2.2475715 0.38809425 -0.24544179
1.4734639 0.30993852 -0.17634726
1.4382918 0.35798821 -0.18761003
1.3872044 0.3995519 -0.19715811
2.2843218 0.39251059 -0.33581701
1.4247355 0.29885784 -0.22481461
1.3990952 0.34766182 -0.23703422
1.3689121 0.39405036 -0.24843547
2.2330067 0.381928 -0.41427276
1.5406833 0.32242158 -0.3032299
1.4726686 0.36498913 -0.30713883
1.4052907 0.40404418 -0.31133842
2.2377295 0.38052523 -0.5033806
2.1857669 0.45638418 -0.51710784
1.5416692 0.38191903 -0.38386187
1.4283483 0.41121343 -0.3752521
2.2474017 0.37999094 -0.59626263
2.2060585 0.45889348 -0.61232972
2.6447139 0.65444237 -0.76925635
1.6016018 0.46115273 -0.48926371
6.111495 1.0259211 1.9145018
6.2530766 1.2974825 1.8967922
6.4260359 1.5899558 1.8960748
6.5981493 1.8963828 1.8950055
7.0739713 1.19206 1.9153467
7.3099399 1.5147804 1.9111931
7.5728068 1.8676643 1.9176706
8.1630716 2.3356743 1.9999079
8.8006372 1.4831847 2.0268331
9.1544285 1.8983322 2.0251229
9.5576077 2.3532786 2.0339205
2.0607176 0.58803171 0.42132825
10.787959 1.8206283 2.0612984
11.412461 2.3634589 2.0755847
2.1144996 0.51949811 0.36643943
2.019357 0.57539088 0.33316606
2.369473 0.39967108 0.36160955
2.2053328 0.45554852 0.31632245
2.0580213 0.50447983 0.27715942
1.4343636 0.40732419 0.18080989
2.2703271 0.38254011 0.26032299
2.1869411 0.45170963 0.23080823
1.5096334 0.36941195 0.1458181
1.4361091 0.40706155 0.12607889
2.2821689 0.38416675 0.17653002
2.2358928 0.46108815 0.15207298
1.475085 0.36057585 0.086892314
1.4618372 0.41383046 0.072232284
2.2536335 0.37863529 0.090225935
2.191118 0.45073849 0.066939659
1.547303 0.37739924 0.032749739
1.5213095 0.42997822 0.017245693
2.2219024 0.37298509 0.0064095212
2.1736016 0.44630483 -0.015142865
1.5864407 0.38627058 -0.026276998
1.4700669 0.41491339 -0.03917193
2.2070327 0.3693009 -0.075796686
1.6344637 0.33497953 -0.072232872
1.5807875 0.38387138 -0.085993469
1.4822068 0.41794875 -0.096079446
2.174526 0.36237916 -0.15562393
1.5303541 0.31280768 -0.12512648
1.497367 0.36336485 -0.13808423
1.4319651 0.40332311 -0.14775604
2.2969878 0.38212791 -0.25057745
1.464633 0.29870844 -0.17506771
1.4288913 0.34635183 -0.18610312
1.3886762 0.39076427 -0.1970228
2.2935221 0.37961817 -0.33682075
1.5253255 0.31019929 -0.24038221
1.4059974 0.340231 -0.23784542
1.3722525 0.38591015 -0.24860726
2.252779 0.37109727 -0.41751066
2.1816273 0.44259825 -0.42883483
1.4796443 0.35709581 -0.30813086
1.4133931 0.39700079 -0.31258795
2.2419493 0.36710316 -0.50381362
2.201894 0.44566965 -0.52026641
1.5742209 0.37974638 -0.39137939
1.437378 0.40427914 -0.37696558
2.2535105 0.36681572 -0.59727496
2.2201843 0.44763747 -0.61547661
2.6468086 0.63775152 -0.76871294
1.7004621 0.47833863 -0.51855755
6.115788 0.98809755 1.9139113
6.279716 1.2628698 1.9024866
6.4431481 1.5522979 1.8982778
6.6477113 1.8665454 1.9059147
7.0811524 1.1486325 1.9153467
7.326695 1.4714249 1.9131771
7.5822358 1.8207098 1.9171932
8.1678743 2.2829225 1.9976152
8.8057222 1.4285325 2.0259473
9.1831522 1.8455924 2.0289338
9.5604391 2.2918503 2.0314922
2.0784647 0.57932812 0.42422202
10.784378 1.7520366 2.0585213
11.399721 2.2879646 2.0706751
2.1013432 0.5026142 0.36361811
2.0456848 0.569345 0.33692712
12.723237 2.0658853 1.9397451
2.2653763 0.4534764 0.32452959
2.1623478 0.51600891 0.29077744
1.4454454 0.40090334 0.18189329
2.302057 0.37337503 0.26369357
2.2052772 0.44140592 0.2324532
1.8673214 0.44481349 0.18010077
1.4462624 0.40036887 0.12675221
2.2864516 0.37047538 0.17668214
2.1956284 0.43875724 0.14914851
1.4656148 0.34874478 0.086206779
1.4566469 0.40272364 0.071852364
2.2687378 0.36687377 0.090738811
2.2105072 0.44060719 0.067448139
1.9386892 0.46027675 0.040973153
1.5325942 0.42303002 0.017343866
2.2290852 0.36014223 0.0064237458
2.1753185 0.43276435 -0.015136043
1.5887809 0.37652907 -0.026276998
1.5082432 0.41571376 -0.040120464
2.2122173 0.35622853 -0.075898245
1.8863711 0.37456161 -0.083262444
1.5860287 0.3748537 -0.086151838
1.4789698 0.40725639 -0.095705837
2.2771719 0.36513874 -0.16280657
2.1150258 0.41881275 -0.17271768
1.5063537 0.35577291 -0.13870904
1.4516834 0.39927933 -0.14953505
2.2718 0.36362672 -0.24758166
1.4742334 0.29125601 -0.1759983
1.4329207 0.33803335 -0.18635428
1.3977355 0.38407382 -0.19797002
2.3094912 0.36771682 -0.33882821
2.1768663 0.42880818 -0.34264004
1.385007 0.32616892 -0.23395163
1.3783945 0.37852639 -0.2492945
2.260843 0.35819107 -0.41858998
2.1833382 0.42901435 -0.42864561
1.5085239 0.35428467 -0.31368634
1.397881 0.38340545 -0.30863115
2.2499461 0.35425097 -0.50511265
2.1950269 0.43027669 -0.51801026
1.566112 0.36763647 -0.38879523
1.4837745 0.40752095 -0.38847038
2.6485579 0.41445416 -0.70129192
2.1982641 0.42919832 -0.60865837
2.6441131 0.61996114 -0.76681077
1.7237204 0.47348714 -0.52475429
6.0716972 0.94278342 1.8982671
6.2882872 1.2244977 1.9027712
6.4591031 1.5142703 1.9002053
6.6534619 1.8241915 1.9043183
7.0880671 1.1051618 1.9153467
7.3422422 1.4277359 1.9149133
7.5828624 1.7717214 1.9145666
8.2145939 2.2417312 2.0056396
8.6977358 1.3562945 1.9991502
9.1962223 1.7895843 2.0293572
9.5685997 2.2318108 2.0302782
2.0734594 0.56424516 0.42248577
10.825024 1.6905323 2.0642607
11.416445 2.2185376 2.0712013
2.1437666 0.49887505 0.37042245
2.0548584 0.55833602 0.33786738
11.250577 1.7559849 1.7135531
2.2564497 0.43730679 0.32286033
2.1722343 0.50430089 0.29168531
1.4306301 0.38735664 0.17972647
2.3219771 0.36199799 0.26571593
2.2196624 0.43013713 0.23368689
2.160023 0.50055224 0.20803133
1.4458059 0.39070737 0.12649971
2.3005044 0.35828024 0.17759483
2.2149327 0.42849863 0.15027842
1.5056604 0.34852609 0.088434786
1.4581262 0.39351794 0.071804874
2.2640345 0.35187197 0.090462647
2.2180762 0.42798233 0.067597687
2.1840398 0.50439095 0.046092227
1.544816 0.41621962 0.017452946
2.2431109 0.34829929 0.0064578848
2.1818607 0.42016506 -0.015163339
2.0947838 0.4828921 -0.034596171
1.5416567 0.41476238 -0.040940821
2.2351024 0.34585735 -0.076609157
2.1927776 0.42143393 -0.096670941
1.5941383 0.36645728 -0.086468577
1.5151757 0.40724102 -0.097885214
2.2842991 0.35191885 -0.16315867
2.186085 0.41896087 -0.17830724
1.4997718 0.34451652 -0.13790572
1.454106 0.39036444 -0.14953505
2.3575187 0.36252514 -0.25667605
2.1910636 0.41892397 -0.26126382
1.4465714 0.33189702 -0.18786117
1.4000658 0.37549025 -0.19797002
2.5171454 0.38495818 -0.36893988
2.2173178 0.42266017 -0.34859237
1.3956389 0.31964719 -0.23541181
1.3768848 0.36904144 -0.24860726
2.5323796 0.38529804 -0.46841782
2.1801414 0.41450909 -0.42751062
1.5221356 0.3476406 -0.31606725
1.4039865 0.37583265 -0.30946416
3.0455654 0.46038777 -0.68308204
2.2033687 0.41788936 -0.519364
1.5569668 0.35542417 -0.38597617
1.4815644 0.39715374 -0.38724643
2.6156528 0.39287817 -0.69192791
2.1970634 0.41498554 -0.60760945
2.6347311 0.60073042 -0.76300663
1.8016626 0.48302788 -0.54756975
6.104773 0.90959376 1.9068272
6.2966247 1.1860679 1.903056
6.4298434 1.4658484 1.8889157
6.6561484 1.7810897 1.9019235
7.0994921 1.0623643 1.9166366
7.3461046 1.3817625 1.9136733
7.5945377 1.7253757 1.9148055
8.2159672 2.1880291 2.0026591
7.7067456 1.153371 1.7697141
9.2099113 1.7336661 2.0299923
9.5849781 2.1737068 2.0308852
2.0844693 0.5535267 0.42402911
7.7281775 1.1583711 1.4723295
11.403717 2.1435351 2.0664673
2.1640999 0.48962876 0.37340972
2.0725653 0.54951382 0.34021801
7.7248583 1.1571844 1.1754543
2.2785571 0.42710212 0.32564241
2.1801238 0.49205437 0.29233381
1.4550552 0.38440314 0.18249519
2.3310339 0.34877309 0.26650244
2.2349699 0.41889158 0.23502342
2.1727664 0.48947728 0.20896545
1.4510666 0.38259086 0.12675221
2.2849088 0.34150484 0.1762258
2.2616546 0.4231576 0.15326937
1.9616601 0.44141594 0.11505663
1.4605134 0.38456365 0.071804874
2.2641745 0.33767867 0.090383746
2.2216432 0.4145478 0.067627601
2.1812406 0.48966646 0.045968875
1.559913 0.41003767 0.017594753
2.2580636 0.33644503 0.0064948676
2.2020929 0.41006467 -0.015286173
2.1581993 0.48358402 -0.035593826
1.5606103 0.4096095 -0.041376632
2.2272966 0.33066884 -0.076270625
2.1953223 0.40797138 -0.096670941
1.5963567 0.35666895 -0.086468577
1.5330927 0.40198666 -0.098881498
2.3199666 0.34285435 -0.16555288
2.2140977 0.41026133 -0.18038337
1.5057458 0.33617571 -0.13826275
1.4661002 0.38395593 -0.15052338
2.4088795 0.35530698 -0.26202571
2.2277763 0.41179055 -0.26533517
1.4524539 0.32387847 -0.18836349
1.3965921 0.36538786 -0.19715811
2.4988968 0.36649022 -0.36592871
2.2587464 0.41621068 -0.35469732
1.5218242 0.33873382 -0.25634089
1.3915136 0.36382562 -0.25084078
2.531776 0.36932641 -0.46787816
2.2183776 0.4076913 -0.43450972
1.541463 0.34211695 -0.31963864
1.4166759 0.36992913 -0.31175494
2.553643 0.37001318 -0.57223004
2.2154739 0.40611845 -0.52162009
1.5591183 0.34586412 -0.38597617
1.5327513 0.40081087 -0.39997515
2.6572747 0.38247237 -0.70230424
2.2090614 0.40322962 -0.61023182
2.6364884 0.58413637 -0.76246321
2.6251991 0.68658131 -0.7965675
6.0828094 0.86820334 1.8982671
6.299068 1.1465518 1.9016324
6.4603047 1.4311504 1.8952488
6.6753464 1.7424059 1.9043183
7.1125717 1.0197425 1.9184422
7.3687415 1.3392601 1.9173934
7.619206 1.6818838 1.9183869
8.2188749 2.1348836 2.0001371
7.7117472 1.1057847 1.7692711
9.2194138 1.6769475 2.0297804
9.5780516 2.1104281 2.0266356
2.0906761 0.54146427 0.42460787
7.7604308 1.1145624 1.4771434
11.42053 2.0742266 2.0671687
2.1776583 0.4786697 0.37523529
2.0969346 0.54222602 0.34366563
7.7269192 1.1090614 1.1747103
2.2918534 0.41505426 0.32717252
2.1869762 0.47951758 0.29285258
1.4573865 0.37546784 0.18249519
2.3616545 0.33855268 0.26976067
2.2560949 0.40853775 0.23697682
2.1854553 0.47826472 0.2098996
1.4678627 0.37740201 0.12801468
2.3155854 0.33157727 0.17843148
2.2642086 0.40927237 0.15326937
2.1984129 0.48053747 0.12876745
1.4599429 0.37484965 0.071662404
2.2760954 0.32519287 0.090778261
2.207422 0.39789391 0.067119129
2.2008102 0.47989443 0.046318367
1.5498074 0.39723101 0.017452946
2.2739451 0.32456169 0.0065346966
2.2075202 0.39707625 -0.015306646
2.1308386 0.46374097 -0.035094999
1.5844003 0.40547869 -0.041940626
2.2431364 0.318966 -0.076744571
2.2095845 0.39661154 -0.097189985
1.599491 0.34707892 -0.086521365
1.5452 0.39504433 -0.09950418
2.265729 0.32064566 -0.16153906
2.2322729 0.39947769 -0.18166098
1.4941528 0.32397547 -0.13701312
1.4751778 0.37667623 -0.15121521
2.5074944 0.35414603 -0.27251101
2.2273278 0.39758983 -0.26498619
1.4544138 0.31496027 -0.18836349
1.3988078 0.35681164 -0.19715811
2.541281 0.35679191 -0.37180766
2.2573657 0.40165097 -0.35408682
1.5470215 0.33439308 -0.26023468
1.3937198 0.35528061 -0.25084078
2.5339944 0.35378477 -0.46787816
2.2179368 0.39355722 -0.43394223
1.5473658 0.33347824 -0.32043231
1.4757895 0.37570775 -0.3242501
2.5781071 0.35742089 -0.57720977
2.2217615 0.39319602 -0.52252263
2.4791234 0.53401297 -0.61291045
1.5201495 0.387566 -0.39605862
2.5713983 0.35402107 -0.67902064
2.2209976 0.39134204 -0.61285424
2.246748 0.48334292 -0.64888167
2.63959 0.6730684 -0.79966593
6.0899153 0.83112198 1.8988575
6.3229795 1.1108657 1.9067574
6.5084376 1.3999746 1.9068136
6.6933851 1.7033157 1.9064468
7.1100802 0.97490013 1.9161208
7.3825455 1.2950255 1.9188815
7.6179876 1.6326597 1.9155219
8.2318192 2.0844133 2.0001371
7.6874709 1.0542059 1.7621844
9.2343426 1.6211916 2.030839
9.5994396 2.0534623 2.0284567
2.1148889 0.53390974 0.42885199
7.6814494 1.0551559 1.4608501
11.414618 2.0008829 2.0638373
2.250957 0.48032174 0.38735035
2.1107566 0.53200448 0.34538946
7.6924324 1.0559806 1.1684601
2.3099649 0.40371168 0.32939819
2.2112136 0.47063071 0.29570588
1.4606258 0.36676019 0.18261558
2.3567963 0.3231107 0.26897418
2.2987332 0.40170738 0.24119204
2.185427 0.46422538 0.20961937
1.4643515 0.36693507 0.1275097
2.345237 0.32115063 0.18056108
2.2814217 0.39794356 0.15426634
2.2296422 0.47304812 0.13042417
1.4806265 0.37049145 0.072564714
2.3235891 0.3174426 0.092593037
2.2423193 0.389994 0.068106174
2.2095821 0.46762353 0.046441723
1.5580364 0.38916802 0.017518396
2.2986825 0.31371301 0.0066001285
2.2040036 0.38249776 -0.0152657
1.6709144 0.3529222 -0.027483841
1.5926782 0.39720076 -0.042094443
2.3133833 0.31448552 -0.079080425
2.2011478 0.38117114 -0.096714191
1.5888872 0.33458307 -0.085835099
1.5689009 0.39086375 -0.10087408
2.4347129 0.32933483 -0.17343971
2.2081606 0.3811948 -0.17950501
1.5048845 0.31664717 -0.13781646
1.4880835 0.37026063 -0.15230238
2.4820311 0.33502963 -0.26951519
2.2855175 0.39352202 -0.27161667
1.4592315 0.30664229 -0.18874021
1.4009708 0.34822199 -0.19715811
2.5473456 0.34171849 -0.37238121
2.2539434 0.38678953 -0.35317108
1.5220035 0.31922299 -0.25569195
1.4006538 0.34790963 -0.25169981
2.5546436 0.34070057 -0.47129595
2.2280529 0.38126579 -0.43545553
1.5685703 0.32798961 -0.32440048
1.4866109 0.36876476 -0.3261244
2.577348 0.34121078 -0.5765602
2.2279735 0.38021168 -0.52342504
2.2083335 0.46152341 -0.54525298
1.5347315 0.38127017 -0.39924079
2.5648894 0.337102 -0.67674291
2.2224059 0.37754527 -0.61259198
2.2119884 0.46168292 -0.63801265
2.6446013 0.65709084 -0.79994756
6.1024799 0.79472643 1.9012189
6.285254 1.0645239 1.8933755
6.5263162 1.3619771 1.9095671
6.675642 1.6552541 1.8984644
7.133172 0.93351185 1.920764
7.40277 1.2518024 1.9221058
7.6345177 1.5872695 1.9171932
8.240674 2.032932 1.99922
7.6908941 1.006637 1.76152
9.2229166 1.5609123 2.0261815
9.6214476 1.9965124 2.0304804
10.07229 2.4771376 2.0393136
7.6838818 1.0074924 1.4601095
11.432505 1.9317906 2.0648892
2.2809005 0.47209752 0.39199725
2.1283686 0.52257562 0.34774011
7.6909232 1.007733 1.1672697
2.3104455 0.38920143 0.32912001
2.2286258 0.46006098 0.29765132
2.0260019 0.49553001 0.25291714
2.3607051 0.30890146 0.26919889
2.3021357 0.38776028 0.24129485
2.2018864 0.45361963 0.21092714
1.4665754 0.35794306 0.1275097
2.3669372 0.30933878 0.18208224
2.2828364 0.38377213 0.15419988
2.214901 0.45573667 0.12939586
1.5119859 0.36849505 0.073989414
2.3690898 0.30886316 0.094328903
2.2397411 0.37540188 0.067956619
2.2153478 0.45465997 0.046503399
1.9762414 0.48076463 0.02218706
2.3055222 0.30024832 0.0066143526
2.227021 0.37243077 -0.01540901
1.6514987 0.33824933 -0.027129835
1.6096568 0.39095998 -0.042478982
2.2924736 0.29732838 -0.07830181
2.2103431 0.36880895 -0.09701696
1.6153708 0.32982183 -0.087154828
1.5770892 0.38264176 -0.10124768
2.4960468 0.32204822 -0.17766479
2.213408 0.36812922 -0.17974457
1.498016 0.30561554 -0.13701312
1.4845246 0.35971686 -0.15170938
2.4702344 0.31801653 -0.26801729
2.3084655 0.38290393 -0.27405947
1.464002 0.29827702 -0.18911694
1.422341 0.34428117 -0.19986448
2.5552845 0.32683522 -0.37324154
2.2621245 0.37391937 -0.35408682
1.9706705 0.40071803 -0.33064732
1.4353179 0.34718359 -0.25754133
2.5762026 0.32750022 -0.47489363
2.2187238 0.36567137 -0.43318558
2.1939716 0.44472885 -0.45316866
1.4878948 0.35940647 -0.32591614
2.5735815 0.3246569 -0.57526118
2.2437229 0.36874577 -0.52658367
2.2111237 0.44796464 -0.54525298
1.5351573 0.3713901 -0.39875126
2.576509 0.32255957 -0.67927372
2.2551556 0.36888668 -0.62098366
2.2110066 0.44733834 -0.63692576
2.6439204 0.63972324 -0.79853916
6.110086 0.75762004 1.9021044
6.2831526 1.0245498 1.8908131
6.5223007 1.3194288 1.9059876
6.698791 1.6174294 1.9021896
7.1330132 0.889009 1.9192163
7.389276 1.2029318 1.9166493
7.6631513 1.5442317 1.9219681
8.2728682 1.9871039 2.0040348
7.6930552 0.95894504 1.7606341
9.2033825 1.499577 2.0198305
9.6335163 1.9374387 2.0304804
10.084438 2.4146032 2.0387352
7.689919 0.96032608 1.4601095
11.44803 1.8622379 2.0655906
12.134256 2.433984 2.0827963
2.1382592 0.51111364 0.34883708
7.6969614 0.96052343 1.1672697
2.3215876 0.37644398 0.33037192
2.2508526 0.45026773 0.30024523
2.1603439 0.51436025 0.26928875
7.7098603 0.96076649 0.8784917
2.3093808 0.37442327 0.24180888
2.2134156 0.44185475 0.21176787
1.7789738 0.42264056 0.15444243
2.3737383 0.29542544 0.18246253
2.2782533 0.36864203 0.15373462
2.2480075 0.44818902 0.13116683
1.5161622 0.35967186 0.074084394
2.3778818 0.29518253 0.094605066
2.2489097 0.36276627 0.068165988
2.2171154 0.44086334 0.046482839
2.196141 0.52000833 0.024619564
2.3142679 0.28695762 0.006634267
2.2292643 0.35875902 -0.01540901
2.1860898 0.43378183 -0.035867378
1.6207812 0.38314578 -0.042709708
7.7377782 0.95533222 -0.26408663
2.243144 0.36014929 -0.098357819
2.0395832 0.40341604 -0.10990693
1.5687226 0.37043464 -0.10056274
7.7602596 0.95288301 -0.55193686
2.2697606 0.36320376 -0.18413636
2.2180386 0.43835124 -0.20261876
1.4867039 0.35060123 -0.15170938
2.5185225 0.30853575 -0.27304596
2.3097906 0.36857572 -0.27394313
1.4667779 0.28948054 -0.18924251
1.4138182 0.33304837 -0.19837599
2.5641189 0.31198689 -0.37424526
2.2848728 0.36329108 -0.35729191
2.2199707 0.43724373 -0.37201881
1.4335854 0.33746719 -0.25685409
2.5869529 0.31274933 -0.47651261
2.2383828 0.35481787 -0.43659052
2.2130089 0.43446842 -0.4565416
1.5081624 0.35452265 -0.32987297
2.6104212 0.31304437 -0.58305544
2.2546039 0.35634041 -0.52861416
2.2109692 0.43382752 -0.54454821
1.5449574 0.36374116 -0.40070951
2.5649903 0.30514434 -0.67573059
2.9046564 0.45684716 -0.79904443
2.2250428 0.43598408 -0.64018649
2.6309845 0.61952978 -0.79346913
6.1136708 0.72000325 1.9018092
6.2997384 0.98761106 1.8939451
6.5302739 1.2793839 1.9059876
6.715158 1.5778394 1.9040521
7.1536851 0.84704256 1.9233435
7.3792901 1.1548733 1.9121852
7.6667643 1.4960665 1.9205357
8.2763748 1.9343115 2.0019712
7.6968575 0.91149396 1.7601912
9.1264753 1.4296167 2.0009892
9.6384945 1.8769817 2.0290639
10.082818 2.3488963 2.0354555
7.7112808 0.91497624 1.4630719
11.129499 1.7403952 2.0061529
12.151867 2.3600478 2.0832944
2.1548226 0.50111586 0.35103101
7.715476 0.91479123 1.1692042
2.3297246 0.36310691 0.33120656
2.278883 0.4413501 0.3036173
2.1924734 0.50781506 0.27290016
7.7244916 0.91449308 0.87950295
2.3332572 0.36361581 0.24407071
2.2366133 0.43223232 0.21372955
2.1727915 0.50213772 0.18836085
2.399271 0.28366461 0.18428792
2.2854021 0.35542265 0.15406695
2.256597 0.43552223 0.1315096
1.4979013 0.34564567 0.073087104
2.3746865 0.28000155 0.094407812
2.2856648 0.3543196 0.069212861
2.239414 0.43103036 0.04689401
2.1992903 0.50652331 0.024619564
2.3249233 0.27380478 0.006659871
2.2531648 0.34843585 -0.015559142
2.2034392 0.42318889 -0.036108747
1.6250501 0.37364164 -0.042760979
7.7454791 0.90806884 -0.26415434
2.2176647 0.34211382 -0.09714672
2.2126789 0.42356214 -0.11909224
1.567075 0.35990852 -0.10031366
7.7570434 0.90420961 -0.55130309
2.3103704 0.35517693 -0.18725054
2.2206864 0.42473337 -0.20261876
1.4917369 0.34213975 -0.15200588
2.4354343 0.28320017 -0.26384458
2.3483334 0.35996422 -0.27824715
1.6059269 0.30671734 -0.20694868
1.4303218 0.32768595 -0.20040575
2.5679512 0.2964749 -0.37453207
2.5518146 0.38969627 -0.39865294
2.2662303 0.43192738 -0.37931964
1.4269865 0.32668594 -0.25530779
2.5829594 0.2961978 -0.47543329
2.4909744 0.37920403 -0.48539487
2.2214105 0.42197895 -0.45773208
1.5560763 0.35572454 -0.33986911
2.5948324 0.29503596 -0.57915831
3.2237878 0.4892644 -0.75513089
2.2164545 0.42079702 -0.54525298
1.5840199 0.36269444 -0.41025606
2.5802734 0.29091755 -0.67927372
2.6583622 0.40141067 -0.73059982
2.2276762 0.42232329 -0.64018649
2.6328657 0.60294628 -0.79290575
6.1141753 0.68205321 1.9006284
6.3511806 0.95578539 1.9076115
6.5540576 1.2423344 1.9106685
6.7237735 1.5363915 1.9037861
7.1433859 0.80140901 1.9192163
7.4121037 1.1134588 1.9188815
7.670074 1.4479151 1.919103
8.2766981 1.8809038 1.99922
7.7158728 0.86577207 1.7632917
7.7172642 1.1604023 1.6904253
9.6440563 1.816718 2.0278499
10.084599 2.2841671 2.0329475
7.7157731 0.86753368 1.4628868
7.6973071 1.1553409 1.3861777
12.17678 2.2874436 2.08512
2.1886833 0.49485448 0.35604575
7.7199612 0.86732239 1.1690555
7.6734591 1.1477902 1.0898796
2.2591324 0.42316008 0.30063429
2.2003903 0.49544305 0.27350202
7.727982 0.86685771 0.87927818
2.3295419 0.34840956 0.24345385
2.2695625 0.42417079 0.21662535
2.1962481 0.49338281 0.19012831
2.4197938 0.27104649 0.18573302
2.2766845 0.33977294 0.15333584
2.2592268 0.42166781 0.1315096
2.1754301 0.4879483 0.10599767
2.3753669 0.26531458 0.094368361
2.2957051 0.34146479 0.069452137
2.238085 0.41654974 0.046811778
2.2033327 0.49323758 0.024630472
7.6763544 0.85631865 0.021973876
2.2691083 0.33665872 -0.015654679
2.2099266 0.41039112 -0.036173113
1.9502379 0.43582931 -0.05124652
7.7439523 0.85975438 -0.26391736
2.2483828 0.33274162 -0.09840107
2.2181821 0.41052261 -0.11925061
1.5702281 0.3505038 -0.10037594
7.7683945 0.85725272 -0.55172563
2.3588552 0.34782854 -0.19100356
2.2114978 0.40892628 -0.20154764
1.4792391 0.32973266 -0.15052338
7.5900764 0.83542985 -0.82170576
2.5057564 0.36837301 -0.29662636
2.2594755 0.41718605 -0.29083323
1.443911 0.32148746 -0.20202956
2.5834954 0.28221723 -0.3765395
2.5512242 0.3736017 -0.39819506
2.245548 0.41372293 -0.37542585
1.5020471 0.33418384 -0.26836526
2.5876622 0.28066167 -0.47597295
2.5670996 0.37469095 -0.49977133
2.2201021 0.40763268 -0.45693845
1.5773256 0.35041222 -0.34403417
2.6024182 0.27973488 -0.58045739
2.5798409 0.37535509 -0.60374373
2.2285552 0.40894356 -0.54760224
2.8146808 0.62632906 -0.72798419
2.6060598 0.27764204 -0.68560082
2.5939217 0.37541607 -0.71224308
2.2273858 0.40812621 -0.63937134
2.5868762 0.57573223 -0.77797717
6.1115937 0.6438238 1.8985623
6.34554 0.91515529 1.9041948
6.5625033 1.2022693 1.910944
6.7039022 1.4886286 1.8955377
7.1596975 0.75878477 1.9223117
7.4178371 1.06782 1.9186336
7.6520648 1.3959454 1.912418
8.2823801 1.8288244 1.9978446
7.7229791 0.81861764 1.7637346
7.7029572 1.1099616 1.6857678
9.6463499 1.7559304 2.0260284
10.098425 2.2222462 2.0329475
7.7365861 0.8218351 1.4658492
7.729588 1.1117334 1.3907363
12.179914 2.210748 2.0832944
2.2042189 0.48417023 0.35808298
7.7389045 0.82139844 1.1711388
7.6803575 1.1006852 1.0898796
2.305593 0.41723603 0.30647063
2.2130868 0.48405355 0.27470583
7.7539067 0.82162219 0.88163763
