# .PCD v0.7 - Point Cloud Data file format
VERSION 0.7
FIELDS x y z
SIZE 4 4 4
TYPE F F F
COUNT 1 1 1
WIDTH 1577
HEIGHT 1
VIEWPOINT 0 0 0 1 0 0 0
POINTS 1577
DATA ascii
5.1517901 -0.45327726 -0.79867947
4.8504829 -0.24742828 -0.79855061
0 -0 -0
7.5464115 -0.9492107 -1.3908627
4.1599703 -0.36798814 -0.80451453
2.2796617 -0.1176842 -0.46209708
2.3168142 -0.033733621 -0.49335167
3.5564456 -0.45080897 -0.79501659
3.4943681 -0.3107076 -0.81243688
2.3287489 -0.12046278 -0.56357688
2.3180268 -0.032941964 -0.58527577
2.9989057 -0.3830083 -0.79088318
2.9862809 -0.26778924 -0.8147788
2.8361373 -0.14745373 -0.80186349
2.3390527 -0.0331591 -0.68671554
0.77419066 -0.099804498 0.24115756
0.78288466 -0.070597172 0.23346888
0 -0 0
0 -0 0
0.78101754 -0.10018574 0.21023673
0.80658853 -0.072947569 0.20733941
0.77287555 -0.040785365 0.19028679
0 -0 0
8.0890751 -1.03749 1.8520986
0.79232675 -0.071546204 0.17232387
0 -0 0
0 -0 0
8.0777845 -1.0341791 1.5343555
0.81381232 -0.073701121 0.14552587
0.81337517 -0.043648619 0.13708286
0 -0 0
8.0831747 -1.0355861 1.2263474
0 -0 0
0.82475442 -0.044692367 0.10803641
0 -0 0
7.6127005 -0.97666121 0.86781818
7.56422 -0.68903023 0.78505641
0.82414806 -0.044991322 0.077439599
0 -0 0
7.6220508 -0.97907776 0.58617705
7.5765529 -0.69255376 0.50679916
0.87226057 -0.047831617 0.049987365
0.82991803 -0.015482428 0.039464187
7.6478434 -0.98483336 0.30444843
7.5836344 -0.69693822 0.22788797
2.2880142 -0.12662803 0.047120154
0.81480336 -0.015541884 0.0088900952
7.6367731 -0.98449177 0.021905599
7.590579 -0.70038211 -0.052020758
2.3889811 -0.13317789 -0.038506344
0.81757671 -0.015894553 -0.020970313
7.6378574 -0.98869747 -0.26087061
7.5923486 -0.70335191 -0.33010855
7.5584354 -0.42598978 -0.40019429
0 -0 -0
7.6671233 -0.99765652 -0.54581046
7.6234584 -0.71025997 -0.61333537
7.5426874 -0.42629081 -0.67703229
0.85561866 -0.017097242 -0.084996782
7.5560312 -0.98534691 -0.81999385
7.4235845 -0.69490558 -0.8732447
7.147367 -0.40582561 -0.90615398
0.85587811 -0.017311642 -0.11691462
5.4547806 -0.71588373 -0.79709941
5.1449761 -0.48450887 -0.79806894
4.8715315 -0.27848089 -0.80228209
0 -0 -0
4.3855901 -0.57898974 -0.80893815
4.1869612 -0.39628202 -0.81018937
3.9452605 -0.22794864 -0.79998946
2.3116741 -0.047847487 -0.49231037
3.5294185 -0.46940467 -0.78960389
3.4264469 -0.32587075 -0.79709512
3.2750666 -0.1895704 -0.79286039
2.3109953 -0.047026407 -0.58356225
3.0655384 -0.41065034 -0.80910516
2.9989908 -0.28748894 -0.81871241
2.8928242 -0.16820496 -0.81816703
2.3215375 -0.047159854 -0.68164545
0.7934472 -0.10724038 0.24735622
0.78816187 -0.075951234 0.23517717
0 -0 0
0 -0 0
0.78996342 -0.10626414 0.21281631
0.80323297 -0.077615805 0.20659536
0.7764883 -0.045755364 0.1912418
0 -0 0
8.0980196 -1.0891839 1.855642
0.76366115 -0.073684379 0.16618457
0 -0 0
0 -0 0
8.0927134 -1.0866009 1.5384288
0.80452532 -0.077839889 0.14394787
0.81801391 -0.048932996 0.13791266
0 -0 0
8.0835285 -1.0860858 1.2273891
0 -0 0
0.82545441 -0.049811848 0.1081661
0 -0 0
7.6233058 -1.0256058 0.86972815
7.5816307 -0.7375493 0.78731823
0.82186884 -0.049926609 0.077252768
0 -0 0
7.62677 -1.0272915 0.58701366
7.5900359 -0.7407741 0.50799555
0 -0 0
0.83480024 -0.02069821 0.039701637
7.6426468 -1.0318748 0.30448788
7.5941367 -0.74492109 0.22833663
2.2881923 -0.14072601 0.047140714
0.82268959 -0.020742761 0.0089773592
7.6365342 -1.0321352 0.021922668
7.5881295 -0.74713987 -0.052034408
2.4040864 -0.14882234 -0.038763802
0 -0 -0
7.6425409 -1.0370221 -0.26124299
7.6028032 -0.75139832 -0.33075735
7.5596662 -0.47260869 -0.40040547
0 -0 -0
7.676671 -1.0468388 -0.54693717
7.6199484 -0.7571218 -0.61341524
7.528995 -0.47187853 -0.67605042
0 -0 -0
7.5547681 -1.0323644 -0.82052881
7.4310403 -0.74162638 -0.87464058
7.160584 -0.45067045 -0.90816313
0 -0 -0
5.4551868 -0.75001413 -0.79781634
5.1497736 -0.51685828 -0.79929
4.8904114 -0.30967635 -0.80568916
2.2975013 -0.060937136 -0.40082982
4.4228802 -0.61154705 -0.81649321
4.2460012 -0.42817211 -0.82210678
3.9584599 -0.25309008 -0.80296564
2.3220921 -0.062319387 -0.49460116
3.5815883 -0.49872673 -0.80194485
3.5116158 -0.35572556 -0.8174004
3.2641416 -0.20904103 -0.79051119
2.3222942 -0.061513606 -0.58649969
3.0562544 -0.42851207 -0.80733353
2.9904501 -0.30519915 -0.81687677
2.9051831 -0.18681644 -0.82197118
2.3451838 -0.062037993 -0.68868726
0 -0 0
0.78958827 -0.080981486 0.23574662
0 -0 0
0 -0 0
0 -0 0
0.79888695 -0.082146525 0.20560332
0.7791 -0.050708152 0.19195805
0 -0 0
8.1027718 -1.1404829 1.8582995
0 -0 0
0.80034244 -0.052399348 0.16573286
0 -0 0
8.0965996 -1.1377407 1.5404656
0 -0 0
0.82163423 -0.054211006 0.13857651
0 -0 0
8.1051111 -1.139658 1.2317046
7.5984435 -0.78614426 1.073048
0.8251332 -0.054875806 0.1081661
0 -0 0
7.6198215 -1.0727779 0.87006521
7.5819097 -0.78456736 0.78783232
0.8275075 -0.055367369 0.077813253
0 -0 0
7.6361203 -1.0762957 0.58823061
7.5913024 -0.78794986 0.50839436
0 -0 0
0.85063183 -0.026314223 0.040461477
7.633203 -1.0783304 0.30436951
7.6043353 -0.79305899 0.22878528
2.3281834 -0.15753068 0.047983613
0.82154739 -0.025758961 0.0089664515
7.6528311 -1.0821931 0.021988101
7.6042876 -0.79587156 -0.052177716
7.5335917 -0.51277965 -0.12152106
0 -0 -0
7.6766038 -1.0896549 -0.26263094
7.6149406 -0.79980826 -0.33149266
7.5685792 -0.51980609 -0.40103894
0 -0 -0
7.6789913 -1.0951899 -0.54757094
7.6260638 -0.80501378 -0.61429358
7.5647106 -0.52073431 -0.67953151
0 -0 -0
7.5679765 -1.0815132 -0.82266867
7.4470911 -0.78940707 -0.87708336
7.1626329 -0.49494043 -0.90879101
0 -0 -0
5.4416661 -0.7822051 -0.79652584
5.1425743 -0.54802805 -0.79867947
4.8559346 -0.33742028 -0.80033523
2.3069301 -0.075354807 -0.40254793
4.3985996 -0.63571894 -0.81271571
4.2042394 -0.45003647 -0.81454021
3.9695427 -0.27826497 -0.80554497
2.2991824 -0.07582482 -0.48981133
3.6286983 -0.52800351 -0.81320328
3.4502804 -0.37091377 -0.80363798
3.3015826 -0.23178841 -0.79990804
2.3286567 -0.075983122 -0.58821315
3.0765412 -0.45062178 -0.81340754
2.9818053 -0.32281539 -0.81504101
2.921262 -0.20585649 -0.82686228
2.347636 -0.076520376 -0.68953228
0.78829068 -0.11641079 0.24617553
0.80337137 -0.087379575 0.24001738
0.76333505 -0.053811871 0.21918032
0 -0 0
0 -0 0
0.79066342 -0.086206831 0.2036192
0.7874918 -0.056108795 0.19410685
0 -0 0
8.1004457 -1.1908884 1.8594068
0 -0 0
0.80293626 -0.057519089 0.16633993
0 -0 0
8.1215515 -1.1921088 1.5465755
0 -0 0
0.83013833 -0.059890077 0.14007014
0 -0 0
8.1224241 -1.192961 1.2354249
7.7696805 -0.85207635 1.0979477
0.8257699 -0.060009561 0.10829579
0 -0 0
7.6494699 -1.1248609 0.87422228
7.6056271 -0.83421946 0.79081374
0 -0 0
0.81156057 -0.029821515 0.068594329
7.6599531 -1.1276317 0.59058839
7.5962429 -0.83560538 0.50905901
2.3687563 -0.17367782 0.1359085
0.87640715 -0.032495383 0.041696217
7.6590643 -1.1299592 0.30567142
7.6023068 -0.84003276 0.22887503
2.3909857 -0.17652442 0.049299356
0 -0 0
7.6668215 -1.1321975 0.022047844
7.6171513 -0.84449905 -0.052300554
7.5522399 -0.56062365 -0.12187507
0 -0 -0
7.6846027 -1.1389351 -0.26313874
7.6188264 -0.84751165 -0.33188194
7.5951214 -0.56847227 -0.40262258
0 -0 -0
7.6879129 -1.144637 -0.54869759
7.6269245 -0.85245562 -0.61477274
7.6030879 -0.57026953 -0.68328041
0 -0 -0
7.5759492 -1.1301296 -0.82427359
7.474679 -0.83874154 -0.88092208
7.195075 -0.54156083 -0.91331172
0 -0 -0
7.6212568 -1.1432799 -1.11657
5.1322403 -0.57879674 -0.79761112
4.8596764 -0.36765602 -0.80130869
2.3133149 -0.08977586 -0.40375057
4.3975344 -0.66313636 -0.81325537
4.1174879 -0.4663215 -0.79827213
3.9599419 -0.30202007 -0.80395764
2.3123565 -0.090466216 -0.49272692
3.6360075 -0.55187035 -0.81558484
3.4876266 -0.39659026 -0.81288815
3.3020365 -0.2521902 -0.80037785
2.3262088 -0.090194926 -0.58772355
3.0899763 -0.4719739 -0.81770992
2.9653873 -0.33945909 -0.81110746
2.9218631 -0.2239242 -0.82740569
2.3615041 -0.091480888 -0.6937573
0.77906269 -0.11993705 0.24351896
0.80091536 -0.092088327 0.23944795
0 -0 0
0 -0 0
7.1137824 -1.0905949 1.9215379
0.78338283 -0.090280265 0.20188309
0.78906912 -0.061089616 0.19458435
0 -0 0
8.1016607 -1.2418991 1.8614
0 -0 0
0.80354458 -0.062520698 0.16654229
0 -0 0
8.1354542 -1.24519 1.5506488
8.0677061 -0.9307543 1.4463167
0.82189018 -0.064366631 0.13874246
0 -0 0
8.1178837 -1.2432258 1.2358713
7.9128442 -0.91694683 1.1189524
0.82736307 -0.06523113 0.10855518
0.8212409 -0.034822237 0.099674158
7.6620679 -1.1747879 0.87646937
7.6043177 -0.88132906 0.79122502
0 -0 0
0.82131767 -0.035227597 0.069435976
7.6588035 -1.1755186 0.59104472
7.6088133 -0.88427269 0.5102554
2.3606796 -0.18765518 0.13550861
0.90413362 -0.03908008 0.043025933
7.6835899 -1.1817939 0.30693388
7.6148801 -0.8887496 0.22941341
7.5323372 -0.60259742 0.15538138
0 -0 0
7.6785088 -1.18211 0.022101896
7.629703 -0.89331424 -0.052423384
7.5695877 -0.60863566 -0.12221298
2.2241151 -0.097884819 -0.057091545
7.7051258 -1.190338 -0.26408663
7.6273737 -0.89587551 -0.33248746
7.6054249 -0.61619335 -0.40336165
7.5259867 -0.33306631 -0.46999848
7.7083449 -1.1960702 -0.55066931
7.6354098 -0.90087271 -0.61589062
7.5905113 -0.61618519 -0.68247712
7.5692134 -0.33722961 -0.752518
7.5855737 -1.1791897 -0.82609242
7.3391976 -0.86917084 -0.86556727
7.300386 -0.59455717 -0.92712504
7.5215631 -0.33694819 -1.0282804
7.6463656 -1.1950647 -1.1213019
5.1364431 -0.61121088 -0.79883206
4.8130732 -0.39384612 -0.79400784
2.3137047 -0.10401265 -0.40392238
4.4040718 -0.69178569 -0.81523407
4.1789002 -0.49926534 -0.81075692
4.0000172 -0.32977501 -0.81248933
2.3176205 -0.10491826 -0.49397644
3.6470175 -0.57645637 -0.8188324
3.4541743 -0.41427016 -0.80566847
3.3013959 -0.27252635 -0.80061281
2.3362663 -0.10494518 -0.59041625
3.0870221 -0.49092475 -0.81770992
2.9584584 -0.35706979 -0.80979621
2.8360341 -0.23485884 -0.80349386
2.4701726 -0.11087386 -0.72586793
0.80661434 -0.12925012 0.25237417
0.79748034 -0.096654899 0.2385938
0.78082037 -0.064683065 0.22441201
0 -0 0
7.1012325 -1.1333101 1.9199901
0.78281415 -0.095085308 0.20188309
0.79061484 -0.066091895 0.19506186
0 -0 0
8.131444 -1.2975796 1.870037
8.0732021 -0.97947574 1.7615564
0.80314583 -0.067449979 0.16654229
0 -0 0
8.1422176 -1.2974044 1.5534261
8.0667295 -0.98083347 1.4471934
0.8214798 -0.069408447 0.13874246
0 -0 0
8.1354933 -1.2970608 1.2397404
8.0122471 -0.97832453 1.1338364
0 -0 0
0.833902 -0.040486451 0.10123909
7.6694341 -1.2241286 0.8781547
7.6106148 -0.92941856 0.79245871
7.6027999 -0.64945906 0.71591926
0.8270576 -0.040559292 0.069940962
7.6563697 -1.2232767 0.591425
7.6349368 -0.93482327 0.51238227
7.5897388 -0.65021145 0.43588981
0 -0 0
7.693954 -1.2317606 0.30764401
7.6330934 -0.93838394 0.23013125
7.5693378 -0.65232319 0.15622428
2.265059 -0.11278361 0.024739552
7.693821 -1.2328411 0.022167329
7.6349955 -0.94145858 -0.052498452
7.5936027 -0.65748531 -0.12266354
2.3552637 -0.11814056 -0.060475513
7.717412 -1.2407663 -0.26476368
7.6465211 -0.94572514 -0.33356881
7.6034904 -0.66302121 -0.40346721
7.5566955 -0.38089669 -0.47205332
7.7185869 -1.2462071 -0.55193686
7.6515007 -0.95040888 -0.61764735
7.6282611 -0.66638857 -0.68622595
7.6375637 -0.38724476 -0.75953519
7.6046958 -1.229998 -0.82898122
7.4638233 -0.93040425 -0.88092208
6.4357929 -0.5639149 -0.81774867
5.9747148 -0.30439758 -0.81704921
7.6437731 -1.2427535 -1.1220188
5.0796423 -0.63608497 -0.79059041
4.8439865 -0.42631248 -0.79952407
4.7696872 -0.24375544 -0.83292878
4.4230442 -0.72260207 -0.81955129
4.1777062 -0.52514207 -0.81113523
3.966677 -0.35154369 -0.80614018
2.2641866 -0.11642471 -0.48273075
3.5673065 -0.58631474 -0.80172831
3.4380357 -0.43374959 -0.80250984
3.2832019 -0.29131776 -0.79661912
2.3665643 -0.12086073 -0.59824926
3.0285914 -0.50070465 -0.80303115
2.9437666 -0.37363622 -0.80638713
2.9735346 -0.26462567 -0.84289414
2.7339265 -0.13952628 -0.80360931
0.8190006 -0.13639437 0.25650662
0.79782319 -0.1016675 0.23887852
0 -0 0
0 -0 0
7.080801 -1.1746475 1.9163786
0 -0 0
0 -0 0
0 -0 0
8.1444941 -1.3509595 1.8749093
8.0767345 -1.0302302 1.7636734
0.80174148 -0.072288774 0.16633993
0.80639023 -0.043081474 0.15876976
8.1544638 -1.3507121 1.5573143
8.0869265 -1.0336818 1.4519273
0.82496685 -0.074803852 0.13940629
0 -0 0
8.1625013 -1.3527753 1.2450976
8.0699377 -1.0356619 1.1428783
0 -0 0
0.83264667 -0.045548193 0.10111871
7.6892257 -1.2757181 0.88130057
7.6185818 -0.97787189 0.79389811
7.5966883 -0.69591504 0.7157324
0.82977802 -0.045798 0.070193455
7.6772447 -1.2749695 0.59363067
7.6389532 -0.98292613 0.51304692
7.5895829 -0.6971342 0.43611833
0 -0 0
7.6911798 -1.2797667 0.30784127
7.6450357 -0.98750699 0.23066965
7.5811214 -0.70022672 0.15655321
2.3272221 -0.13019851 0.025426762
7.6900573 -1.2806834 0.022178708
7.6508918 -0.9911145 -0.052648585
7.6043596 -0.70545185 -0.12290491
2.4453206 -0.1377047 -0.062808394
7.7165537 -1.2892489 -0.26500067
7.6524634 -0.99417007 -0.33408785
7.6062398 -0.7103129 -0.40383676
7.5671701 -0.42798918 -0.47286281
7.7334218 -1.2973399 -0.55355644
7.6662827 -1.0000474 -0.61932421
7.6329541 -0.71401709 -0.6870293
7.5784144 -0.4308809 -0.75390166
7.652895 -1.2860283 -0.83507985
7.4717612 -0.97798848 -0.8825506
6.6603818 -0.62479776 -0.84675664
5.9638319 -0.34054366 -0.81583136
7.6291728 -1.2884778 -1.1210151
5.1167974 -0.67265117 -0.79700059
4.8461914 -0.45648926 -0.80033523
4.6471295 -0.26609033 -0.81179637
4.4311347 -0.75186706 -0.82188982
4.2045846 -0.55474788 -0.81699932
4.0268931 -0.38179693 -0.81883848
3.8365033 -0.22088388 -0.81822652
3.6252334 -0.61870384 -0.81558484
3.5260937 -0.46685669 -0.82371765
3.3239298 -0.31549895 -0.80695564
3.1479177 -0.18013661 -0.7960338
3.0197411 -0.51829636 -0.8015126
2.9968989 -0.39907983 -0.82159704
2.9210787 -0.27803299 -0.82849264
2.7502618 -0.15728483 -0.80867934
0 -0 0
0.81143677 -0.10846608 0.24314928
0.79719412 -0.07590016 0.22936834
0 -0 0
7.0677471 -1.2170886 1.9148309
0 -0 0
0.79651076 -0.07643833 0.19673315
0 -0 0
8.1619987 -1.4053755 1.8808887
8.0935106 -1.0828793 1.7687542
0.79056007 -0.076173633 0.16411398
0.80415177 -0.047911864 0.15838394
8.1586132 -1.4028865 1.5597214
8.0921402 -1.0848526 1.4540313
0 -0 0
0 -0 0
8.1657419 -1.4048461 1.2468834
8.0752087 -1.0867436 1.1445476
0 -0 0
0.8343333 -0.05077697 0.10135947
7.6988802 -1.32591 0.88332295
7.6252532 -1.0263251 0.79523456
7.5942574 -0.74270821 0.71591926
0.82351387 -0.050522454 0.069688469
7.6840162 -1.3245929 0.59477156
7.6406889 -1.0308466 0.51357865
7.6060276 -0.74573565 0.437318
0 -0 0
7.6969676 -1.3293155 0.3083936
7.6596332 -1.0372142 0.23129776
7.5876269 -0.74780911 0.15677936
2.3393538 -0.14528136 0.025568567
7.6938791 -1.3298885 0.022212846
7.6585393 -1.0399246 -0.052744124
7.5978975 -0.75190103 -0.12287272
7.5627661 -0.47245467 -0.19432148
7.7183452 -1.3382798 -0.2653392
7.6759167 -1.0451496 -0.33538544
7.6156497 -0.7583558 -0.40457579
7.5514526 -0.47360027 -0.47205332
7.7498841 -1.3490435 -0.55531687
7.6748161 -1.049093 -0.62052196
7.6294203 -0.76093739 -0.68711859
7.6828866 -0.4841319 -0.76457572
7.6370244 -1.3315951 -0.83422393
7.4744759 -1.0250304 -0.88359749
6.9150586 -0.69151735 -0.87965745
5.899334 -0.37318978 -0.80730629
7.6913104 -1.3475623 -1.1313392
7.6071811 -1.0475582 -1.1858855
7.5855122 -0.76150566 -1.2534746
4.7152128 -0.29902634 -0.82399476
4.3218083 -0.76062721 -0.80246234
4.2011013 -0.58053631 -0.81699932
4.0352011 -0.40758172 -0.8210209
3.837028 -0.24454449 -0.81864303
3.6338663 -0.64314812 -0.81839943
3.4517536 -0.4785828 -0.80702215
3.3490095 -0.33862621 -0.81353343
3.1728792 -0.20110442 -0.80264288
2.9793575 -0.53020477 -0.79164243
2.986748 -0.41639498 -0.81949914
2.817826 -0.28566223 -0.79968965
2.7521179 -0.17433913 -0.80952436
0 -0 0
0.8069585 -0.11291157 0.24201041
0.80053908 -0.081178166 0.23046973
0 -0 0
7.0629997 -1.2609419 1.9156047
7.3996601 -1.0373535 1.9129292
0.78636616 -0.080337241 0.19434559
0 -0 0
8.1522627 -1.4552588 1.8806673
8.1051035 -1.1350952 1.7727766
0.76864535 -0.078825071 0.15966205
0 -0 0
8.17694 -1.4577497 1.5649056
8.1019058 -1.1368102 1.4570119
0 -0 0
0 -0 0
8.1754646 -1.4582227 1.2497108
8.1095734 -1.1420717 1.1503899
7.5953121 -0.78680837 0.9987855
0.83895856 -0.056227308 0.10196137
7.7101636 -1.3766176 0.88556999
7.6306319 -1.0747582 0.79646832
7.5925279 -0.78960067 0.71619946
0 -0 0
7.6973386 -1.3755753 0.59644485
7.6381721 -1.0782675 0.51384455
7.5953507 -0.79177028 0.43697524
2.3499374 -0.1594301 0.11198141
7.6994858 -1.3784553 0.30882755
7.6580734 -1.0848943 0.23144732
7.6037769 -0.79653925 0.15721108
2.3643565 -0.1614033 0.025852177
7.7062449 -1.3807759 0.022272589
7.6569643 -1.0876 -0.052778244
7.6110401 -0.80038905 -0.12316237
7.5577302 -0.51871312 -0.19427021
7.7237597 -1.3880885 -0.26581311
7.6960645 -1.0960317 -0.33655328
7.6277347 -0.80685604 -0.4054732
7.5713058 -0.52150363 -0.4734855
7.7385159 -1.3960392 -0.55510563
7.6909304 -1.0994095 -0.62235856
7.6275787 -0.80805111 -0.68738633
7.5983672 -0.5256328 -0.75647134
7.6228395 -1.3773692 -0.83358198
7.5486646 -1.0824339 -0.89313608
7.3921151 -0.78506356 -0.94093841
7.4121866 -0.51457322 -1.0147486
5.4043193 -0.98108381 -0.79580891
7.5976753 -1.0937928 -1.1854277
4.8009768 -0.51174164 -0.79384559
4.7319617 -0.32925195 -0.82725912
4.4138327 -0.80477571 -0.82045072
4.151783 -0.59970498 -0.80810863
3.964407 -0.42502007 -0.80713224
3.8588719 -0.26972017 -0.82364112
3.6682627 -0.67247462 -0.82705975
3.4227202 -0.4959811 -0.80093056
3.3362377 -0.35802808 -0.81094933
3.149339 -0.2190219 -0.79701293
3.0512104 -0.56232798 -0.81163597
2.977452 -0.43373969 -0.81766343
2.8275025 -0.30418199 -0.80295038
2.7749264 -0.19288592 -0.81656617
6.0451331 -1.1214701 1.8994479
0.8090961 -0.11827683 0.24286456
0.8095842 -0.087117195 0.23322327
0 -0 0
7.1111832 -1.3146182 1.9308243
7.4075336 -1.084843 1.9166493
0.79165101 -0.085788511 0.19577813
0 -0 0
8.1585226 -1.5080888 1.8842107
8.1173267 -1.1876355 1.7770104
0 -0 0
0 -0 0
8.1736393 -1.5089654 1.5660164
8.116209 -1.1896424 1.4608693
8.0698118 -0.88176602 1.3661817
0.82647705 -0.059747376 0.13147993
8.1935911 -1.513388 1.2538774
8.1298456 -1.1958448 1.1542847
7.5952697 -0.83393866 0.99943399
0.84156799 -0.061591379 0.1023225
7.7054796 -1.4246228 0.88601941
7.6396399 -1.123875 0.79811329
7.6043644 -0.83802676 0.7177875
0 -0 0
7.7024794 -1.4253194 0.59750962
7.6521416 -1.1281704 0.51524031
7.5913424 -0.83846921 0.4370324
2.3778033 -0.1759841 0.11335862
7.7124972 -1.4296792 0.30969548
7.6710482 -1.1347884 0.23204553
7.6047087 -0.84384173 0.15733443
2.4022117 -0.17880237 0.026277594
7.7182751 -1.431865 0.022332331
7.6600385 -1.1360288 -0.052846488
7.6218853 -0.84884518 -0.12341983
7.5504174 -0.56477845 -0.19416766
7.729836 -1.4381968 -0.26632091
7.7010531 -1.1449963 -0.33707231
7.6315722 -0.854644 -0.40594831
7.5848823 -0.56922019 -0.47454402
7.7562795 -1.4484397 -0.55700696
7.7146025 -1.1511399 -0.62483394
7.6363344 -0.85639185 -0.68863595
7.7021666 -0.58032018 -0.7671454
7.6034942 -1.4221053 -0.83240503
7.5546503 -1.1306424 -0.89464831
7.4768734 -0.84049094 -0.95236582
7.5333753 -0.56945384 -1.0317987
5.438076 -1.021718 -0.80168784
7.5712748 -1.1374542 -1.1823752
4.8840337 -0.55092353 -0.80812281
7.5176659 -0.56945395 -1.3148524
4.3759465 -0.82564235 -0.81433469
4.1286054 -0.62224174 -0.8043254
3.9071872 -0.44315162 -0.79602122
3.8844516 -0.29546982 -0.82947224
3.5902107 -0.68096143 -0.81038862
3.4379148 -0.5197401 -0.80521727
3.3359098 -0.3787114 -0.81141919
3.2378495 -0.24514945 -0.81977773
3.0781128 -0.58683693 -0.81973457
2.9451592 -0.44750693 -0.80953401
2.8542688 -0.3247897 -0.81110215
2.7698636 -0.20961928 -0.81543952
6.0287547 -1.1567408 1.8964961
0.79887849 -0.12179436 0.24001738
0.81476545 -0.092735372 0.23487538
0 -0 0
7.1001363 -1.3576826 1.9300505
7.3988228 -1.129982 1.9161533
0.75734282 -0.0867754 0.18742174
0 -0 0
8.1807232 -1.5641637 1.891519
8.1176167 -1.2385995 1.7787042
8.0857944 -0.9296059 1.6818142
0.82074189 -0.064080335 0.16185643
8.2066994 -1.5672002 1.5741633
8.1204348 -1.2412052 1.4629734
8.0730658 -0.93228298 1.3676753
0.83003342 -0.065126441 0.13210677
8.1948347 -1.5656757 1.2555143
8.1448679 -1.2491589 1.1574842
7.5870547 -0.88018388 0.99904495
0.84315348 -0.066911057 0.10256326
7.7044015 -1.4733691 0.88691825
7.6611128 -1.1751033 0.80109477
7.6178694 -0.88685799 0.71956235
0 -0 0
7.7259064 -1.4787397 0.60001957
7.6559234 -1.1767693 0.51597142
7.6148124 -0.88838804 0.43868911
7.5661426 -0.60668075 0.36087647
7.740871 -1.484125 0.31119466
7.6787586 -1.1841207 0.23249418
7.6301708 -0.89409459 0.15797175
7.5530524 -0.60881537 0.082661524
7.7270217 -1.4825883 0.022383539
7.6776299 -1.1868277 -0.053017091
7.6522822 -0.89979976 -0.12399911
7.5836773 -0.61408162 -0.19511621
7.7287169 -1.4871098 -0.26659176
7.7086921 -1.1945224 -0.33772111
7.6390767 -0.9029783 -0.40663457
7.5981584 -0.61712301 -0.4756026
7.7638965 -1.4992193 -0.55820405
7.7310333 -1.2021298 -0.62675035
7.6606092 -0.90674371 -0.69131374
7.7063951 -0.62821567 -0.76793605
7.5975537 -1.4692992 -0.832726
7.5711226 -1.1806483 -0.89744008
7.5237899 -0.89254653 -0.95902133
7.5277643 -0.61550552 -1.031528
5.439477 -1.056576 -0.80283499
7.561224 -1.1834308 -1.1819174
4.859005 -0.57831538 -0.80455351
4.7177467 -0.38649127 -0.82554108
4.3495569 -0.84833425 -0.81037718
4.1004581 -0.64375526 -0.79959625
3.9958737 -0.4780618 -0.81467187
3.8445489 -0.31617233 -0.82135034
3.591713 -0.7041046 -0.81168765
3.4029031 -0.53582436 -0.79777199
3.331593 -0.3989419 -0.81094933
3.2623754 -0.26714846 -0.82638687
3.0156038 -0.59411848 -0.80404341
2.9804835 -0.47160232 -0.8200236
2.8579555 -0.34298509 -0.81273252
2.7685254 -0.2266109 -0.81543952
6.0252924 -1.194454 1.8976768
0.78012776 -0.12383839 0.23460774
0.81418115 -0.097732931 0.23487538
0 -0 0
7.067028 -1.3963534 1.9233435
7.4013176 -1.1768804 1.9186336
0 -0 0
0 -0 0
8.1901054 -1.6181104 1.8959483
8.1349592 -1.2923719 1.7842084
8.083827 -0.97967315 1.6826236
0.81544453 -0.068703219 0.16089185
8.2171745 -1.6215214 1.5780514
8.1321115 -1.2941022 1.4664799
8.084815 -0.98394537 1.3706627
0.79615784 -0.06738615 0.12677862
8.1976862 -1.6184188 1.2574489
8.1585636 -1.302546 1.1605444
7.60218 -0.92924702 1.0017686
0 -0 0
7.737133 -1.5288978 0.89174944
7.6832261 -1.2267941 0.80417907
7.6290836 -0.93564397 0.7211504
7.5948052 -0.65336615 0.64386088
7.7333164 -1.5294057 0.60131252
7.6771312 -1.2282944 0.51789892
7.6280451 -0.93740863 0.43977454
7.5961132 -0.65601641 0.36249113
7.7414203 -1.5335358 0.31158918
7.6930614 -1.2346991 0.23315223
7.6473627 -0.94371188 0.1584446
7.5860338 -0.65834737 0.083065122
7.7432828 -1.5350283 0.022457507
7.6879735 -1.2367731 -0.053139925
7.6446328 -0.94649065 -0.12396693
7.6076517 -0.66303289 -0.19583401
7.7527752 -1.5411295 -0.26774275
7.7248888 -1.2456166 -0.33875918
7.6571755 -0.95279312 -0.4079015
7.6121254 -0.66529697 -0.4767234
7.7702031 -1.5499516 -0.55933076
7.7431917 -1.2527279 -0.6283474
7.6637964 -0.95483947 -0.69211709
7.6815782 -0.67366374 -0.76586056
7.3914461 -1.4765458 -0.81111342
7.5813832 -1.2299446 -0.89953387
7.5221095 -0.93918645 -0.95952356
7.4744964 -0.65734339 -1.0247622
0 -0 -0
5.1337495 -0.83580256 -0.80325818
4.9092155 -0.61486346 -0.8134768
7.5267944 -0.66313422 -1.3177732
4.3230548 -0.87073362 -0.80641979
4.1904345 -0.68425292 -0.81794518
4.0288453 -0.50709975 -0.82201296
3.8308451 -0.33872235 -0.81885129
3.6007214 -0.7288413 -0.81471878
3.4889627 -0.57133561 -0.81875408
3.3088303 -0.41682541 -0.80601597
3.174715 -0.2795907 -0.80460119
3.0545633 -0.62128788 -0.81543219
2.944207 -0.48439819 -0.81084526
2.8768027 -0.36316645 -0.81871051
2.7718616 -0.2440147 -0.81684786
6.0515475 -1.2382973 1.908303
0.76043683 -0.12550092 0.22891337
0.818335 -0.10332896 0.23625214
0.77487916 -0.068590432 0.21472472
7.0498075 -1.4379518 1.9210219
7.3968244 -1.2227458 1.9193776
7.7606578 -0.98583513 1.9234008
0.79690409 -0.07149332 0.18845859
8.2067766 -1.6737901 1.9021493
8.1461611 -1.3454479 1.7884423
8.0970917 -1.0317317 1.6866707
0.81696206 -0.073882148 0.16127767
8.2292175 -1.6764222 1.5823098
8.1502438 -1.3483142 1.4712139
8.1050348 -1.036913 1.3751435
0 -0 0
8.2108555 -1.6734277 1.2610202
8.1689796 -1.3556619 1.1631874
7.6189547 -0.97878152 1.0047514
0 -0 0
7.7490263 -1.5807126 0.89422125
7.6961608 -1.2773345 0.80633807
7.6478858 -0.98561901 0.72348571
7.5787463 -0.69885677 0.64285088
7.7452798 -1.5812156 0.6029858
7.7078366 -1.2817607 0.52049106
7.6360116 -0.98598564 0.44057435
7.6078587 -0.70408571 0.36325097
7.7475286 -1.5842103 0.31222039
7.6951995 -1.283524 0.23345132
7.6592751 -0.99293113 0.15881465
7.5977821 -0.70636302 0.083239652
7.7474341 -1.585318 0.022497335
7.7127881 -1.2893634 -0.053365123
7.6277742 -0.991961 -0.12378992
7.6183701 -0.71109366 -0.19621855
7.7735229 -1.5948975 -0.26879218
7.726954 -1.294643 -0.33919173
7.6670284 -1.0018289 -0.40874615
7.613862 -0.71254951 -0.477097
7.780087 -1.6016221 -0.5607391
7.7422404 -1.3013723 -0.62890631
7.67557 -1.0041714 -0.69372374
7.7040501 -0.72329575 -0.76852906
7.5107861 -1.5483698 -0.8252365
7.5746727 -1.276605 -0.89965022
7.421773 -0.9729442 -0.94746834
7.4318509 -0.69957232 -1.0194848
0 -0 -0
5.1431413 -0.86975873 -0.80554754
4.8055606 -0.63185346 -0.79692817
7.5372953 -0.71069241 -1.3203503
4.3262982 -0.89904428 -0.80803871
4.1958385 -0.71159387 -0.8198368
4.0402331 -0.53373617 -0.82498908
3.8160362 -0.36102402 -0.81614399
3.5828021 -0.7481274 -0.81168765
3.4556181 -0.58766943 -0.81176007
3.3457191 -0.44234368 -0.81564772
3.2086558 -0.30243152 -0.81365818
3.0582683 -0.64160776 -0.8174569
2.9649596 -0.50651687 -0.81740117
2.8888307 -0.38270718 -0.82278639
2.8094788 -0.26470819 -0.82839644
6.0391617 -1.2744193 1.9068272
0 -0 0
0.81863856 -0.1084745 0.23652749
0.78787893 -0.074616097 0.2184498
7.0380149 -1.4805847 1.920248
7.3872728 -1.2677811 1.9188815
7.7486868 -1.0326654 1.9219681
0.76932073 -0.073779881 0.18203907
8.212574 -1.7275268 1.9059139
8.1502752 -1.3975538 1.7911944
8.1032286 -1.0830818 1.6893015
0.81454003 -0.078704804 0.16089185
8.2428188 -1.7319359 1.5869386
8.1563711 -1.4007972 1.4738438
8.0985203 -1.0866251 1.3751435
0 -0 0
8.2391415 -1.7319138 1.2669727
8.1819782 -1.4094589 1.1662477
7.6304941 -1.0278949 1.007086
7.5147548 -0.73577708 0.91560584
7.7459879 -1.6296619 0.89500773
7.6979809 -1.3262219 0.80736613
7.6535339 -1.0341268 0.72460669
7.5733237 -0.74524832 0.64276671
7.7549458 -1.6328187 0.60450697
7.7086759 -1.3305583 0.52108926
7.6515837 -1.0357671 0.44183114
7.6014075 -0.75055712 0.36315599
7.7493949 -1.6341926 0.31269383
7.7098322 -1.3346382 0.23413926
7.6698804 -1.0421973 0.15916415
7.6231565 -0.75592899 0.083566889
7.7678928 -1.6392263 0.022585526
7.7204957 -1.3393989 -0.053474311
7.6582007 -1.0437415 -0.1243853
7.6108794 -0.75752866 -0.19614165
7.7792349 -1.6458749 -0.26933384
7.7336292 -1.3445973 -0.33984053
7.695365 -1.0535951 -0.41059375
7.6242442 -0.76074034 -0.47803104
7.7740164 -1.6501582 -0.56102079
7.7400017 -1.3498808 -0.62938547
7.6781449 -1.0524662 -0.69452709
7.6836243 -0.76896781 -0.76694769
7.4991994 -1.5940126 -0.82502252
7.3299327 -1.2816592 -0.87149984
7.4451489 -1.0225146 -0.95123559
7.5969853 -0.76217198 -1.0427594
0 -0 -0
7.6355014 -1.3394842 -1.1971798
4.8250537 -0.66455919 -0.80082196
4.6402397 -0.46627098 -0.81334263
4.3341665 -0.92845768 -0.81055707
4.1343346 -0.72728825 -0.80867612
3.9815426 -0.55086017 -0.81367975
3.8234806 -0.38541293 -0.81822652
3.6105947 -0.77708107 -0.81904894
3.4442718 -0.60750788 -0.80995512
3.3121312 -0.45859826 -0.80813026
3.2144578 -0.32288903 -0.81561643
3.0429268 -0.65790755 -0.81441987
2.9275885 -0.51863998 -0.80796057
2.8206542 -0.39130089 -0.80403727
2.8183033 -0.28299636 -0.83149481
6.0256262 -1.3102328 1.9050562
6.3925624 -1.1357681 1.9283959
0.81605315 -0.11323129 0.23597679
0.81234241 -0.081965074 0.22536783
7.0363517 -1.5253788 1.9223117
7.3669558 -1.3108784 1.9156574
7.7566314 -1.0822037 1.9255495
0.76594853 -0.078202359 0.18135126
8.2246933 -1.7828437 1.9112291
8.1627169 -1.4513006 1.7958519
8.1197071 -1.1360387 1.6941582
0 -0 0
8.2454834 -1.7853918 1.5895307
8.1796083 -1.456513 1.4796298
8.1014662 -1.1376675 1.3768032
0 -0 0
8.2544537 -1.7880883 1.2709906
8.1819487 -1.4612029 1.1674997
7.6505532 -1.0784322 1.0105878
7.5762539 -0.7887603 0.92367125
7.7523513 -1.6807389 0.8969177
7.7034073 -1.3758795 0.80880553
7.6707044 -1.0844133 0.72684854
7.6112232 -0.796161 0.64638579
7.7681675 -1.6854455 0.60633236
7.6895628 -1.3758997 0.52035815
7.6559577 -1.0842367 0.44245958
7.6026196 -0.79780984 0.36344093
7.7694912 -1.6882886 0.3139168
7.7290454 -1.3868628 0.23497675
7.6682901 -1.0899426 0.15926693
7.6313024 -0.8040517 0.083708696
7.7743001 -1.6904703 0.02263389
7.7229581 -1.3886924 -0.053549379
7.6585813 -1.0916994 -0.12449794
7.6229882 -0.80600077 -0.19657744
7.7787547 -1.6957051 -0.26967236
7.7350659 -1.3937964 -0.34027305
7.6956749 -1.1017839 -0.41096327
7.6372976 -0.8094008 -0.47915184
7.7968774 -1.7050732 -0.56341499
7.7492299 -1.4005383 -0.63082278
7.7040787 -1.1042219 -0.69747269
7.6728244 -0.81546813 -0.76635468
7.5203571 -1.6468027 -0.82844633
7.5945969 -1.3760134 -0.90395421
6.2230053 -0.89360309 -0.79577291
5.8128443 -0.6192258 -0.79837531
0 -0 -0
7.6582541 -1.391965 -1.2020637
4.8804626 -0.70273113 -0.81071866
4.6176996 -0.49264404 -0.80990648
4.3255067 -0.95439833 -0.81001747
4.1674695 -0.75950855 -0.81605351
4.0207686 -0.58145225 -0.82240975
3.828824 -0.40969864 -0.81989259
3.6257746 -0.80365723 -0.82359558
3.4529378 -0.63090646 -0.81288815
3.3410008 -0.48350671 -0.81588262
3.1940978 -0.34065285 -0.81096554
0 -0 -0
2.9338424 -0.53833514 -0.81058294
2.8667734 -0.41564319 -0.81789535
2.7573595 -0.29397705 -0.81403112
6.0193381 -1.3475981 1.9056466
6.3279634 -1.1643885 1.9110281
0.80868322 -0.1172706 0.23404932
0.8099072 -0.086742654 0.22483566
7.0202589 -1.5670511 1.920506
7.3368611 -1.3520185 1.909953
7.7584929 -1.131038 1.9276983
0 -0 0
8.2478619 -1.8409235 1.9192019
8.1690369 -1.5041904 1.7992392
8.1261492 -1.1878219 1.6969912
0 -0 0
8.2698622 -1.8438643 1.5963815
8.1947222 -1.5111382 1.4840132
8.1226282 -1.1915065 1.3816161
8.0575123 -0.88161397 1.2861214
8.250083 -1.84021 1.2720323
8.2049637 -1.5173213 1.1720901
7.6467352 -1.1257881 1.0109769
7.6008739 -0.83849812 0.92728269
7.7661376 -1.7336872 0.89972651
7.7114477 -1.426196 0.81055325
7.6609511 -1.1310233 0.72656834
7.62006 -0.84438401 0.64756405
7.7722764 -1.7363393 0.60747319
7.6917672 -1.4250554 0.52108926
7.6669383 -1.1338214 0.44348788
7.6144581 -0.84631944 0.36424828
7.7736125 -1.739202 0.31450862
7.7243214 -1.4349915 0.23509641
7.6703587 -1.1382948 0.15945198
7.6302004 -0.85130483 0.083752334
7.7803707 -1.7418548 0.022682253
7.733954 -1.4397136 -0.053685863
7.6863527 -1.143822 -0.12506112
7.6328015 -0.85442758 -0.196962
7.7896571 -1.7482175 -0.27041712
7.745028 -1.4447124 -0.34109485
7.715436 -1.1529677 -0.41238856
7.6540079 -0.85869521 -0.48052177
7.8028126 -1.7566063 -0.56461209
7.7571468 -1.4511764 -0.63218021
7.7139039 -1.1539776 -0.69899005
7.7022867 -0.86642569 -0.7698139
7.6245623 -1.718715 -0.84107149
7.562582 -1.4181935 -0.90116245
6.8531752 -1.0270495 -0.87714595
5.8227196 -0.65643507 -0.80026984
0 -0 -0
7.6476269 -1.4385636 -1.2017585
4.8692284 -0.73163748 -0.80958301
4.6155691 -0.52107894 -0.81007826
4.3023024 -0.97700012 -0.8067795
4.0990448 -0.77305466 -0.80356866
4.0229402 -0.60698962 -0.82360023
3.8310974 -0.43373427 -0.82093382
1.3953882 -0.31828442 -0.3174004
3.4126258 -0.64520407 -0.80431473
3.3149042 -0.50051475 -0.81024456
3.18713 -0.35970137 -0.80974162
0 -0 -0
2.92764 -0.55578679 -0.80979621
2.8375254 -0.42919552 -0.810287
2.7965026 -0.31551605 -0.82614303
6.04075 -1.3913692 1.9150921
6.3075161 -1.2006847 1.9070421
0.80794847 -0.12223038 0.23404932
0.81127542 -0.091927595 0.22536783
7.0208697 -1.612476 1.9233435
7.3350883 -1.3982811 1.911689
7.7802081 -1.1830012 1.9348608
0 -0 0
8.2924862 -1.9043745 1.9322683
8.199976 -1.5619673 1.8081305
8.140975 -1.241055 1.7016454
8.0320568 -0.92561179 1.5896269
8.2718029 -1.8976488 1.5989736
8.2056046 -1.5652657 1.4876952
8.1366091 -1.2446039 1.3852671
8.0627432 -0.93228519 1.2878451
8.2530937 -1.894115 1.2742645
8.2168961 -1.5717304 1.1751503
7.6543846 -1.174943 1.0129223
7.6439023 -0.89075077 0.93318123
7.775691 -1.7859778 0.90208596
7.7142758 -1.4757285 0.81178701
7.6705961 -1.1805834 0.72815639
7.6147356 -0.89112395 0.64756405
7.8052053 -1.7940477 0.61089581
7.7171774 -1.4787968 0.52341557
7.669704 -1.1823646 0.44405916
7.6349158 -0.89605212 0.36548302
7.7861648 -1.7922467 0.31545544
7.7458 -1.4882064 0.23602362
7.6859546 -1.1888528 0.15992481
7.6456876 -0.90056324 0.083981402
7.7929235 -1.7949482 0.022750529
7.7347937 -1.4890314 -0.053754102
7.6949992 -1.1934148 -0.1253186
7.6621618 -0.9053511 -0.19785926
7.8138409 -1.804075 -0.27163583
7.7566185 -1.4961815 -0.3420032
7.7259769 -1.2030528 -0.41333878
7.6565242 -0.906582 -0.48101991
7.8132663 -1.8094014 -0.56616127
7.7559261 -1.5002605 -0.632819
7.7184877 -1.2031283 -0.7000612
7.6968255 -0.91366971 -0.7698139
7.6293697 -1.7690594 -0.84278333
7.6288171 -1.4791268 -0.91011941
7.5858207 -1.1844831 -0.97183001
5.8195658 -0.6922673 -0.80040514
0 -0 -0
5.14644 -1.0008094 -0.80966836
4.8851199 -0.76470548 -0.81299001
4.6201105 -0.55032188 -0.81145269
1.4426125 -0.33692095 -0.27090523
4.086514 -0.7966882 -0.80205542
3.9794426 -0.62542349 -0.81546545
3.83322 -0.45781323 -0.82197511
1.3268751 -0.31123406 -0.30224484
3.4325061 -0.67080271 -0.80995512
3.3741846 -0.53066111 -0.82551444
3.1145804 -0.37088126 -0.7918725
0 -0 -0
2.9326971 -0.57541215 -0.81215638
2.8338881 -0.44644845 -0.81001526
2.8097587 -0.33448389 -0.83064973
6.0181532 -1.4251059 1.9106646
6.2821589 -1.2358485 1.9016324
0 -0 0
0.79442471 -0.094958812 0.22084451
7.0503359 -1.6648505 1.9341778
7.3548856 -1.4488792 1.9191296
7.7545795 -1.2278318 1.9303244
8.0844469 -0.9760797 1.918059
8.2863388 -1.9565649 1.933597
8.2094164 -1.6160274 1.8123646
8.1477146 -1.2932867 1.7046809
8.0827217 -0.98174006 1.6008159
8.2714806 -1.9510752 1.6011955
8.2180614 -1.6199641 1.4917278
8.146349 -1.2972974 1.3882544
8.1107931 -0.98831016 1.2964642
8.2557526 -1.9481257 1.2764965
8.2148705 -1.6236548 1.1762632
7.6636763 -1.2245469 1.0151272
7.6313958 -0.93678945 0.9323386
7.7752233 -1.8361671 0.9033218
7.7323985 -1.5284355 0.81466568
7.6710725 -1.228887 0.72890371
7.6308823 -0.94051194 0.64941573
7.8018126 -1.8437402 0.61150426
7.7285128 -1.5301903 0.52481133
7.6839919 -1.2328824 0.44531602
7.651083 -0.94557756 0.3665278
7.7905788 -1.8436698 0.31608665
7.7492685 -1.5382357 0.23641245
7.6883864 -1.2375795 0.1601304
7.6529183 -0.94905919 0.084123209
7.7914939 -1.8450352 0.022778977
7.7637615 -1.5440705 -0.054020245
7.6904926 -1.2410859 -0.12536687
7.6505103 -0.95160782 -0.19770545
7.8210998 -1.8563712 -0.27227902
7.7619891 -1.5466757 -0.34265199
7.7332358 -1.2528312 -0.41413063
7.6617117 -0.95490229 -0.48170486
7.8185139 -1.8612357 -0.56735837
7.7710118 -1.5527045 -0.63481528
7.7335725 -1.2541325 -0.70211411
7.7019358 -0.96223634 -0.77090102
7.6744671 -1.8292094 -0.84898895
7.6838732 -1.5387805 -0.91779679
7.3531823 -1.1944214 -0.94294757
7.5288029 -0.94247442 -1.0362642
0 -0 -0
0 -0 -0
4.8394308 -0.78800505 -0.80617595
4.5882998 -0.57510698 -0.80647027
1.4711267 -0.35311329 -0.27666152
7.5672297 -1.5235277 -1.4870182
3.9087877 -0.63891965 -0.80177522
3.7798755 -0.47498357 -0.81114596
0 -0 -0
3.5133173 -0.70900333 -0.83003479
3.3372905 -0.54586309 -0.81729221
3.2103755 -0.40228125 -0.81684035
3.0390284 -0.73557281 -0.817963
2.9432983 -0.59627008 -0.81609005
2.8538883 -0.46756271 -0.81653666
2.8076534 -0.35171795 -0.83064973
5.9981551 -1.4592955 1.9071224
6.2782149 -1.275135 1.9027712
0 -0 0
0.80626053 -0.10139515 0.22430351
6.9836531 -1.6944109 1.9187002
7.3610458 -1.4970698 1.9230977
7.7152796 -1.2701843 1.9224455
8.1024466 -1.0287316 1.9237908
8.2722826 -2.0069122 1.933154
8.2156277 -1.6696779 1.8159633
8.1483221 -1.3446908 1.7065021
8.0891991 -1.032932 1.6033239
8.2526684 -2.0001709 1.5998994
8.2185783 -1.6725183 1.4936564
8.1606121 -1.3509623 1.3920715
8.1133928 -1.0391877 1.2978746
8.2801628 -2.0075998 1.2821513
8.2193079 -1.6769994 1.1783499
7.6687341 -1.2736592 1.0168132
7.6461802 -0.98626411 0.93486655
7.8082309 -1.8946187 0.90849012
7.7462654 -1.5806247 0.81713313
7.6702623 -1.2770773 0.72955757
7.648684 -0.99038738 0.65143567
7.8058567 -1.895341 0.6127212
7.7551489 -1.5849754 0.52727056
7.7068095 -1.2850977 0.44708696
7.6382031 -0.99160576 0.36619535
7.8043637 -1.897575 0.31711239
7.7573099 -1.5893667 0.23695084
7.6944532 -1.2870404 0.16041821
7.6657906 -0.99845254 0.084330462
7.8120909 -1.9006091 0.022872858
7.7747116 -1.5959014 -0.054163553
7.6975241 -1.2907307 -0.12560824
7.6375885 -0.99762625 -0.19752599
7.8241272 -1.9078772 -0.27278683
7.7699676 -1.5978956 -0.34343055
7.7421441 -1.3030756 -0.41502804
7.6804485 -1.0051334 -0.48326153
7.8524876 -1.9203113 -0.57066804
7.7642674 -1.6009612 -0.63505489
7.7335896 -1.3028849 -0.70282823
7.7087131 -1.0111588 -0.77218586
7.6273661 -1.8675158 -0.84503019
7.4885087 -1.5475075 -0.89557886
7.5746269 -1.2781438 -0.9723323
5.8076854 -0.76324284 -0.79999918
0 -0 -0
0 -0 -0
4.8286672 -0.81669706 -0.80520248
4.6022658 -0.60556269 -0.80956286
1.4612916 -0.36024964 -0.27522245
4.0648928 -0.84437948 -0.79978544
3.9791982 -0.67552263 -0.81705272
3.798223 -0.50098133 -0.81572753
3.5433609 -0.8771475 -0.80952257
3.3906338 -0.70592427 -0.80205864
3.3166294 -0.56339997 -0.81306362
3.192466 -0.41994894 -0.81292379
3.0429077 -0.75630629 -0.82024074
2.9688666 -0.6204381 -0.82421941
2.8595045 -0.48651782 -0.81898224
2.8016372 -0.36843836 -0.82952309
5.9872341 -1.4956088 1.9065319
6.2702727 -1.3136334 1.9027712
6.5440044 -1.1135845 1.9013065
0.78364295 -0.10343903 0.21818373
6.9749999 -1.7376971 1.9192163
7.338448 -1.5394237 1.9196255
7.6901116 -1.3145553 1.918148
8.098875 -1.0788134 1.9244785
8.2863073 -2.0642326 1.939355
8.210968 -1.7212598 1.8172337
8.1534309 -1.396978 1.7093351
8.1031313 -1.0852823 1.6073751
8.2698021 -2.0581281 1.6056391
8.2206879 -1.7255442 1.4959358
8.1745224 -1.404851 1.3958886
8.1186104 -1.0905287 1.2997551
8.2772837 -2.0607572 1.2836396
8.2369652 -1.7333142 1.1823838
7.6871581 -1.3252381 1.0203151
7.6449032 -1.0338268 0.93546844
7.8089929 -1.9456162 0.90995067
7.753942 -1.6318125 0.81898367
7.6838655 -1.327847 0.73161268
7.6474004 -1.0379703 0.65185648
7.8095598 -1.9470606 0.61393809
7.7774968 -1.6393212 0.52946395
7.7036982 -1.3332129 0.44737262
7.6379137 -1.0392623 0.36648029
7.8245659 -1.953413 0.3184143
7.7689266 -1.6414806 0.23760888
7.7189178 -1.339871 0.16109665
7.6753721 -1.0476339 0.084504984
7.8264771 -1.9550511 0.022949671
7.7872739 -1.6483389 -0.05432051
7.707191 -1.3410227 -0.12589788
7.6659884 -1.0492153 -0.19842325
7.832633 -1.9609463 -0.27349773
7.7971549 -1.6534165 -0.34507415
7.7408891 -1.3517584 -0.41539755
7.6978679 -1.0554948 -0.48475596
7.8531346 -1.971615 -0.57158351
7.7728233 -1.6525102 -0.63657206
7.7342796 -1.3518562 -0.70363158
7.78616 -1.0699546 -0.78058672
7.6774769 -1.9297934 -0.85187775
7.586699 -1.6164002 -0.90849084
6.591373 -1.1538687 -0.84700781
7.4940944 -1.0316856 -1.0331519
0 -0 -0
0 -0 -0
4.8089867 -0.84375203 -0.80276889
4.6179814 -0.63648039 -0.81299907
4.2293482 -1.070224 -0.79778534
4.0970821 -0.87732393 -0.80716282
3.9141667 -0.68921793 -0.80455291
3.7262874 -0.5147742 -0.80094153
3.5388587 -0.89911312 -0.80973911
3.4186246 -0.73366588 -0.80972952
3.3303406 -0.58677572 -0.81729221
3.1763823 -0.43767676 -0.80949688
3.023211 -0.77113718 -0.81619143
2.9584002 -0.63722068 -0.82238376
2.8024447 -0.49452171 -0.80349386
2.8031259 -0.38614571 -0.83064973
5.969615 -1.5301826 1.9038755
6.2667794 -1.353094 1.9041948
6.5389419 -1.1540509 1.9018574
0.79158735 -0.10943348 0.22057843
6.9707589 -1.7821374 1.9210219
7.310873 -1.5805331 1.9149133
7.6857252 -1.3623941 1.919103
8.1171684 -1.1319823 1.9304395
8.2876577 -2.1186604 1.942677
8.2155361 -1.774911 1.8206208
8.1707392 -1.4516053 1.7147987
8.1264429 -1.1392046 1.6133555
8.3093853 -2.1222064 1.6158224
8.2647934 -1.7878176 1.5059297
8.175457 -1.4567124 1.3975482
8.1215467 -1.141698 1.3013222
8.2961006 -2.1195848 1.2885503
8.2445621 -1.78781 1.1850266
7.7042603 -1.3769164 1.0236871
7.6511941 -1.0825235 0.93703341
7.8084602 -1.9964485 0.91129893
7.7583652 -1.6825212 0.82052583
7.7049747 -1.380236 0.73441505
7.6537127 -1.0866953 0.65295064
7.8351393 -2.004581 0.61690432
7.767292 -1.6870122 0.52946395
7.7258363 -1.3859215 0.44914362
7.6521597 -1.0890636 0.3674776
7.8356643 -2.0073383 0.31936115
7.7753124 -1.6927336 0.23811735
7.7194071 -1.3888015 0.16128168
7.673749 -1.0954158 0.08455953
7.8414569 -2.009989 0.023029327
7.7926455 -1.6994989 -0.054429699
7.7273531 -1.3934337 -0.12636451
7.6801877 -1.0992074 -0.1989616
7.8407812 -2.0141916 -0.27420864
7.8093123 -1.7061324 -0.34606898
7.7442408 -1.401364 -0.41603103
7.7070541 -1.1049745 -0.48575228
7.8640733 -2.0257356 -0.57327354
7.7839589 -1.704864 -0.63832873
7.754261 -1.4044352 -0.70622009
7.8070283 -1.121672 -0.7833541
7.6876349 -1.9825758 -0.85433859
7.6270843 -1.6739929 -0.91453969
7.6384163 -1.385519 -0.98262948
7.6043258 -1.0944453 -1.0492547
0 -0 -0
0 -0 -0
4.8017769 -0.87289047 -0.80244434
4.6052132 -0.66353935 -0.81145269
4.287447 -1.1129615 -0.81001747
4.0925808 -0.90265816 -0.80735195
3.8481545 -0.70196503 -0.79185462
3.7888851 -0.54713428 -0.81510276
3.5030439 -0.91293162 -0.80281085
3.3569834 -0.74201268 -0.79619271
3.3123345 -0.6045813 -0.81376839
3.1899512 -0.45950851 -0.81365818
3.0156147 -0.78893816 -0.81543219
2.9346504 -0.65097255 -0.81687677
2.8249183 -0.51638019 -0.81083047
2.8092511 -0.40456903 -0.83318484
5.9979997 -1.5767419 1.9159776
6.2536802 -1.3904804 1.9027712
6.5402484 -1.1957074 1.9043355
0 -0 0
6.9438047 -1.8207097 1.9166366
7.2991467 -1.6249411 1.9144173
7.6886826 -1.4116315 1.9219681
8.1206656 -1.183311 1.9329616
8.2773323 -2.1702147 1.9433415
8.2102146 -1.8265606 1.821891
8.1867208 -1.5063202 1.7200601
8.1455126 -1.1928848 1.6185642
8.3095169 -2.1766381 1.6184145
8.2738485 -1.8429909 1.5096117
8.199337 -1.5129325 1.4031909
8.1358852 -1.194666 1.3047698
8.313549 -2.1784697 1.2933121
8.2566328 -1.8435431 1.1883652
7.700541 -1.425065 1.0243355
7.6719055 -1.1335127 0.940404
7.8345098 -2.0544045 0.91579306
7.7828436 -1.7378979 0.82422698
7.7227917 -1.4323893 0.73693722
7.6725287 -1.1374364 0.65513891
7.8381238 -2.056668 0.61812133
7.7636104 -1.736164 0.52992916
7.7319102 -1.4360348 0.45000052
7.6818905 -1.1414278 0.36923474
7.8396292 -2.0596957 0.32003182
7.788188 -1.745657 0.23883522
7.7166376 -1.4372392 0.16140503
7.6836967 -1.1449859 0.084744968
7.84445 -2.0621331 0.023074845
7.7791438 -1.7466245 -0.054409225
7.7275043 -1.4424729 -0.12650934
7.6980162 -1.150004 -0.19960251
7.8447046 -2.066592 -0.27478415
7.8123426 -1.7570864 -0.34667453
7.7619977 -1.453819 -0.41745633
7.727767 -1.156379 -0.48749578
7.8543882 -2.0747147 -0.57348478
7.8083582 -1.7604861 -0.6412034
7.7543082 -1.4536396 -0.70702344
7.7832689 -1.1670455 -0.78167391
7.682054 -2.0314882 -0.85508758
7.5992308 -1.7168206 -0.91244584
7.6336718 -1.4330937 -0.98313183
7.5827703 -1.1388767 -1.0472249
0 -0 -0
0 -0 -0
4.8293018 -0.90854007 -0.80796051
4.603004 -0.69207686 -0.81179637
1.5200042 -0.40454304 -0.28763443
4.1003709 -0.93079597 -0.81000024
3.8967459 -0.73556262 -0.80276716
3.8009312 -0.57270372 -0.81843483
2.9672992 -0.79278576 -0.68113351
1.4211224 -0.32327706 -0.3375189
3.2885046 -0.62110561 -0.80883503
3.1046145 -0.46667826 -0.79260683
2.5631275 -0.68739033 -0.69420558
0 -0 -0
2.8557384 -0.54014266 -0.82061261
2.7592731 -0.41466886 -0.81910127
5.9817543 -1.6117753 1.9139113
6.2179313 -1.4226259 1.8945144
6.5157862 -1.2325987 1.899379
0 -0 0
6.9539628 -1.8690498 1.9225698
7.302259 -1.6727256 1.9178895
7.6922789 -1.4611377 1.925072
8.1238375 -1.234725 1.9354835
8.2695103 -2.222481 1.9446701
8.2541094 -1.8895526 1.8341696
8.2061853 -1.5620184 1.726131
8.1409502 -1.2432867 1.619143
8.3092918 -2.2311511 1.6210066
8.2815762 -1.8981223 1.5131183
8.216053 -1.5682062 1.4076717
8.1586666 -1.2491982 1.3096278
8.3200817 -2.2348268 1.2964373
8.2847366 -1.9032608 1.1940686
7.7072344 -1.4752704 1.0264107
7.6863918 -1.18389 0.94305241
7.8399897 -2.1073382 0.91792774
7.7749419 -1.786288 0.82453543
7.7402577 -1.4848129 0.7394594
7.660481 -1.1837318 0.6547181
7.8292079 -2.1057589 0.61842555
7.7644801 -1.7864527 0.53072679
7.7455039 -1.4877815 0.45131448
7.6925097 -1.191293 0.37008953
7.847105 -2.1132164 0.3208603
7.788044 -1.7958821 0.23916422
7.7518525 -1.4930696 0.16233017
7.7051811 -1.1965605 0.085061304
7.8567538 -2.1169913 0.023148812
7.7799726 -1.7970241 -0.054491118
7.7391243 -1.4938403 -0.12684727
7.7224236 -1.202137 -0.20042287
7.8531032 -2.1204188 -0.27552891
7.8130946 -1.8076915 -0.34719357
7.7705784 -1.504836 -0.41840655
7.7392631 -1.2066953 -0.48867887
7.8646188 -2.1291254 -0.57517481
7.820714 -1.813769 -0.64311987
7.7696886 -1.5059298 -0.70925492
7.7032065 -1.2034148 -0.77436024
7.70783 -2.0889895 -0.85936725
7.5111589 -1.7454314 -0.90313995
7.663691 -1.4874672 -0.98815483
7.6490569 -1.19687 -1.0573738
0 -0 -0
0 -0 -0
4.814919 -0.9364596 -0.80650038
4.6424675 -0.72716743 -0.8195278
0 -0 -0
1.4219161 -0.33196628 -0.2812869
3.9441063 -0.76959491 -0.81348139
3.807008 -0.59753162 -0.82051736
1.5226214 -0.41683128 -0.3500931
1.362196 -0.3186757 -0.32398206
3.304666 -0.64518321 -0.81376839
3.1907775 -0.49966955 -0.81537163
1.438485 -0.39525592 -0.39025339
0 -0 -0
2.8523705 -0.55765498 -0.82061261
2.7538328 -0.43114641 -0.81825626
5.9109659 -1.6316689 1.8944298
6.2128181 -1.4616299 1.8956534
6.5467825 -1.2801193 1.9106685
6.9249697 -1.0876024 1.9349171
6.943295 -1.9119397 1.9228277
7.3173175 -1.7234966 1.9245858
7.6898389 -1.5096185 1.9267433
8.1180305 -1.284853 1.9359419
8.2688799 -2.2768042 1.9477706
8.265192 -1.9455378 1.8392504
8.2147036 -1.6159326 1.7299758
8.1409206 -1.2944478 1.6206862
8.3191338 -2.2886107 1.6256355
8.2851067 -1.9525149 1.5159237
8.214983 -1.6203067 1.4091653
8.1791325 -1.303744 1.3141725
8.331954 -2.2929199 1.3004551
8.2786846 -1.9554249 1.1949031
7.7087369 -1.5246495 1.0278373
7.6770225 -1.2307162 0.94281161
7.8355346 -2.1577783 0.91893905
7.7686758 -1.8351039 0.82504946
7.7456508 -1.5351816 0.74086058
7.6678305 -1.2330865 0.65598053
7.8382492 -2.1598506 0.62017483
7.7825022 -1.8409516 0.53272069
7.7479801 -1.537611 0.45200002
7.6978755 -1.2405369 0.37070689
7.859035 -2.1682351 0.32188606
7.7924395 -1.8473239 0.23964278
7.7631369 -1.5447034 0.16276188
7.7105269 -1.2458897 0.085203104
7.8407254 -2.1643615 0.02314028
7.820364 -1.8569715 -0.054852795
7.7425599 -1.5438403 -0.12705645
7.7188497 -1.2501376 -0.20052542
7.8707695 -2.1770909 -0.27661222
7.8251824 -1.8611457 -0.34823164
7.7739286 -1.5550333 -0.4190928
7.7553573 -1.2579951 -0.49017328
7.8831277 -2.1861384 -0.57749861
7.8307691 -1.8668071 -0.64487654
7.7886238 -1.5592453 -0.71184343
7.7045174 -1.2520946 -0.77524972
7.7600126 -2.1543303 -0.86664277
7.6877189 -1.8362502 -0.9257068
7.6806836 -1.5397277 -0.99154538
7.6533036 -1.2456912 -1.0589975
0 -0 -0
1.4301406 -0.34244069 -0.22710395
4.7510366 -0.95432633 -0.79676592
4.6174994 -0.7523126 -0.81591976
2.9133179 -0.81377953 -0.55314314
0 -0 -0
3.953722 -0.7966851 -0.81645751
3.8302982 -0.62529206 -0.82634842
0 -0 -0
3.3844345 -0.81369841 -0.80611968
3.3482871 -0.6750533 -0.82551444
3.2087047 -0.52266777 -0.82075685
1.4583834 -0.410364 -0.39632738
2.7955279 -0.67433101 -0.78147441
2.8668184 -0.57876474 -0.82577533
2.7378769 -0.44587624 -0.81431276
5.9275064 -1.6754438 1.90299
6.2083912 -1.5008496 1.8970768
6.5369201 -1.319885 1.9101179
6.8201776 -1.1140664 1.9075111
6.9156241 -1.9500494 1.9184422
7.2877731 -1.7638047 1.9196255
7.6442657 -1.5494435 1.9176706
8.1311245 -1.3381174 1.9409859
8.250061 -2.326175 1.9466633
8.2777967 -2.0021894 1.8447547
8.2238283 -1.6702048 1.734023
8.1725159 -1.3509363 1.6285958
8.3408785 -2.3497388 1.6326714
8.2930641 -2.0081804 1.5196058
8.229044 -1.6756016 1.4133145
8.1816969 -1.3556815 1.3158963
8.35009 -2.3531203 1.3055147
8.278079 -2.0089877 1.1965723
7.706037 -1.5733092 1.0287452
7.6947861 -1.2820404 0.94594145
7.8393612 -2.21067 0.92096138
7.8046346 -1.8942329 0.83008713
7.7497411 -1.5854729 0.74216837
7.6748629 -1.282576 0.65724307
7.8459611 -2.2138617 0.62184811
7.8020854 -1.8962098 0.53484756
