# .PCD v0.7 - Point Cloud Data file format
VERSION 0.7
FIELDS x y z
SIZE 4 4 4
TYPE F F F
COUNT 1 1 1
WIDTH 1555
HEIGHT 1
VIEWPOINT 0 0 0 1 0 0 0
POINTS 1555
DATA ascii
-0 0 -0
-0 0 -0
-0.094358236 0.82612044 -0.23477127
-0.11483062 0.75217736 -0.22336563
-0.090642989 2.4184401 0.74767703
-0.18321939 2.4145105 0.71919799
-0.27430564 2.402168 0.69251066
-0.36326778 2.3872175 0.66652471
-0 0 0
-0.18064809 2.3889146 0.6133377
-0.28697371 2.5299485 0.6260125
-0.35407367 2.3455117 0.55872697
-0 0 0
-0.18347017 2.421737 0.52607471
-0.28226635 2.4970095 0.51925582
-0.35859057 2.3870051 0.47457305
-0.092161417 2.4029243 0.45306718
-0.18136194 2.4022579 0.42903829
-0.27380711 2.4332099 0.41207838
-0.35709068 2.3832493 0.38237306
-0.090863965 2.3745065 0.35759166
-0.18231231 2.4312379 0.34247398
-0.27027899 2.4132273 0.31762442
-0.35825843 2.4056532 0.29492956
-0.092666499 2.432723 0.27526599
-0.18278655 2.4381332 0.25270674
-0.27880847 2.498451 0.23586848
-0.35213158 2.3724697 0.20258471
-0.091545068 2.413249 0.18421187
-0.1846655 2.4736195 0.16523315
-0.27167171 2.4399061 0.14047877
-0.35468552 2.3951457 0.11511575
-0.091505669 2.4323831 0.096104234
-0.18304169 2.4681141 0.074058354
-0.26498473 2.390852 0.049463827
-0.3493866 2.3662024 0.026092157
-0.091835961 2.4502699 0.0069756531
-0.18405417 2.4941602 -0.017067287
-0.26492453 2.3991044 -0.038844258
-0.34784284 2.361737 -0.061218955
-0.089763269 2.4289482 -0.082330301
-0.18099755 2.465049 -0.10700846
-0.26399767 2.4041719 -0.12785524
-0.34960958 2.3777628 -0.14994122
-0.088924527 2.4502852 -0.17308763
-0.21952386 3.011337 -0.24186862
-0 0 -0
-0.34440371 2.3471954 -0.23561898
-0.087272227 2.4234288 -0.26095578
-0.2328556 3.2135522 -0.37735525
-0.19751899 1.8057353 -0.22992903
-0.3396154 2.3185058 -0.32002673
-0.084925048 2.4132922 -0.34986913
-0.079803891 1.109943 -0.1718542
-0.10723916 0.98388439 -0.1627278
-0.14875834 1.0166655 -0.17919654
-0.036175095 1.0509399 -0.19229594
-0.064990662 0.90990937 -0.17573336
-0.097895443 0.90328109 -0.18392615
-0.13084374 0.89619631 -0.19284239
-0 0 -0
-0.06393154 0.90083319 -0.20914441
-0.098247685 0.90741831 -0.22059138
-0.13001715 0.88836527 -0.22666891
-0 0 -0
-0 0 -0
-0.094041213 0.87069714 -0.24727067
-0.11049114 0.75476652 -0.22392897
-0 0 0
-0.17073412 2.4490595 0.72916311
-0.26141876 2.4210103 0.69746703
-0.3682358 2.5238948 0.70404166
-0 0 0
-0.16893984 2.4325008 0.62425035
-0.2688567 2.5075231 0.62004364
-0.34385669 2.3765399 0.56560498
-0.076155707 2.3811197 0.54103512
-0.16942142 2.4345169 0.52861518
-0.26902026 2.5181699 0.52330303
-0.350229 2.4328647 0.48325428
-0.079978213 2.4830029 0.46806452
-0.16818464 2.425915 0.43307093
-0.25918484 2.4377859 0.41257626
-0.34933791 2.4332991 0.39005187
-0.076673545 2.3868797 0.35937741
-0.17371413 2.5241895 0.35541064
-0.25400621 2.4010355 0.31580871
-0.34825772 2.4412208 0.2990225
-0.076405197 2.3915334 0.27054715
-0.16720852 2.4302776 0.25178146
-0.26201218 2.4862528 0.2345607
-0.33925068 2.3864241 0.20359468
-0.076387413 2.4028025 0.18337521
-0.17289296 2.5244787 0.16855642
-0.25669563 2.4415271 0.14047877
-0.33984226 2.3962879 0.11506826
-0.076044701 2.4159205 0.095433556
-0.16708048 2.4572239 0.073699437
-0.24968553 2.3864667 0.049340475
-0.34270084 2.4237466 0.026703009
-0.076956257 2.4557846 0.0069898772
-0.1680721 2.4852655 -0.016999045
-0.25310099 2.4285305 -0.039294813
-0.33641598 2.3856041 -0.061782949
-0.074026763 2.4024816 -0.081416272
-0.16244958 2.4152756 -0.10480254
-0.25006422 2.4136927 -0.12827756
-0.33779582 2.3996296 -0.15118659
-0.072505407 2.4049199 -0.1698484
-0.21000281 3.1468976 -0.2526485
-0.24678107 2.3856585 -0.21493655
-0.44709909 3.1829381 -0.31923211
-0.071955435 2.4090114 -0.25935087
-0.21181923 3.1950998 -0.37502876
-0.21199273 2.0546114 -0.2614485
-0.31148711 2.2214446 -0.30635965
-0.071179003 2.4503703 -0.35517454
-0.074547686 1.1340796 -0.17551719
-0.10362168 1.0080818 -0.1666216
-0.14074105 1.0048763 -0.17696302
-0.030365536 1.0737579 -0.19643328
-0.061260793 0.93870699 -0.18121912
-0.09364628 0.91654032 -0.18650548
-0.12913238 0.92410487 -0.19867349
-0 0 -0
-0.058150917 0.89731979 -0.20824195
-0.092283227 0.90413606 -0.21965168
-0 0 -0
-0 0 -0
-0 0 -0
-0 0 -0
-0.10692314 0.76303214 -0.22618236
-0 0 0
-0.15047513 2.3677864 0.7046774
-0.23984243 2.3565769 0.67846769
-0.33421221 2.393405 0.66705686
-0 0 0
-0.15835549 2.502136 0.64185929
-0.244877 2.424103 0.5990333
-0.33634192 2.4297063 0.57775629
-0.062450908 2.4166365 0.54900777
-0.15367605 2.4228308 0.52586305
-0.23895414 2.3745887 0.49315134
-0.33087757 2.4028904 0.47688806
-0.064280316 2.4657643 0.46473181
-0.15608919 2.4711161 0.44096091
-0.2387206 2.3843818 0.40328249
-0.33104211 2.4109352 0.38613415
-0.062180579 2.3932364 0.36027023
-0.15258741 2.4352691 0.34275222
-0.23946546 2.4045222 0.31606808
-0.33622378 2.4649513 0.30167082
-0.061755221 2.3929503 0.27065951
-0.1526666 2.4372144 0.25239831
-0.24291943 2.4491737 0.23091759
-0.32580918 2.3973472 0.20435219
-0.061489258 2.3972454 0.18291888
-0.15479302 2.4836662 0.16576488
-0.24200475 2.4460368 0.14065015
-0.32741368 2.4151549 0.11587559
-0.060586765 2.3913689 0.094447263
-0.15181503 2.45521 0.073609702
-0.23719226 2.4098434 0.049792763
-0.32822433 2.4287767 0.026735734
-0.062138278 2.4662073 0.0070183259
-0.15177672 2.4692824 -0.016883034
-0.23663437 2.4141161 -0.039037354
-0.32177186 2.3876235 -0.061782949
-0.059234716 2.4008923 -0.081348568
-0.15195252 2.4870286 -0.10787352
-0.23553982 2.4181635 -0.12843592
-0.32160196 2.3907762 -0.15050162
-0.058561753 2.4392252 -0.1722426
-0.19093095 3.152107 -0.25296792
-0.22866778 2.35144 -0.21172322
-0.42597207 3.1737864 -0.31804609
-0.056936804 2.3994677 -0.25828093
-0.191972 3.1923738 -0.37456346
-0 0 -0
-0 0 -0
-0.055235848 2.4111845 -0.34943897
-0.065648228 1.1019601 -0.17048059
-0.097908616 1.0136095 -0.1674328
-0.13156758 0.98326302 -0.17301142
-0.02305799 1.0414702 -0.1904971
-0 0 -0
-0.089612596 0.93368345 -0.18987845
-0.12294208 0.92100191 -0.19784047
-0 0 -0
-0 0 -0
-0.084507495 0.88146347 -0.21401358
-0 0 -0
-0 0 -0
-0.045455232 0.78516263 -0.21372537
-0.080326781 0.8401714 -0.23830372
-0.10465837 0.78174335 -0.23153411
-0 0 0
-0.13896482 2.4213023 0.72033691
-0.23031752 2.4096811 0.69333673
-0.32869676 2.4642057 0.68621445
-0 0 0
-0.13670065 2.3928022 0.61358577
-0.23119007 2.4381278 0.60213709
-0.31887615 2.4124248 0.57317084
-0.047198907 2.3955245 0.54413557
-0.13886283 2.4247038 0.52607471
-0.22576053 2.390635 0.49618676
-0.32111493 2.4428165 0.48441178
-0 0 0
-0.13873847 2.4336936 0.43412295
-0.22353251 2.3799107 0.40228674
-0.32086304 2.4481745 0.3917757
-0.04729861 2.3836861 0.35878214
-0.13685994 2.4223175 0.34080473
-0.22562915 2.4158187 0.31736502
-0.31981149 2.4571235 0.30046701
-0.047637846 2.4220951 0.27391776
-0.13855065 2.4530017 0.25394046
-0.22696514 2.4407046 0.22998345
-0.31519327 2.4309227 0.20704544
-0.047109541 2.414525 0.18421187
-0.1380958 2.4586675 0.16403678
-0.227176 2.4494638 0.14076442
-0.31207597 2.413156 0.11568563
-0.045874108 2.3896978 0.094368361
-0.13580266 2.4391289 0.073101215
-0.22350317 2.4232001 0.050039463
-0.31395459 2.4357035 0.026790274
-0.04704285 2.4685419 0.0070240162
-0.13551815 2.4501982 -0.016746551
-0.22154288 2.4125357 -0.038989078
-0.30520412 2.3746803 -0.061398413
-0.044576082 2.4052074 -0.081483975
-0.13542897 2.4649701 -0.1068787
-0.22196776 2.4334857 -0.12917496
-0.30756131 2.3976543 -0.15081297
-0.043344334 2.4255757 -0.17125675
-0.17023233 3.1283357 -0.25097165
-0.22037695 2.420248 -0.21779284
-0.40131104 3.1358709 -0.3139939
-0.042317796 2.4057367 -0.2589229
-0.17189854 3.1845658 -0.37351653
-0.18174011 2.001729 -0.25441626
-0.1974609 1.5459726 -0.21285498
-0.040655784 2.4243419 -0.35130301
-0.059096362 1.1062895 -0.17109109
-0.091598533 1.0132084 -0.16727054
-0 0 -0
-0.017044943 1.0651976 -0.19481432
-0 0 -0
-0.082479522 0.91859668 -0.18670389
-0.11728861 0.92173892 -0.19784047
-0 0 -0
-0 0 -0
-0.081441611 0.90810484 -0.22035645
-0 0 -0
-0 0 -0
-0 0 -0
-0.073284388 0.81956035 -0.23232573
-0.099373765 0.77856362 -0.23040742
-0 0 0
-0.12287903 2.3981755 0.71321893
-0.2116759 2.3679602 0.68094581
-0.31223303 2.4556572 0.68328756
-0 0 0
-0.12319977 2.416816 0.61953807
-0.2108243 2.3785613 0.58709562
-0.3135547 2.4896634 0.59105378
-0.032512587 2.3967443 0.54435706
-0.1240324 2.426486 0.52628642
-0.20927978 2.3714893 0.49193722
-0.30502284 2.4359782 0.48267552
-0.032268479 2.3396096 0.44084716
-0.12640306 2.4856277 0.44324023
-0.21004592 2.3940082 0.40444422
-0.30852666 2.4716582 0.39522332
-0.032590393 2.3779991 0.35788929
-0.12443419 2.4715738 0.34762082
-0.21011256 2.4092553 0.31632748
-0.30240923 2.4403212 0.29817984
-0.032452606 2.3984957 0.27122125
-0.12319672 2.4478455 0.25332361
-0.2125877 2.4489946 0.23063734
-0.29160511 2.3625958 0.20106974
-0.032133404 2.4028044 0.18329917
-0.12539944 2.5073025 0.1672271
-0.21455279 2.4786618 0.14236401
-0.30092412 2.444767 0.11711033
-0.031066809 2.3789434 0.093934387
-0.12024061 2.4279366 0.072742298
-0.20777333 2.4145648 0.049833879
-0.30046442 2.4494941 0.026921172
-0.032114889 2.4857826 0.0070723789
-0.12097242 2.4609714 -0.016814793
-0.20810083 2.4297891 -0.039246541
-0.29536015 2.4152069 -0.062398214
-0.029804779 2.4044363 -0.081450127
-0.1204477 2.4687483 -0.10700846
-0.20610133 2.423857 -0.12859429
-0.29417381 2.4103942 -0.15149792
-0.028706215 2.4467423 -0.17273553
-0.1496885 3.1014433 -0.24873582
-0 0 -0
-0.30341288 2.4922462 -0.24935682
-0.027521517 2.4029684 -0.25860193
-0.15230772 3.1845682 -0.37340021
-0 0 -0
-0.19167572 1.5776458 -0.21704984
-0.025821626 2.4285042 -0.35187662
-0.051513944 1.0898492 -0.16849649
-0.096145533 1.1415765 -0.18836188
-0.11877955 0.97893572 -0.17198056
-0.01138199 1.1538098 -0.21100388
-0 0 -0
-0.077086546 0.92201561 -0.18729913
-0.1112782 0.91952825 -0.19721571
-0 0 -0
-0 0 -0
-0.07441216 0.89115185 -0.21612786
-0.1053727 0.86818814 -0.22079413
-0 0 -0
-0 0 -0
-0 0 -0
-0.094941646 0.78201628 -0.23125245
-0.01638275 2.4153054 0.7462011
-0.10850721 2.4065452 0.71549666
-0.19690323 2.3663404 0.68011975
-0.29229942 2.4173336 0.67211229
-0.017614132 2.376678 0.63457954
-0.10849829 2.4204297 0.62028211
-0.19846013 2.4069085 0.59378076
-0.29861963 2.4944398 0.59174162
-0.017820314 2.3988488 0.54479998
-0.10879021 2.4193909 0.52459282
-0.19816898 2.4146981 0.50063872
-0.29470763 2.4767776 0.49039215
-0.018085325 2.3623652 0.44510564
-0.1092146 2.4430814 0.43552563
-0.19783762 2.4257209 0.40958899
-0.28951654 2.4411392 0.39005187
-0.018080974 2.3890314 0.35952622
-0.10686173 2.4178786 0.33997008
-0.19604644 2.419394 0.31749475
-0.28917056 2.4569194 0.2999855
-0.017639594 2.3857324 0.26976067
-0.1082625 2.4505424 0.25352922
-0.19747694 2.4492605 0.23054394
-0.28823814 2.4593496 0.20914957
-0.017504917 2.4189095 0.18451609
-0.10843846 2.4721389 0.16483435
-0.19742016 2.4560478 0.14099294
-0.28267124 2.4187882 0.11578061
-0.016510803 2.3850846 0.094171099
-0.10516755 2.4246342 0.072622657
-0.19319274 2.4187841 0.049895555
-0.28334719 2.4334133 0.026724825
-0.016861808 2.4859328 0.0070723789
-0.10501057 2.4416859 -0.016678307
-0.19532661 2.457932 -0.039681002
-0.28088093 2.4199529 -0.062475123
-0.015175986 2.4245622 -0.082127184
-0.1028289 2.4115477 -0.10449977
-0.19216694 2.4370222 -0.12922776
-0.28075632 2.424051 -0.15224513
-0.01329084 2.3750522 -0.16766542
-0.10603445 2.5176959 -0.20186329
-0 0 -0
-0.27920783 2.4169557 -0.24164782
-0.012781949 2.4040864 -0.25870892
-0.10058685 2.4133949 -0.28290009
-0.18912205 2.4112959 -0.30615345
-0 0 -0
-0.010915668 2.4276273 -0.35173318
-0 0 -0
-0.082843348 1.0614766 -0.17505811
-0 0 -0
-0.0061176103 1.64078 -0.30004644
-0 0 -0
-0.070898056 0.91563088 -0.18591025
-0.10429543 0.90853345 -0.19471668
-0 0 -0
-0 0 -0
-0.069167569 0.89449906 -0.21683262
-0.10558926 0.91697896 -0.23303325
-0 0 -0
-0 0 -0
-0 0 -0
-0.093874522 0.81499314 -0.24082927
-0.0015624067 2.4153605 0.7462011
-0.093701586 2.4062078 0.71521193
-0.18548113 2.4077611 0.6916846
-0.28185517 2.4573889 0.68275547
-0.0030566503 2.3970308 0.63999671
-0.093270339 2.4113696 0.61780196
-0.18361402 2.4071124 0.59354192
-0.28539398 2.514601 0.59609771
-0.0031021801 2.3998883 0.54502147
-0.092692003 2.387785 0.51760674
-0.1823855 2.4031742 0.49800801
-0.27092841 2.4024868 0.47534475
-0.0036360736 2.3928959 0.45084539
-0.092742741 2.405338 0.42868766
-0.17968826 2.3836219 0.40228674
-0.27706939 2.4654436 0.39365622
-0.0034345596 2.3979971 0.3608655
-0.090555429 2.3798962 0.33454508
-0.18401033 2.4581254 0.32242316
-0.26782045 2.4024105 0.2931239
-0.0030256787 2.405669 0.27200773
-0.092165716 2.4233294 0.25065055
-0.18281445 2.4553905 0.23101099
-0.27622008 2.4888022 0.21150617
-0.0026580482 2.4149833 0.18421187
-0.090973578 2.411936 0.16077997
-0.18190311 2.4512391 0.14065015
-0.27188909 2.4572113 0.11753774
-0.0018892474 2.4021277 0.094841778
-0.089693308 2.4092519 0.072144084
-0.17996439 2.44186 0.050347842
-0.26348075 2.3903799 0.026233962
-0.0015964506 2.4679897 0.0070211715
-0.090137199 2.4452822 -0.01669878
-0.17673302 2.4112189 -0.038908623
-0.26831949 2.4424984 -0.063013487
-0.00029714208 2.4106176 -0.081653245
-0.088831589 2.4340982 -0.10545135
-0.17612419 2.4232156 -0.12843592
-0.26326749 2.401917 -0.1507507
0.0013066941 2.4199774 -0.17083424
-0.088075899 2.4485679 -0.19627371
-0.23083346 3.1828518 -0.28598702
-0.26188546 2.3958716 -0.23937467
0.0019646015 2.398154 -0.25806698
-0.085670836 2.4109888 -0.28255114
-0.22945146 3.1753185 -0.40297228
-0.16166662 1.4823679 -0.20365338
0.0039931596 2.4355659 -0.35288033
-0.083698712 2.3931499 -0.36980703
-0.073923528 1.0285019 -0.16954193
-0 0 -0
0.0034480854 1.4322454 -0.26191103
-0 0 -0
-0.065905526 0.92484742 -0.18769594
-0.097768582 0.90040505 -0.19284239
0 0 -0
-0 0 -0
-0 0 -0
-0.099750802 0.9156819 -0.23254371
0 0 -0
-0 0 -0
-0 0 -0
-0.087312892 0.80124587 -0.2366042
0.012943328 2.3579988 0.72849065
-0.079281263 2.4172764 0.71834379
-0.1708398 2.4107718 0.69223529
-0.26126149 2.4082804 0.66865325
0.011439982 2.3535278 0.62838852
-0.07822068 2.4041505 0.61581784
-0.16632788 2.3723519 0.58470809
-0.262795 2.4495261 0.58027822
0.011547748 2.3842597 0.54147804
-0.078677438 2.407845 0.52184075
-0.16838576 2.4149942 0.50023395
-0.25441441 2.387517 0.47206512
0.011073749 2.3987694 0.4519563
-0 0 0
-0.16812348 2.4289498 0.40975493
-0.25484586 2.4003127 0.3829999
0.011195615 2.3801734 0.3581869
-0.074719325 2.3418057 0.32912001
-0.1697395 2.4710789 0.32397953
-0.25525707 2.4247413 0.29565185
0.011769218 2.4125981 0.27279422
-0.077136189 2.4188781 0.25013649
-0.1667954 2.4425595 0.2297032
-0.25782877 2.4607196 0.20898123
0.012200225 2.4229307 0.18482031
-0.076392934 2.4194298 0.16124523
-0.16882461 2.481195 0.14230688
-0.25566545 2.4479051 0.11701535
0.012898074 2.411087 0.095196843
-0.074504994 2.396769 0.071755253
-0.16369809 2.4239652 0.049957231
-0.24901558 2.3939404 0.026255777
0.013349275 2.4319537 0.0069187554
-0.074855201 2.436794 -0.016637363
-0.165819 2.47012 -0.039841913
-0.25250304 2.4361439 -0.062808394
0.014500144 2.4115734 -0.081687093
-0.073591478 2.4246113 -0.10501881
-0.16218017 2.4382002 -0.12917496
-0.25026977 2.4203644 -0.15180926
0.016288556 2.4398737 -0.1722426
-0.071891062 2.4102039 -0.19315952
-0.21123354 3.1832142 -0.28589773
-0.24707766 2.3964434 -0.23927581
0.016783087 2.4130101 -0.25967184
-0.07052552 2.3995557 -0.28115523
-0.21101063 3.1925054 -0.40498149
-0.13462472 1.3088802 -0.17970212
0.018783536 2.4157028 -0.35001254
-0.069155455 2.3985579 -0.37057018
-0.068775967 1.0466594 -0.17246227
-0.10275321 1.0005558 -0.17541674
0 0 -0
-0 0 -0
-0.058319502 0.89589298 -0.18174364
-0.094333835 0.92142069 -0.19721571
0 0 -0
-0 0 -0
-0 0 -0
-0 0 -0
0 0 -0
-0 0 -0
-0 0 -0
-0 0 -0
0.027522562 2.3674288 0.73144239
-0.062787279 2.3554301 0.69983721
-0.15498918 2.3954661 0.68755436
-0.24706814 2.4155917 0.67024976
0.026263217 2.3881929 0.63767505
-0.063314252 2.3987749 0.61432981
-0.16087809 2.5157857 0.61980492
-0.24648748 2.4385028 0.57729775
0.02612354 2.3792682 0.5403707
-0.0639017 2.4082825 0.52184075
-0.15368871 2.4179366 0.50063872
-0.240348 2.394891 0.47322264
0.025887206 2.4075 0.45362264
-0.061667189 2.347245 0.41816771
-0.1532786 2.4309196 0.4099209
-0.24364987 2.4372101 0.38864148
0.025735563 2.3741271 0.35729402
-0.060807984 2.360039 0.33162385
-0.15228453 2.4354579 0.31918079
-0.23812327 2.4035404 0.29288313
0.026583364 2.4134741 0.27290657
-0.062318381 2.4203002 0.25023928
-0.15316315 2.4653988 0.23175831
-0.24252972 2.4602721 0.20881291
0.026844047 2.4028695 0.18329917
-0.061241716 2.4078834 0.16044763
-0.15544693 2.512078 0.14402074
-0.23946863 2.4374988 0.11644547
0.027737888 2.4149592 0.095354646
-0.059523102 2.3861892 0.071426228
-0.14869936 2.4229283 0.049916115
-0.23957889 2.4491639 0.026844816
0.027934095 2.402828 0.0068362537
-0.059729919 2.4302096 -0.016589593
-0.15059866 2.470093 -0.039825823
-0.23658079 2.4276979 -0.062552035
0.029309148 2.4124384 -0.081720948
-0.058011688 2.3960528 -0.10376447
-0.1496231 2.4790213 -0.13128655
-0.23695895 2.4377487 -0.15280555
0.030517813 2.3818765 -0.16815835
-0.056817707 2.3986411 -0.19220132
-0.1908 3.1695373 -0.28455886
-0.23256068 2.3998952 -0.23947349
0.031432539 2.4009318 -0.25838795
-0.055431411 2.3840561 -0.27929404
-0.1906462 3.180866 -0.40334901
-0.12535183 1.2968609 -0.17794298
0.033192638 2.385855 -0.34571084
-0.055647586 2.4522908 -0.37881184
-0.12083362 2.0291128 -0.33421662
-0.095665738 0.99136168 -0.17369865
0 0 -0
-0 0 -0
-0.054608926 0.92656499 -0.18789434
-0.086805508 0.90251058 -0.19305065
0 0 -0
-0 0 -0
-0 0 -0
-0 0 -0
0 0 -0
-0 0 -0
-0 0 -0
-0.078119412 0.8089425 -0.23857592
0.041658036 2.3452437 0.72465336
-0.049277306 2.4017744 0.7135036
-0.14146779 2.4165256 0.69333673
-0.22901484 2.3834789 0.66093707
0.040601909 2.3696325 0.63277382
-0.048417892 2.3904011 0.61209768
-0.1365867 2.3635502 0.58208179
-0.23078491 2.4322174 0.57546359
0.040354799 2.3576128 0.53549856
-0.048844557 2.3949494 0.51887697
-0.13935474 2.4276333 0.50245988
-0.22739649 2.4148817 0.47688806
0.040028237 2.3699584 0.44658688
-0.048333719 2.4007318 0.42763564
-0.13892004 2.4416599 0.4115805
-0.2276765 2.4278426 0.38691768
0.040319238 2.3749135 0.35744286
-0.046636824 2.3762093 0.33384952
-0.13689151 2.4284265 0.31814322
-0.22318733 2.4029794 0.29264238
0.041374624 2.412272 0.27279422
-0.046959493 2.3947799 0.24756625
-0.13764341 2.4593337 0.23110442
-0.22742921 2.4617138 0.20881291
0.041656293 2.4066472 0.18360339
-0.046408322 2.405221 0.16024823
-0.13897482 2.494045 0.14293529
-0.22652227 2.4608049 0.11749025
0.042520065 2.4127455 0.095275752
-0.045312867 2.4094954 0.07211417
-0.13487701 2.4427621 0.050306723
-0.22454658 2.4505877 0.026844816
0.042517204 2.3936129 0.0068106498
-0.044854175 2.4325299 -0.016603241
-0.13450934 2.4539983 -0.039552275
-0.22113515 2.4231305 -0.062398214
0.043983128 2.4052184 -0.081483975
-0.043705851 2.4183395 -0.10471603
-0.13305816 2.4549642 -0.12996681
-0.2225395 2.4451201 -0.15317915
0.045207758 2.3856339 -0.16844003
-0.042623557 2.4288442 -0.19459684
-0.1713485 3.1706483 -0.28455886
-0.21522368 2.3725371 -0.23660731
0.046335824 2.4096403 -0.25935087
-0.041005999 2.3962681 -0.28068995
-0.17053916 3.1710787 -0.40196767
-0.13774599 1.5225898 -0.20879546
0.047732152 2.3806591 -0.34499392
-0.040648635 2.4555504 -0.37926972
-0.11564142 2.1657941 -0.35660592
-0 0 -0
0.050120879 2.4075463 -0.44035593
-0.016863734 1.0485823 -0.20202716
-0.048509318 0.9190526 -0.18630707
-0.081967495 0.91081935 -0.19471668
0 0 -0
-0 0 -0
-0 0 -0
-0.081483327 0.90191245 -0.22862716
0 0 -0
-0 0 -0
-0 0 -0
-0.073586211 0.81418467 -0.23998427
0.056024566 2.3439889 0.72435826
-0.03407076 2.3694422 0.70382321
-0.12719083 2.4279084 0.69636554
-0.2148173 2.3896394 0.66226745
0.054826234 2.3558164 0.62916243
-0.033818129 2.3954964 0.6133377
-0.12598746 2.4399872 0.60070455
-0.21508276 2.4248614 0.57340014
0.054616034 2.3485465 0.53350538
-0.033758394 2.3678415 0.51294935
-0.12565941 2.4519155 0.50731659
-0.20861909 2.3712692 0.46801391
0.054456152 2.3647559 0.4456611
-0.033161331 2.3694818 0.422025
-0.12413559 2.4464059 0.41224435
-0.21010372 2.3986938 0.38205969
0.054433633 2.3548493 0.35446665
-0.032069158 2.3774407 0.33398864
-0.1224857 2.4391236 0.31944016
-0.21143968 2.4389191 0.29685563
0.055134125 2.3672698 0.26773831
-0.032157321 2.3870659 0.24674377
-0.12146086 2.4382551 0.22904932
-0.21223454 2.46207 0.20872873
0.05534726 2.3604922 0.18010473
-0.03151802 2.3954835 0.15958358
-0.12198848 2.460948 0.14099294
-0.21124786 2.4601579 0.11739527
0.056492813 2.3774762 0.093894936
-0.030590938 2.4147253 0.072263725
-0.11836718 2.4125876 0.049669411
-0.20771809 2.4309967 0.026615744
0.057107758 2.389308 0.0067992704
-0.030050617 2.4427583 -0.016671482
-0.11910918 2.4477866 -0.039439637
-0.20702562 2.4334066 -0.06262894
0.058496404 2.394912 -0.08114545
-0.028866375 2.4185619 -0.10471603
-0.11689 2.4327929 -0.12875266
-0.20550764 2.4225719 -0.15168472
0.059944957 2.3893003 -0.16872171
-0.027958512 2.4499917 -0.19627371
-0.14717373 3.0731483 -0.27572218
-0.20175166 2.3867033 -0.23789215
0.060288142 2.3765106 -0.2558201
-0.026367404 2.4024336 -0.2813879
-0.14956824 3.1403546 -0.39794925
-0.12848417 1.5243936 -0.20893076
0.062105514 2.3714173 -0.34370342
-0.025755897 2.4725535 -0.38186431
-0.10193108 2.1575921 -0.35514572
-0.083905928 0.99736929 -0.17455769
0.064123616 2.3786769 -0.4351393
-0.010331783 1.0388471 -0.20013553
-0.042686589 0.91541672 -0.18551344
-0.07662233 0.91422909 -0.19534142
0 0 -0
-0 0 -0
-0 0 -0
-0.074971989 0.89080155 -0.22568978
0.041670162 1.4437938 -0.37785232
-0 0 -0
-0 0 -0
-0.068830587 0.81748921 -0.24082927
0.070032984 2.3311858 0.72052097
-0.019357668 2.3485179 0.69755942
-0.11078142 2.3959923 0.68700361
-0.2006332 2.3966761 0.6638639
0.068854138 2.3409493 0.62529302
-0.019149929 2.3995337 0.61432981
-0.11044 2.4281032 0.59760076
-0.19875917 2.4086742 0.56927329
0.069340602 2.3588893 0.53594142
-0.019443229 2.3943911 0.51866519
-0.10924461 2.4223125 0.50104338
-0.1945453 2.3783724 0.46917143
0.068420611 2.3457136 0.4421432
-0.018714678 2.3814547 0.42412901
-0.10837556 2.4303737 0.40942302
-0.19602276 2.4078128 0.38331336
0.06812983 2.3287714 0.35059759
-0.01746629 2.3756123 0.33371043
-0.10751721 2.4398293 0.31944016
-0.19830322 2.4629297 0.29962435
0.070155315 2.3837719 0.26964831
-0.017612096 2.4011438 0.2481831
-0.10628055 2.4339809 0.22858225
-0.19648769 2.4553797 0.20805542
0.069741458 2.3571181 0.17987655
-0.016917089 2.4096005 0.1605141
-0.10632308 2.4486835 0.14025027
-0.19416493 2.4365149 0.11620802
0.070990071 2.3740885 0.093776584
-0.015754299 2.411869 0.072173998
-0.10369019 2.416265 0.049731087
-0.1924818 2.4282384 0.026572112
0.071406864 2.3769181 0.0067651314
-0.014981419 2.4298973 -0.016582768
-0.10336564 2.4314888 -0.039166082
-0.19366319 2.4545624 -0.063141659
0.0730986 2.391511 -0.081043884
-0.014060575 2.4246879 -0.10497555
-0.1023367 2.4424438 -0.12922776
-0.19134349 2.4327424 -0.15224513
0.074292928 2.3789172 -0.16801752
-0.012877794 2.4411461 -0.19555506
-0.10264327 2.4589956 -0.2205599
-0.18718107 2.3888886 -0.23799101
0.075463951 2.3949776 -0.25785297
-0.011654688 2.4085095 -0.28208584
-0.10188543 2.4562724 -0.31117648
-0.11365021 1.45502 -0.19932319
0.077134788 2.385829 -0.34585425
-0.01058834 2.4736531 -0.38201693
-0.060085841 1.4621179 -0.24060352
-0.079775155 1.0234013 -0.17902473
0.078815326 2.3811882 -0.43567896
-0.0045071812 1.1832358 -0.22794263
-0 0 -0
-0.070784174 0.91175663 -0.19471668
0.048387285 1.4206413 -0.31523535
-0 0 -0
-0 0 -0
-0 0 -0
0.038953856 1.1128473 -0.29129809
-0 0 -0
-0 0 -0
-0.062245931 0.79780751 -0.23491418
0.083851852 2.3173444 0.71638846
-0.0050318758 2.388854 0.7095176
-0.095692724 2.3870213 0.68425006
-0.1912145 2.4660981 0.68275547
0.083113648 2.3375862 0.62451911
-0.0043798452 2.3744185 0.60788143
-0.093401849 2.3743968 0.58423054
-0.18530978 2.4273183 0.57340014
0.083224401 2.3418522 0.53217655
-0.0047589126 2.3983748 0.51951206
-0.091939986 2.3603089 0.48809239
-0.18379579 2.4303992 0.47920305
0.082500249 2.3364108 0.44047686
-0.0041155596 2.3894005 0.42553166
-0.091869891 2.3896062 0.40245274
-0.17976305 2.3892729 0.38017914
0.083082274 2.3470862 0.35342497
-0.0029328386 2.4113247 0.33871818
-0.090215087 2.3790109 0.31139904
-0.18009609 2.4225202 0.29456842
0.084074035 2.3634357 0.26740125
-0.0028714684 2.3952386 0.24756625
-0.091231935 2.4316025 0.228302
-0.1811979 2.453558 0.20780292
0.084309965 2.3596351 0.18010473
-0.0021308558 2.4086611 0.16044763
-0.089362465 2.3974106 0.13727959
-0.18140823 2.467546 0.11763272
0.085123949 2.3616252 0.093303159
-0.00095228135 2.4049234 0.071964622
-0.088605165 2.409862 0.049587179
-0.17816196 2.4373517 0.026659375
0.08447127 2.3344629 0.0066456469
-7.1538292e-05 2.4289436 -0.016575946
-0.088226356 2.4260821 -0.039069537
-0.17780101 2.4447372 -0.062859669
0.087221324 2.3760362 -0.080536097
0.00081426464 2.4157372 -0.10458628
-0.086920045 2.4310501 -0.12859429
-0.17735083 2.4468114 -0.15305462
0.088702016 2.3734324 -0.16766542
0.0020873125 2.4252303 -0.19427744
-0.086206801 2.4217546 -0.21716803
-0.1796124 2.4882517 -0.24777551
0.090195239 2.395463 -0.25795996
0.0031303079 2.4135015 -0.28266746
-0.085445814 2.418184 -0.30627903
-0.17510247 2.4340558 -0.33328786
0.091087632 2.3675098 -0.34327325
0.0045954119 2.4766364 -0.38247481
-0.079099849 2.2632122 -0.37234327
-0.072436206 1.0091325 -0.1764476
0.093115941 2.3727961 -0.43423983
0.002700553 1.1606565 -0.22359185
-0.031247985 0.9099943 -0.18432297
-0.064700365 0.90534467 -0.1932589
0.09185154 2.2846041 -0.50706118
0 0 -0
-0 0 -0
-0 0 -0
0 0 -0
0 0 -0
-0 0 -0
-0.059481204 0.82784283 -0.24364601
0.097665153 2.3072405 0.71343672
0.0095950505 2.3811712 0.70723987
-0.07977251 2.3500926 0.67351133
-0.17312853 2.4258797 0.67131406
0.097253971 2.3322058 0.62322932
0.010235124 2.3850567 0.61060959
-0.078863285 2.3758957 0.58446932
-0.1659836 2.3652961 0.55849773
0.097470328 2.3383744 0.5315122
0.0098680612 2.3768575 0.51485461
-0.077230886 2.353977 0.48667586
-0.1682678 2.4226716 0.47746679
0.097160272 2.3437154 0.44195807
0.010589055 2.399226 0.42728496
-0.078320123 2.4246213 0.4082613
-0.1672771 2.4218607 0.38519388
0.097646348 2.3504844 0.35402024
0.011780007 2.3944628 0.33635342
-0.0754271 2.3735735 0.31062087
-0.16630876 2.4394264 0.29649448
0.098367132 2.3579113 0.26683947
0.011825494 2.3952112 0.24756625
-0.075123698 2.3943014 0.22475231
-0.16573599 2.4486585 0.20729794
0.098786823 2.3590734 0.18010473
0.012690369 2.4166112 0.16097936
-0.074650548 2.3979139 0.13727959
-0.16700257 2.4795754 0.11815511
0.099528775 2.359062 0.093224265
0.013786857 2.4018855 0.071874894
-0.073755652 2.4083617 0.049546059
-0.16286942 2.4334106 0.026604837
0.099258885 2.3448908 0.0066769402
0.014813862 2.4258983 -0.016555471
-0.073036477 2.4165838 -0.038908623
-0.16233228 2.4387999 -0.062680215
0.10119969 2.3614771 -0.080062151
0.015533463 2.3997021 -0.10389423
-0.071469732 2.4135709 -0.12764409
-0.16094723 2.42694 -0.15174699
0.10261291 2.3578949 -0.16660917
0.016912414 2.4171975 -0.19363864
-0.071550839 2.4292071 -0.21779284
-0.16624241 2.5181022 -0.25064167
0.10336914 2.3600988 -0.25421521
0.017990893 2.4203892 -0.28348172
-0.070114382 2.4018044 -0.30414423
-0.16029415 2.4370618 -0.33355853
0.10525976 2.3589971 -0.34212613
0.019554749 2.4469142 -0.3778961
-0.059528623 2.0663865 -0.33989504
-0.064759389 0.98694855 -0.17249599
0.10727197 2.3633361 -0.43262091
0.01977727 2.3369467 -0.45021033
-0.026520157 0.94054055 -0.19047368
-0.058634188 0.89791662 -0.19159287
0 0 -0
0.01027606 1.1524527 -0.26690167
-0 0 -0
-0 0 -0
0.091959886 1.9443253 -0.50920224
0 0 -0
-0 0 -0
-0.052262247 0.79563898 -0.23406915
0.11163522 2.3027806 0.71225601
0.023942357 2.3551862 0.69955242
-0.066152632 2.3793669 0.68177187
-0.15761317 2.4172773 0.66865325
0.11160846 2.33253 0.62348729
0.024748148 2.3733246 0.60763341
-0.064204797 2.3734229 0.58375305
-0.15177819 2.3711271 0.5596441
0.11167672 2.33481 0.53084779
0.02450227 2.3816385 0.51591313
-0.063856058 2.3945441 0.49497262
-0.15445305 2.4403057 0.48074636
0.11130557 2.3381674 0.44103232
0.025092127 2.3784423 0.423603
-0.062719353 2.3974543 0.40361443
-0.15160759 2.4100273 0.38315666
0.11187837 2.3458898 0.35342497
0.026285818 2.3775117 0.33398864
-0.060810879 2.372009 0.31036147
-0.15121472 2.4384196 0.29625377
0.11292817 2.3592484 0.26706418
0.026610121 2.4030504 0.24838872
-0.060632054 2.4026797 0.2254996
-0.15089175 2.4526131 0.20755044
0.11268602 2.3464715 0.17919205
0.027279578 2.3955355 0.15958358
-0.059935816 2.3983269 0.13727959
-0.15056491 2.4606133 0.11720531
0.11395359 2.3574088 0.093184814
0.02851242 2.4007561 0.07184498
-0.059074722 2.4127667 0.049628291
-0.14793523 2.4343641 0.026604837
0.11340288 2.3392434 0.0066627157
0.029429294 2.403764 -0.01640534
-0.058183149 2.4159865 -0.03889253
-0.14923346 2.4706833 -0.063474931
0.11505162 2.3478346 -0.07962206
0.030118899 2.3885725 -0.10341844
-0.056448106 2.404979 -0.12716898
-0.14862983 2.470721 -0.1544245
0.11673237 2.3502469 -0.16611624
0.031495024 2.3981106 -0.19212146
-0.055506628 2.3808093 -0.21341912
-0.14835069 2.4783485 -0.2465895
0.11725329 2.3475037 -0.2529313
0.03288221 2.4232125 -0.28383067
-0.054667085 2.371443 -0.30025139
-0.14710641 2.4676709 -0.33761805
0.11973231 2.3583066 -0.34212613
0.034163482 2.4180906 -0.37347001
-0.05080647 2.241323 -0.36861172
-0.059111644 0.99421108 -0.17369865
0.12121414 2.3518271 -0.43064219
0.034245145 2.345618 -0.45191282
-0 0 -0
-0.053354546 0.90216494 -0.19242589
0.063164905 1.2030736 -0.26717061
0.028975513 1.9248343 -0.44581375
-0 0 -0
-0 0 -0
0.13455912 2.5175676 -0.65953332
0 0 -0
-0 0 -0
-0.047208272 0.79307121 -0.23322415
0.12565848 2.3001442 0.71166569
0.03836181 2.3530781 0.69898301
-0.050927252 2.3508947 0.67351133
-0.14238036 2.411463 0.66679072
0.12560591 2.3260128 0.62193954
0.0390855 2.3595674 0.6041612
-0.049559329 2.3698888 0.58279806
-0.13958748 2.4128265 0.56927329
0.12505455 2.3165536 0.52686149
0.038906612 2.3687398 0.513161
-0.048559237 2.3655176 0.48890179
-0.13830134 2.4206355 0.47669515
0.12570295 2.3384216 0.44121748
0.039636225 2.3752904 0.42307702
-0.047889233 2.3918781 0.40261868
-0.138272 2.4365499 0.38723111
0.12589821 2.3382471 0.35238329
0.040584061 2.3604734 0.33162385
-0.04652597 2.3862166 0.31217721
-0.13625 2.4393015 0.29625377
0.12633017 2.3386667 0.26481712
0.040738251 2.367038 0.24468757
-0.045717269 2.3940477 0.22465891
-0.13699676 2.4743865 0.20931791
0.12632641 2.3317969 0.17812723
0.041942831 2.3933277 0.15945065
-0.045143563 2.3946567 0.13705108
-0.13683623 2.4864247 0.11839256
0.12809002 2.3506787 0.092948101
0.04313463 2.3945396 0.071665518
-0.044269152 2.4130838 0.049628291
-0.13343169 2.4432137 0.0266921
0.12840867 2.3504856 0.0066968543
0.043700162 2.377543 -0.01622791
-0.043321963 2.4142988 -0.038860351
-0.13325861 2.4565797 -0.063090391
0.12956558 2.3490803 -0.079689771
0.044699434 2.3843472 -0.10324542
-0.042296078 2.4402258 -0.12901659
-0.13265972 2.4566376 -0.1534905
0.13053945 2.3385308 -0.16534163
0.04613214 2.3938856 -0.19180207
-0.041461665 2.4139683 -0.21636468
-0.13148677 2.4484084 -0.24352567
0.1316551 2.34674 -0.2529313
0.047691435 2.419986 -0.28348172
-0.040568154 2.3985164 -0.30364195
-0.13016401 2.4348879 -0.33301726
0.1342566 2.3585157 -0.34226951
0.048699602 2.4030144 -0.37118068
-0.040331032 2.4399023 -0.40122217
-0.05626104 1.0555466 -0.1843508
0.13547242 2.3480928 -0.43010253
0.04837228 2.3326011 -0.44945368
-0 0 -0
-0 0 -0
0.070488468 1.2016888 -0.26695409
0.041095134 1.9392302 -0.44919795
-0 0 -0
-0 0 -0
0.084211811 1.4128642 -0.37025985
0 0 -0
-0 0 -0
-0 0 -0
0.14029127 2.3079131 0.71432227
0.052756287 2.3508816 0.69841355
-0.036919318 2.3780773 0.68122125
-0.12834488 2.4267304 0.67078191
0.13993372 2.3261628 0.62219751
0.053276952 2.3466926 0.60093707
-0.034945305 2.3652933 0.58160424
-0.12462927 2.4107215 0.56858552
0.13944192 2.3186629 0.52752584
0.053021315 2.3498919 0.50913876
-0.034396056 2.3902514 0.49396083
-0.12374575 2.4273183 0.47785264
0.1404015 2.343492 0.44232839
0.054120123 2.3710654 0.42237568
-0.033170972 2.389169 0.4021208
-0.1248162 2.4669437 0.39193243
0.13994695 2.3324952 0.35163924
0.054997593 2.3572099 0.33120656
-0.031976268 2.3933976 0.31308508
-0.1211816 2.4381084 0.296013
0.14097601 2.3428071 0.26537889
0.055238139 2.3657491 0.24458477
-0.03109131 2.3992608 0.22512595
-0.11965653 2.4313893 0.20561464
0.13967092 2.3150532 0.17691033
0.055966295 2.3650951 0.15758961
-0.030614378 2.4078665 0.13779373
-0.12065067 2.468262 0.11749025
0.14178523 2.3378799 0.092474677
0.057778165 2.3922312 0.071605697
-0.029474121 2.41431 0.049648855
-0.11814751 2.437994 0.026626654
0.14319262 2.3556426 0.006713924
0.058434736 2.3832283 -0.016268857
-0.028566306 2.4195182 -0.038940806
-0.11779863 2.4493628 -0.062885299
0.14348753 2.3402607 -0.07941895
0.059452951 2.3890219 -0.1034617
-0.027154651 2.4254613 -0.12822476
-0.11758357 2.4574053 -0.1534905
0.14525619 2.3436594 -0.16576414
0.060490713 2.3806033 -0.190764
-0.026473155 2.3982425 -0.21493655
-0.11750097 2.4710364 -0.24569999
0.1458666 2.342911 -0.25261033
0.061820749 2.3918474 -0.28022465
-0.02588244 2.401696 -0.30401865
-0.11512773 2.4336612 -0.3327466
0.14853874 2.3546844 -0.34183934
0.063495472 2.4046462 -0.37148589
-0.025543896 2.4578645 -0.40414253
-0.048948135 1.0381593 -0.18125823
0.1495014 2.3413274 -0.42902324
0.062393732 2.3214629 -0.44737285
-0 0 -0
-0 0 -0
0.093142204 1.4369988 -0.31934896
0.058981944 2.1580584 -0.49996117
-0 0 -0
-0 0 -0
0 0 -0
0 0 -0
-0 0 -0
-0.037472513 0.79359084 -0.23322415
0.15406679 2.3012888 0.71255118
0.067070484 2.3466809 0.69727468
-0.022399211 2.3859494 0.683424
-0.11241726 2.4053257 0.66466212
0.15490741 2.3358648 0.62503505
0.06739568 2.336638 0.59845692
-0.020473419 2.3703184 0.58279806
-0.10930356 2.3997726 0.56583434
0.15347281 2.3148444 0.52686149
0.067214653 2.3417068 0.5074451
-0.01968869 2.3855209 0.49294901
-0.10823446 2.4143085 0.47515178
0.15374164 2.3268971 0.43936595
0.068240114 2.3559272 0.41974568
-0.018411368 2.376508 0.39996332
-0.10836137 2.4380631 0.38723111
0.15373398 2.323699 0.35044876
0.069460124 2.3568282 0.33120656
-0.017318705 2.3975148 0.31360388
-0.10639215 2.4427731 0.29649448
0.15403314 2.322068 0.2631318
0.069782384 2.3663599 0.24468757
-0.016246879 2.3814855 0.22344454
-0.10404961 2.4161494 0.20426801
0.15486549 2.3290763 0.17805117
0.07068526 2.3716886 0.15805487
-0.015793443 2.4010205 0.13739385
-0.10443731 2.4440064 0.116303
0.15512842 2.3220108 0.091882899
0.071850225 2.3718498 0.071007483
-0.014677851 2.4174447 0.049710531
-0.10335512 2.4426692 0.026670286
0.15730987 2.3497305 0.006699699
0.072872981 2.3768277 -0.01622791
-0.013674531 2.4116492 -0.038812079
-0.10306066 2.457031 -0.063064754
0.15804625 2.3423278 -0.079520509
0.073769778 2.3776276 -0.1029859
-0.012312206 2.4335709 -0.12864707
-0.10129709 2.4291618 -0.15168472
0.15854885 2.3268006 -0.16463745
0.075096682 2.3801873 -0.190764
-0.0118745 2.4222636 -0.21707878
-0.10003151 2.4160328 -0.24016532
0.1597646 2.3350284 -0.25186136
0.076717965 2.3983719 -0.28103891
-0.011200667 2.4137146 -0.30552557
-0.10068185 2.4462016 -0.33437043
0.16271055 2.3497794 -0.3412658
0.077927426 2.3943336 -0.36995965
-0.01037404 2.4372532 -0.40073544
-0.060738072 1.4813766 -0.25857219
0.1629028 2.326628 -0.42650485
0.077090457 2.3347762 -0.45002118
-0.0036230949 0.9938342 -0.20118783
-0 0 -0
0.14889282 2.0976315 -0.46635774
0.074569009 2.2277603 -0.51620537
-0 0 -0
-0 0 -0
0 0 -0
0.077863328 2.2751098 -0.6186235
-0 0 -0
-0.031421177 0.76504469 -0.224774
0.16818434 2.3003001 0.71255118
0.080969192 2.3318546 0.69300389
-0.007777635 2.3918099 0.68507612
-0.096248962 2.3712964 0.65508336
0.16902754 2.3319795 0.6242612
0.081460789 2.3284352 0.5964728
-0.005924175 2.3684571 0.58232051
-0.093427137 2.3712199 0.55895627
0.16718018 2.3070509 0.52531123
0.081683934 2.3441806 0.50808024
-0.0050427439 2.3816798 0.49213958
-0.089777343 2.320801 0.45663187
0.16815792 2.3278704 0.43973622
0.082107313 2.338738 0.41676503
-0.0038433406 2.3854516 0.40145695
-0.093135074 2.4317737 0.38613415
0.16827439 2.3266573 0.35104403
0.083920047 2.3563576 0.33120656
-0.002603191 2.3936098 0.31308508
-0.090956263 2.4314759 0.29504997
0.16957153 2.3389184 0.26515418
0.084513307 2.3718517 0.24530444
-0.0016449828 2.3974705 0.22493914
-0.088671006 2.4018059 0.20300554
0.1685032 2.3191316 0.17736666
0.085057124 2.3662245 0.15772255
-0.0010678183 2.4170458 0.13830788
-0.088672265 2.4236391 0.11530571
0.16980943 2.3269947 0.092119612
0.08607471 2.3623743 0.070738293
0.00015520115 2.4114904 0.049587179
-0.087967679 2.432265 0.026550295
0.17077664 2.3357558 0.0066627157
0.086793572 2.3583486 -0.016105076
0.0011228616 2.4106877 -0.038795982
-0.087124296 2.4336405 -0.062449489
0.17072734 2.3183892 -0.078741893
0.087689273 2.3591597 -0.10220736
0.0025932586 2.4086356 -0.12732735
-0.086248271 2.4257479 -0.15143566
0.17319246 2.3307579 -0.16498955
0.08921171 2.3667324 -0.18972594
0.0029859957 2.4202986 -0.21690024
-0.086151853 2.4434521 -0.24283382
0.17394114 2.332021 -0.25164738
0.090864979 2.3829687 -0.27929404
0.0036409753 2.4345717 -0.30816266
-0.085496992 2.4418221 -0.33369383
0.17630681 2.3378813 -0.33968854
0.092197023 2.3829474 -0.36828083
0.0045715873 2.4323375 -0.39992428
-0.039499085 1.1331968 -0.19775186
0.17702621 2.3236229 -0.42614511
0.092452414 2.3607514 -0.45512861
0.0048353309 1.94161 -0.39305037
-0 0 -0
0.092595689 1.2001878 -0.26695409
0.054261059 1.3696486 -0.31743923
0 0 -0
-0 0 -0
0.16459003 2.1074493 -0.55298555
0 0 -0
0 0 -0
-0.027463175 0.78631949 -0.23097077
0.18297519 2.3077972 0.71520776
0.094923377 2.3226936 0.69044149
0.0068872911 2.3879673 0.68397474
-0.081697151 2.3718424 0.65508336
0.18166645 2.3097084 0.61858606
0.095626831 2.3249876 0.59572875
0.0086226342 2.3723333 0.58327556
-0.079069957 2.3775854 0.56033182
0.1817915 2.3118145 0.52663994
0.095585689 2.331917 0.50553977
0.0095395781 2.3738313 0.49052066
-0.077035345 2.3674006 0.4656989
0.18259193 2.3287542 0.44010654
0.096293673 2.3342555 0.41606373
0.010869442 2.4021943 0.40427828
-0.077767842 2.4184794 0.38394019
0.18154134 2.3127651 0.34910947
0.098087579 2.3488724 0.33023283
0.012093782 2.3955638 0.31334448
-0.075321786 2.4091666 0.29228124
0.18306242 2.3269374 0.26391831
0.098566882 2.3593624 0.24407071
0.013071076 2.3984311 0.22503255
-0.073686913 2.3943367 0.20233221
0.18312176 2.3230243 0.17774695
0.099070862 2.3536952 0.15692496
0.013654906 2.3980384 0.13722245
-0.073525868 2.4151518 0.1148783
0.18298069 2.3119636 0.091567293
0.10010059 2.3508167 0.070409276
0.014989019 2.4174428 0.049710531
-0.072801858 2.4247632 0.026463032
0.18534246 2.3376546 0.0066712503
0.10066178 2.343785 -0.016009538
0.01590134 2.4086359 -0.038763802
-0.072041951 2.4291332 -0.062321313
0.18415436 2.3073356 -0.078403369
0.10173081 2.3485959 -0.10177482
0.017429939 2.416563 -0.12774967
-0.070423551 2.3943074 -0.14944308
0.18717037 2.3256743 -0.16470787
0.10338275 2.3581736 -0.18908712
0.01774119 2.4072871 -0.21573988
-0.070143856 2.409121 -0.23937467
0.17215946 2.1317122 -0.23014179
0.10456228 2.3615294 -0.27685124
0.018420167 2.4136703 -0.30552557
-0.069626234 2.4115987 -0.32949898
0.17809415 2.1828787 -0.31731984
0.10601997 2.3645656 -0.36553362
0.019424859 2.423383 -0.39846408
-0.041706461 1.4524686 -0.25341791
0.17480879 2.122498 -0.38944876
0.10698041 2.3611205 -0.45531777
0.018583402 2.1542218 -0.4361054
-0 0 -0
0.15370695 1.8446358 -0.41049877
0.089341909 1.9522356 -0.45258215
0.0087411562 1.0011367 -0.24196924
-0 0 -0
0.19539165 2.3184857 -0.60866374
0 0 -0
0 0 -0
-0 0 -0
0.1968067 2.3028231 0.71402711
0.10890324 2.3163221 0.68873316
0.02139204 2.3715377 0.67929369
-0.067578606 2.3877161 0.65934062
0.19575347 2.3075876 0.61832809
0.11002813 2.3272603 0.5964728
0.023064982 2.3605833 0.58041054
-0.065060303 2.3994319 0.56537575
0.19613793 2.3125989 0.52708292
0.10906393 2.3137143 0.50172919
0.024264062 2.3893962 0.49375844
-0.062714949 2.3756759 0.46724227
0.19696029 2.3285692 0.44029167
0.11089427 2.3395212 0.41711572
0.025356522 2.3784165 0.40029526
-0.06210497 2.3873172 0.37892547
0.19597907 2.3145638 0.34955591
0.11197688 2.3373458 0.32870269
0.026792457 2.3954444 0.31334448
-0.060064264 2.3907275 0.28999403
0.19599265 2.3099284 0.26212063
0.11218471 2.3408291 0.24222013
0.027498955 2.3734164 0.22269721
-0.058724213 2.3837862 0.2014064
0.19669646 2.3139086 0.17713848
0.11346292 2.3520465 0.1568585
0.028368738 2.3979096 0.13722245
-0.058511239 2.4075689 0.11449838
0.19894707 2.3317049 0.092395775
0.11437709 2.347163 0.070319548
0.029686218 2.4063082 0.049484383
-0.057970174 2.4271636 0.026484849
0.19857557 2.3235207 0.006634267
0.11538434 2.3501146 -0.016057307
0.030501854 2.394496 -0.038538527
-0.0570652 2.4265313 -0.062244404
0.1995928 2.3210983 -0.078911155
0.11594218 2.3439362 -0.10160181
0.032084078 2.4034297 -0.12706341
-0.056288343 2.4186413 -0.1509375
0.20143692 2.324482 -0.16470787
0.11799959 2.3604815 -0.18932667
0.032336827 2.394186 -0.21457951
-0.054857582 2.3876195 -0.23720032
0.13692491 1.5749321 -0.17011876
0.11804996 2.3410044 -0.27452478
0.033243481 2.4145038 -0.30565113
-0.054962732 2.4179239 -0.33031091
0.13489591 1.5369816 -0.22354344
0.12022473 2.3579485 -0.36461785
0.034210313 2.4172983 -0.39749062
-0.049334757 2.1854475 -0.38124362
0.13108981 1.4805603 -0.27180466
0.12116318 2.3545358 -0.45418277
0.030715993 2.0805662 -0.42122462
-0 0 -0
0.12864098 1.4371974 -0.3199985
0.060710538 1.1694337 -0.27118832
0 0 -0
-0 0 -0
0.18050331 1.9954306 -0.5241341
0 0 -0
0 0 -0
-0 0 -0
0.21102004 2.3025236 0.71432227
0.12341926 2.3213539 0.69044149
0.035782855 2.3607883 0.67626488
-0.052584842 2.3726664 0.65508336
0.20885803 2.2947969 0.61523265
0.12384068 2.3178349 0.59424067
0.03745614 2.3545716 0.578978
-0.049826141 2.3754575 0.5596441
0.20882177 2.2948422 0.52331805
0.12372664 2.321785 0.50363451
0.038765136 2.3794105 0.49173483
-0.048335642 2.3858261 0.46917143
0.21088907 2.3234019 0.43955109
0.12493133 2.3328979 0.41606373
0.039833795 2.3713143 0.39913353
-0.04757325 2.3935778 0.37986571
0.20910357 2.3014998 0.34777018
0.12631646 2.3366148 0.32870269
0.040854722 2.3585529 0.30854574
-0.045940366 2.4198349 0.29348502
0.21214423 2.3304529 0.26459241
0.12649193 2.3391032 0.24211732
0.042255525 2.3841534 0.22372477
-0.044243887 2.3920717 0.20207971
0.2097135 2.2997496 0.17614974
0.12697142 2.3343685 0.15572859
0.042884205 2.3867099 0.13659404
-0.043719433 2.406884 0.11445089
0.21261302 2.3234746 0.092119612
0.12817433 2.3354385 0.069990531
0.044247352 2.3950851 0.04925824
-0.043164991 2.4324725 0.026539387
0.21228111 2.3162837 0.0066171982
0.12952638 2.3443699 -0.016023185
0.04491058 2.3792682 -0.038297158
-0.042105727 2.4228375 -0.062141854
0.21474837 2.329782 -0.079249687
0.12982279 2.3342028 -0.10121253
0.046577714 2.3902082 -0.12637715
-0.041788746 2.4388993 -0.15218286
0.21569587 2.3232021 -0.16470787
0.13264865 2.3626988 -0.18956622
0.046909295 2.3879676 -0.21404395
-0.040591702 2.4107955 -0.23947349
0.1399481 1.5027841 -0.16241528
0.1326924 2.3451939 -0.27510637
0.048097461 2.4162381 -0.3059023
-0.040355727 2.4320848 -0.33220536
0.13969536 1.4868586 -0.21637399
0.13418315 2.3482864 -0.36324424
0.048941851 2.4121103 -0.39667946
-0.035389926 2.1532042 -0.37557393
0.13831654 1.460142 -0.26820698
0.13560806 2.3537481 -0.45418277
0.040675607 1.9460915 -0.39404243
-0 0 -0
0.181168 1.8931464 -0.42175716
0.094711304 1.6310139 -0.37835509
0 0 -0
-0 0 -0
0.21470767 2.2215436 -0.58386159
0 0 -0
0 0 -0
-0 0 -0
0.22514409 2.3011854 0.71432227
0.13663867 2.303328 0.68531656
0.050124437 2.3537965 0.67433739
-0.038581464 2.4076421 0.66466212
0.2243368 2.3078964 0.619102
0.13794507 2.3150971 0.59374464
0.051645972 2.3426473 0.57611293
-0.035394076 2.3854511 0.56193674
0.22393633 2.3041942 0.52575415
0.13756455 2.314153 0.50215262
0.052859101 2.3566093 0.48708054
-0.033723287 2.3880401 0.46955723
0.22438255 2.3142395 0.43806988
0.13953675 2.3370011 0.41694036
0.054564055 2.3789122 0.4004612
-0.032953471 2.3987625 0.38064927
0.22360343 2.3041103 0.3483654
0.13993701 2.3239338 0.32703343
0.055372272 2.3602405 0.30880514
-0.030887626 2.4041889 0.29155895
0.22653578 2.3300965 0.26470476
0.14090183 2.3392761 0.24222013
0.05669361 2.3758864 0.22297746
-0.029664092 2.4002693 0.20275304
0.22478697 2.3083436 0.17691033
0.14195578 2.344501 0.1564597
0.057167072 2.3714309 0.13573712
-0.028878173 2.401114 0.11416595
0.22754569 2.3290877 0.092395775
0.14262369 2.3366034 0.070050351
0.058770284 2.3877721 0.049114332
-0.028227203 2.4316916 0.02652848
0.22687906 2.3189185 0.0066285776
0.14433774 2.3505177 -0.016070955
0.059458639 2.3769486 -0.038264971
-0.027249921 2.4240501 -0.062167495
0.22855042 2.3234475 -0.079080425
0.14395796 2.3303709 -0.10108276
0.061063807 2.3828895 -0.12600762
-0.026406104 2.401186 -0.14981669
0.23122473 2.3347394 -0.16562329
0.14677151 2.355871 -0.18908712
0.06174041 2.3946047 -0.21466878
-0.025596276 2.3920932 -0.23759565
0.15142646 1.5246532 -0.16487612
0.14714195 2.3453269 -0.27522272
0.062586524 2.4030049 -0.30426982
-0.025390539 2.4283237 -0.33166409
0.14901316 1.4879429 -0.21666077
0.14896403 2.3533368 -0.36415997
0.063689217 2.4097917 -0.39635494
-0.022502096 2.1849034 -0.38107184
0.15013766 1.4876486 -0.27342361
0.14904794 2.3371925 -0.45115617
0.063266166 2.3396692 -0.47380325
-0.011650009 1.1667854 -0.24844599
0.12944414 1.2703978 -0.28319219
0.1344402 2.0931756 -0.48574749
0 0 -0
-0 0 -0
0.23575789 2.292362 -0.60284281
0 0 -0
0 0 -0
-0 0 -0
0.23876533 2.2950091 0.7128464
0.15139543 2.312012 0.6881637
0.064328834 2.3447957 0.6718592
-0.023445556 2.3712051 0.65455115
0.23849356 2.3064766 0.619102
0.15265608 2.3219407 0.59572875
0.065882422 2.3374329 0.57491916
-0.020798901 2.3904898 0.56308305
0.23666644 2.289197 0.52265364
0.15195327 2.3161907 0.50278771
0.067234091 2.3533039 0.48647347
-0.01907775 2.3891833 0.46975017
0.23888075 2.3157516 0.43862534
0.15309723 2.3243124 0.41483641
0.068758503 2.3647327 0.39813778
-0.018219305 2.3969443 0.38033584
0.23824476 2.3076131 0.34910947
0.15360348 2.3141384 0.32578149
0.069706708 2.3549006 0.30815667
-0.016181853 2.4112821 0.29240161
0.24052206 2.3256974 0.2643677
0.15584578 2.3473001 0.24314541
0.071330428 2.3774843 0.22316429
-0.014929557 2.3994098 0.20266889
0.23915191 2.3089044 0.17706242
0.15687002 2.3515506 0.15699144
0.071867742 2.3760247 0.13602275
-0.01417409 2.4062405 0.1144034
0.24203895 2.3296356 0.092474677
0.15655604 2.3297007 0.069870889
0.073143676 2.3783727 0.048929304
-0.013295148 2.4298191 0.026506662
0.24151731 2.3214612 0.006639957
0.15882495 2.3505857 -0.016077779
0.073886521 2.3715422 -0.038184516
-0.012360407 2.4211726 -0.062090583
0.24394585 2.3329353 -0.079452805
0.15791553 2.3244596 -0.1008665
0.07539843 2.373487 -0.12553252
-0.011778934 2.42326 -0.15118659
0.24439768 2.3223643 -0.1648487
0.1608156 2.3489594 -0.18860804
0.076432265 2.3941808 -0.21466878
-0.010931811 2.3951905 -0.23789215
0.16150905 1.5306166 -0.16562507
0.16139328 2.3423982 -0.27499005
0.076627776 2.3807609 -0.30150715
-0.010455906 2.4205074 -0.33058152
0.15677963 1.4742072 -0.21479671
0.161552 2.3257589 -0.36003914
0.078152999 2.3994932 -0.39473253
-0.010087727 2.4233997 -0.42264953
0.15706255 1.4661595 -0.26964605
0.16283783 2.3283975 -0.44964284
0.074012913 2.2305038 -0.45177978
-0.0040538972 1.0533789 -0.22428861
0.14741406 1.3637304 -0.30419344
0.13435215 1.908639 -0.44310638
0.038610999 1.1599426 -0.28049636
-0 0 -0
0.15165341 1.3906807 -0.36595747
0 0 -0
0 0 -0
-0 0 -0
0.25200516 2.2859032 0.71048498
0.16489376 2.3014779 0.68531656
0.078585982 2.3405137 0.67075783
-0.0090222396 2.4050424 0.6638639
0.25274661 2.3059301 0.61935991
0.16648346 2.3151627 0.59424067
0.080223396 2.3369846 0.57491916
-0.0061382283 2.3934925 0.56377089
0.25070825 2.2877016 0.52265364
0.16630222 2.3171647 0.50321114
0.081332691 2.3430598 0.48444986
-0.0044466658 2.4049549 0.47283682
0.25244445 2.3083808 0.43751442
0.16770971 2.3282392 0.41571304
0.082989253 2.3563819 0.39681005
