# .PCD v0.7 - Point Cloud Data file format
VERSION 0.7
FIELDS x y z
SIZE 4 4 4
TYPE F F F
COUNT 1 1 1
WIDTH 1510
HEIGHT 1
VIEWPOINT 0 0 0 1 0 0 0
POINTS 1510
DATA ascii
8.1471109 -1.2469742 1.5528706
8.0628157 -0.93019015 1.4454401
8.0163794 -0.62780565 1.3532369
7.9713287 -0.33089218 1.2659056
8.133523 -1.245621 1.2382523
7.9246483 -0.91831475 1.1206217
7.5411625 -0.59456187 0.98944741
7.4992781 -0.31798422 0.91018879
7.6768007 -1.1770468 0.8781547
7.6112342 -0.88213068 0.79194468
7.5540385 -0.59862834 0.71096838
7.4874306 -0.32114759 0.63300359
7.6637311 -1.176275 0.591425
7.6316085 -0.88692188 0.51178408
7.5776615 -0.60236365 0.43497574
7.5244675 -0.32523599 0.35807458
7.6677885 -1.1793636 0.30630267
7.6317577 -0.89071941 0.22992188
7.558249 -0.60467041 0.1559159
7.5343795 -0.32882637 0.082268827
7.6785088 -1.18211 0.022101896
7.613812 -0.89145368 -0.0523142
7.5566311 -0.60759389 -0.12200379
7.5442147 -0.33202603 -0.19365494
7.6745067 -1.1856077 -0.26303717
7.6353116 -0.89680791 -0.3328335
7.5885043 -0.61482245 -0.40246424
7.5479226 -0.3340371 -0.47136834
7.7201738 -1.1979057 -0.55151433
7.6571884 -0.90344226 -0.61764735
7.5954752 -0.61658812 -0.68292338
7.6417842 -0.34046283 -0.75973284
7.6337142 -1.1866733 -0.83133513
7.504899 -0.8887946 -0.88510972
7.390368 -0.60188544 -0.93855244
7.4849401 -0.33530754 -1.0232736
7.6316986 -1.1927724 -1.1191511
5.1040583 -0.6073572 -0.79379547
4.9478078 -0.40487126 -0.81623483
4.6500449 -0.20904286 -0.81179637
4.4196205 -0.69422805 -0.81811225
4.2101007 -0.50299293 -0.81681019
4.025414 -0.3318688 -0.81764799
3.8008192 -0.1720624 -0.81010467
3.68559 -0.58255327 -0.82749277
3.4599781 -0.41496623 -0.80702215
3.3643625 -0.27772418 -0.81588262
3.2225363 -0.14475648 -0.81439251
3.0851111 -0.49062085 -0.81720376
2.9239686 -0.35290706 -0.80035561
2.8580933 -0.2366856 -0.80974358
2.7769072 -0.12464166 -0.81600285
6.0897026 -0.97580069 1.9053514
6.3417768 -0.76862562 1.8973618
6.6240392 -0.54873461 1.9037848
6.8562837 -0.31104973 1.8944733
7.1145892 -1.1354418 1.9236015
7.4569302 -0.90576351 1.9230977
7.8026042 -0.6522631 1.925072
7.9583583 -0.37051281 1.8765615
8.1487789 -1.3003458 1.8740234
8.0780535 -0.98006433 1.762615
8.0216999 -0.67368025 1.6633993
7.9968052 -0.37803775 1.5740006
8.1548347 -1.2994148 1.5558332
8.082366 -0.98273474 1.4499987
8.0241671 -0.67797774 1.3552284
7.9760537 -0.38012624 1.2670026
8.1481886 -1.2990849 1.241675
7.9876728 -0.97532392 1.1303589
7.5591087 -0.64267033 0.99230075
7.4952025 -0.36389667 0.90994805
7.6713963 -1.2244418 0.87837934
7.630362 -0.93183017 0.79451489
7.5551829 -0.64539146 0.71143538
7.5062194 -0.36810851 0.63477105
7.6711388 -1.2256364 0.59256589
7.6141381 -0.93227667 0.51098651
7.5887437 -0.65012622 0.43583268
7.53929 -0.37223649 0.35888189
7.6791544 -1.2293912 0.30705222
7.6241651 -0.93728632 0.22986206
7.5763106 -0.65292406 0.1563682
7.5422072 -0.37554756 0.082377911
7.693821 -1.2328411 0.022167329
7.6359878 -0.94158095 -0.052505277
7.5726833 -0.65567404 -0.12232562
7.5600071 -0.37921166 -0.1941164
7.6907692 -1.2364827 -0.26384965
7.6465211 -0.94572514 -0.33356881
7.5865788 -0.66154653 -0.4025698
7.5626764 -0.38119814 -0.47242692
7.7136626 -1.2454121 -0.55158472
7.6584253 -0.95126903 -0.61820632
7.6133776 -0.66508842 -0.68488711
7.6465077 -0.38769823 -0.76042467
7.6331601 -1.2346017 -0.83208406
7.4963474 -0.93445855 -0.88476074
6.428875 -0.56330872 -0.81686962
7.4678993 -0.38047177 -1.0212438
7.6203294 -1.2389419 -1.1185776
5.1669178 -0.64701384 -0.80417389
4.8744578 -0.42899421 -0.80455351
4.6152234 -0.23586154 -0.80595481
4.4308105 -0.72387093 -0.82099032
4.1884236 -0.52648926 -0.81321609
4.009634 -0.3553507 -0.81487024
3.7938313 -0.19507921 -0.80885518
3.6029508 -0.59217316 -0.80973911
3.4882965 -0.4400906 -0.81424183
3.3790548 -0.29982275 -0.81987637
3.1179779 -0.15923551 -0.7882008
3.0858605 -0.51017272 -0.81821609
2.9878032 -0.37922558 -0.81845015
2.8546698 -0.25404745 -0.80920011
2.7655492 -0.14114015 -0.81290448
6.0751181 -1.0117354 1.9026947
6.3321867 -0.80691767 1.895938
6.6080995 -0.58826047 1.9002053
6.8763871 -0.35425389 1.900593
7.1113014 -1.1797072 1.9246334
7.456037 -0.95211488 1.9243379
7.8148966 -0.70160276 1.9291307
7.9802351 -0.42061818 1.8822931
8.1502657 -1.3519169 1.876238
8.0815821 -1.0308485 1.764732
8.0154638 -0.72271192 1.6629946
7.9982543 -0.42730749 1.5747722
8.1660976 -1.3526392 1.5595362
8.0937624 -1.0345556 1.4531546
8.0483379 -0.72978288 1.3600413
8.0051308 -0.43075743 1.2720174
8.1546965 -1.3514819 1.2439071
8.0719023 -1.0359139 1.1431564
7.56391 -0.68985057 0.99346799
7.4987764 -0.41020486 0.91067034
7.6735415 -1.273116 0.87950295
7.6225276 -0.97837842 0.79430932
7.5748763 -0.69391692 0.71367729
7.5068045 -0.41432363 0.63502353
7.6841302 -1.2761129 0.59416312
7.6122332 -0.97948802 0.51125234
7.5836177 -0.69658631 0.43577555
7.5458403 -0.41898811 0.35930932
7.693151 -1.2800947 0.30792016
7.6420622 -0.98712283 0.23057993
7.5870948 -0.70077842 0.15667656
7.5457511 -0.42215371 0.082443364
7.6949897 -1.2815049 0.022192933
7.6538672 -0.99149996 -0.052669059
7.5874343 -0.70388168 -0.12263136
7.5545435 -0.42542323 -0.19403948
7.7135963 -1.2887548 -0.2648991
7.6465187 -0.99339777 -0.33382833
7.6062398 -0.7103129 -0.40383676
7.5651774 -0.42787647 -0.47273827
7.7294865 -1.2966797 -0.55327481
7.6830854 -1.0022393 -0.62068164
7.6299787 -0.71373874 -0.68676156
7.6042452 -0.43234956 -0.75647134
7.6234798 -1.2810851 -0.83187008
7.4018397 -0.96883637 -0.8742916
6.9418898 -0.65120548 -0.88254571
7.4703703 -0.42656919 -1.0219204
7.6223421 -1.2873241 -1.1200114
5.015873 -0.65938365 -0.7812804
7.5792351 -0.71392959 -1.2516899
4.6254916 -0.26485136 -0.80801654
4.3506393 -0.73820865 -0.80695939
4.213346 -0.55590385 -0.8187018
4.0161595 -0.38077927 -0.81665593
3.8081861 -0.21925353 -0.81218719
3.6925991 -0.63020086 -0.83074033
3.4758728 -0.4602074 -0.81198567
3.3219943 -0.31531525 -0.80648577
3.101454 -0.17747778 -0.78428423
3.0845792 -0.52942491 -0.81872225
2.9911597 -0.39831555 -0.8200236
2.8223999 -0.26864058 -0.80050486
2.7895377 -0.15953097 -0.82022792
6.0188975 -1.0403676 1.8870505
6.3195152 -0.84473997 1.8936603
6.6043653 -0.62879592 1.9002053
6.9039173 -0.39816049 1.9088415
7.0810771 -1.219384 1.9184422
7.4596567 -0.99913245 1.926818
7.8104444 -0.74954087 1.9291307
7.9794483 -0.4696905 1.8827518
8.1533499 -1.4038862 1.8788955
8.0789795 -1.0809351 1.7655787
8.037199 -0.77441627 1.6684585
7.9974408 -0.47649249 1.575158
8.1731396 -1.4053844 1.5624986
8.0979958 -1.0856376 1.4550834
8.0545053 -0.78019863 1.3618668
8.0131817 -0.48051816 1.2737411
8.156971 -1.4033371 1.2455441
8.0840416 -1.0879322 1.1457994
7.5684166 -0.73711389 0.99463522
7.5070176 -0.45687211 0.91199446
7.6841912 -1.3233802 0.88163763
7.6222959 -1.0259271 0.79492617
7.5863299 -0.74193293 0.71517193
7.5011368 -0.46019363 0.63477105
7.7036681 -1.3279806 0.59629267
7.6288228 -1.0292457 0.51278108
7.5792007 -0.74310541 0.43577555
7.5521002 -0.46583408 0.35973671
7.7127218 -1.3320364 0.30902481
7.6626048 -1.0376165 0.2313875
7.5816574 -0.74722075 0.15665601
7.5250545 -0.46732998 0.082247011
7.7155576 -1.3336356 0.022275433
7.6595302 -1.0400591 -0.052750949
7.6088428 -0.75298423 -0.12304973
7.5258503 -0.47014847 -0.19337294
7.7281928 -1.3399874 -0.26567772
7.6749268 -1.0450149 -0.33534217
7.6226053 -0.75904846 -0.40494531
7.5574293 -0.47397512 -0.47242692
7.7528324 -1.3495567 -0.55552816
7.6787667 -1.049633 -0.62084138
7.6314025 -0.7611351 -0.68729711
7.6679893 -0.48319316 -0.76309317
7.6497574 -1.3338152 -0.83561486
7.4557796 -1.0224665 -0.88138735
7.1727076 -0.71728265 -0.91243273
5.8330827 -0.36899877 -0.79824001
7.6162491 -1.3344111 -1.1202981
7.60816 -1.047693 -1.1860383
4.8374081 -0.48562494 -0.79936177
4.6513081 -0.29497367 -0.81282723
4.3644347 -0.76812941 -0.81037718
4.1972103 -0.57999861 -0.81624264
3.947437 -0.39871699 -0.80316406
3.7911518 -0.24162066 -0.80885518
3.647325 -0.64553016 -0.8214305
3.4025395 -0.47175929 -0.79551584
3.4138043 -0.34517774 -0.82927322
3.1293359 -0.19834453 -0.79162771
3.0250764 -0.53834093 -0.80379039
2.9685884 -0.4138633 -0.8145166
2.8436775 -0.28828299 -0.80702627
2.8153188 -0.17834274 -0.82811469
0 -0 0
6.3294024 -0.88562524 1.8982158
6.6003828 -0.66930771 1.9002053
6.8849907 -0.43947077 1.9043183
7.0677552 -1.2617909 1.9168946
7.4505072 -1.0444816 1.9260739
7.807631 -0.79764819 1.9296083
7.9803009 -0.51889527 1.8836689
8.1589823 -1.4564584 1.8822175
8.1051035 -1.1350952 1.7727766
8.0527544 -0.82581502 1.672708
7.9943662 -0.5255549 1.575158
8.18081 -1.4584395 1.5656462
8.1028814 -1.136947 1.4571874
8.0593758 -0.83061641 1.3635265
8.0357046 -0.53137141 1.2778156
8.1832523 -1.4596118 1.2509011
8.1076126 -1.1417956 1.1501117
7.5637512 -0.78353894 0.99463522
7.51794 -0.50385505 0.91367978
7.6915774 -1.3732991 0.88343531
7.6286621 -1.0744808 0.79626268
7.5935183 -0.78970367 0.71629286
7.5339632 -0.50862741 0.63780099
7.7179508 -1.3792589 0.59804207
7.6371841 -1.0781281 0.51377809
7.5834355 -0.79052812 0.43628973
7.5620551 -0.51304311 0.3603541
7.7388291 -1.385499 0.31040564
7.6669803 -1.086156 0.23171651
7.5958223 -0.79570597 0.15704662
7.5539694 -0.51567334 0.082596071
7.724947 -1.3841269 0.022326643
7.6718149 -1.0897094 -0.052880608
7.6020908 -0.79944789 -0.12301755
7.5567327 -0.51864463 -0.19424456
7.7276945 -1.3887956 -0.26594853
7.7109013 -1.0981447 -0.33720207
7.6277347 -0.80685604 -0.4054732
7.58425 -0.52239519 -0.47429499
7.748333 -1.3978102 -0.55580986
7.6919174 -1.0995505 -0.62243843
7.6364932 -0.80899549 -0.68818969
7.5993595 -0.52570146 -0.75657016
7.6052279 -1.3741869 -0.8316561
7.5604625 -1.0841256 -0.89453197
7.3832359 -0.78412056 -0.93980819
5.9354815 -0.41205654 -0.81258368
5.3936076 -0.97913927 -0.79423159
7.6211524 -1.0971726 -1.1890907
4.8755479 -0.51969028 -0.80617595
4.6720138 -0.32508075 -0.81677878
4.3577042 -0.79454178 -0.81001747
7.6164608 -1.100161 -1.4824783
3.9546614 -0.42397526 -0.80514812
3.8061845 -0.26603752 -0.81239545
3.5885596 -0.65786326 -0.8090896
3.479605 -0.50422418 -0.81424183
3.3623321 -0.36082843 -0.81729221
3.1744874 -0.22077085 -0.80337727
3.0711901 -0.56601018 -0.81695068
2.9764972 -0.4336006 -0.81740117
2.8399415 -0.30552018 -0.80648285
2.7768407 -0.19301897 -0.81712949
0 -0 0
6.344717 -0.92749554 1.9044795
6.6267385 -0.71308559 1.9090165
6.8965883 -0.48271757 1.9083095
7.0541797 -1.3040802 1.9153467
7.4382067 -1.0893352 1.9245858
7.8006582 -0.8453306 1.9291307
7.9963846 -0.56923395 1.888254
8.1748247 -1.5111022 1.8879756
8.1105576 -1.1866452 1.7755286
8.0562973 -0.87616318 1.6745292
8.030139 -0.57741243 1.5828747
8.1968327 -1.5132471 1.5704601
8.1259489 -1.1910701 1.4626225
8.0619688 -0.88090903 1.364854
8.043129 -0.58145088 1.2795393
8.1867838 -1.5121309 1.2528358
8.1112309 -1.1931067 1.1516417
7.5952697 -0.83393866 0.99943399
7.5335183 -0.55135155 0.91596699
7.6849604 -1.4208292 0.88365996
7.6563692 -1.1263362 0.79986101
7.5994158 -0.83748144 0.71732044
7.5446129 -0.55587041 0.63897932
7.7201276 -1.4285852 0.59887868
7.6708965 -1.1309354 0.51650316
7.6141658 -0.84099007 0.43834633
7.5747037 -0.56061298 0.36111394
7.7459016 -1.4358715 0.31103685
7.66116 -1.1333256 0.23174642
7.612658 -0.84472382 0.15749891
7.5666175 -0.56320149 0.082770601
7.7320399 -1.4344187 0.02237216
7.6719084 -1.1377891 -0.052928377
7.6308289 -0.84984118 -0.12356465
7.5942807 -0.56805944 -0.19529565
7.7229581 -1.4369171 -0.26608396
7.7069821 -1.1458778 -0.33733183
7.6325645 -0.85475516 -0.40600109
7.5848823 -0.56922019 -0.47454402
7.7533379 -1.4478904 -0.55679572
7.710659 -1.1505514 -0.62451452
7.6452427 -0.85739094 -0.68943936
7.6962128 -0.57987159 -0.76655239
7.5907888 -1.4197291 -0.8310141
7.5978699 -1.1371107 -0.8997665
7.3822293 -0.82985181 -0.94031054
7.430625 -0.56168687 -1.0177256
5.4234862 -1.0189769 -0.799537
7.6015716 -1.1420057 -1.1871066
4.8575597 -0.54793721 -0.80374235
7.4940901 -0.56766814 -1.3107289
4.3363142 -0.81816465 -0.80695939
7.5998573 -1.1454105 -1.4805866
3.9782801 -0.45121497 -0.81050515
3.8659217 -0.29406035 -0.82551539
3.5719862 -0.67750478 -0.80627501
3.5014906 -0.52935141 -0.82010782
3.3001747 -0.37465456 -0.80272704
3.1576042 -0.23907378 -0.79946077
3.0324974 -0.57814038 -0.80758667
2.982367 -0.45316058 -0.8197614
2.8906047 -0.32892439 -0.82142776
2.7813447 -0.21048817 -0.81881952
0 -0 0
6.3417497 -0.966842 1.9053338
6.6212826 -0.75362432 1.908741
6.8954186 -0.52517158 1.9088415
7.0602798 -1.3500613 1.9192163
7.4170184 -1.1327609 1.9208657
7.8011136 -0.89384192 1.9305633
8.0150623 -0.62001485 1.8935274
8.1835976 -1.5647131 1.8921834
8.1195488 -1.2388943 1.7791276
8.065362 -0.92725688 1.6775645
8.0362272 -0.62743735 1.5848038
8.1999426 -1.5659099 1.5728672
8.1330862 -1.2431389 1.4652526
8.0701265 -0.93194354 1.3671774
8.0463018 -0.63133246 1.2806363
8.1996918 -1.5666037 1.2562584
8.1164827 -1.2448055 1.1534503
7.6037989 -0.88212633 1.0012497
7.5458279 -0.59882253 0.91789305
7.742465 -1.4806483 0.89130002
7.6601295 -1.1749525 0.80099195
7.6060019 -0.88547641 0.71844143
7.545033 -0.60247004 0.6393159
7.7161131 -1.4768653 0.59925896
7.6815648 -1.1807106 0.51769954
7.6326618 -0.89047045 0.43971741
7.5741081 -0.60731941 0.36125639
7.7438149 -1.4846894 0.311313
7.6629529 -1.1816833 0.23201562
7.6261983 -0.89362913 0.15788952
7.57797 -0.61082387 0.082934223
7.7417526 -1.4854147 0.022426212
7.6835594 -1.1877443 -0.053058039
7.6473169 -0.89921594 -0.12391865
7.5926447 -0.61480772 -0.19534692
7.7375498 -1.4888092 -0.26689643
7.719552 -1.1962053 -0.3381969
7.646019 -0.90379888 -0.40700409
7.5832362 -0.61591101 -0.47466856
7.7854438 -1.5033801 -0.55975324
7.7093635 -1.1987604 -0.62499362
7.6517072 -0.90569001 -0.69051045
7.6944933 -0.62724543 -0.76675004
7.5350785 -1.457217 -0.82587844
7.6162648 -1.1876879 -0.90279096
7.4715757 -0.88635236 -0.95236582
7.4645643 -0.61033797 -1.0228677
5.4083886 -1.0505373 -0.79824656
7.5973501 -1.189085 -1.1875644
4.8384285 -0.5758664 -0.80114645
4.6971283 -0.38480213 -0.82193309
4.3176956 -0.84212005 -0.80444103
4.165452 -0.6539591 -0.81227022
3.9559729 -0.47328812 -0.80653697
3.8065324 -0.31304589 -0.81322849
3.5256078 -0.6911456 -0.79674864
3.4336984 -0.54067338 -0.8049916
3.3306279 -0.39882633 -0.81071442
3.2449813 -0.26572409 -0.82198083
3.0383847 -0.59860665 -0.81011748
2.9719052 -0.47024494 -0.81766343
2.8589108 -0.34309974 -0.81300426
2.8134718 -0.23028991 -0.82867807
0 -0 0
6.3120289 -1.0019788 1.8982158
6.575491 -0.78931087 1.8969009
6.880538 -0.56652194 1.9056486
7.0490193 -1.3927951 1.9184422
7.4099278 -1.1782495 1.9208657
7.800303 -0.94227415 1.9317571
8.0305071 -0.67080313 1.8981127
8.1987162 -1.6198115 1.8979415
8.1262722 -1.2909918 1.7823031
8.0799379 -0.97920191 1.6818142
8.0449371 -0.6778059 1.5873119
8.1988564 -1.6179066 1.5745336
8.1554461 -1.2978156 1.4706879
8.076004 -0.98287302 1.369169
8.0422764 -0.68069172 1.2806363
8.2044773 -1.6197596 1.2584906
8.1331387 -1.2984868 1.1569277
7.6031642 -0.9293673 1.0018982
7.5835543 -0.64866495 0.92294896
7.7332339 -1.5281273 0.89130002
7.6763506 -1.2256962 0.80345941
7.6192017 -0.93443203 0.72021627
7.5650215 -0.65080392 0.6413359
7.730382 -1.5288254 0.60108435
7.6850133 -1.2295554 0.51843065
7.6270542 -0.93728685 0.43971741
7.6239777 -0.65842283 0.36382085
7.7414203 -1.5335358 0.31158918
7.670362 -1.231056 0.23246427
7.648355 -0.9438343 0.15846515
7.5979881 -0.65938479 0.083196014
7.7452445 -1.5354172 0.022463197
7.6889615 -1.236932 -0.053146753
7.6327252 -0.94501638 -0.12377384
7.6026721 -0.66259891 -0.19570583
7.7508149 -1.5407398 -0.26767504
7.7239027 -1.2454575 -0.33871594
7.6581664 -0.95291644 -0.40795428
7.610137 -0.66512316 -0.47659886
7.7897677 -1.5538542 -0.5607391
7.7195754 -1.2489071 -0.62643093
7.656878 -0.95397747 -0.69149226
7.6944652 -0.6747939 -0.7671454
7.4411707 -1.486479 -0.8165701
7.6245203 -1.2369429 -0.90465218
7.4847007 -0.93451571 -0.95475167
7.5258203 -0.66185707 -1.0317987
0 -0 -0
5.1659393 -0.84104317 -0.80829477
4.8308873 -0.60505301 -0.80049747
7.500298 -0.6607998 -1.3131343
4.3076253 -0.86762589 -0.8035416
4.1400409 -0.67602414 -0.80810863
3.9549396 -0.49779746 -0.80693388
3.7947972 -0.33553499 -0.81114596
3.5471363 -0.71799487 -0.80259436
3.4197409 -0.56000024 -0.80250984
3.2827914 -0.41354522 -0.79967308
3.1486375 -0.27729407 -0.79799211
3.0261223 -0.61550307 -0.80783969
2.9546809 -0.48612148 -0.81372982
2.841475 -0.35870671 -0.80865663
2.7785523 -0.24460369 -0.81881952
0 -0 0
6.3067079 -1.0408459 1.8985004
6.6019983 -0.83361661 1.9059876
6.8817334 -0.60915446 1.906979
7.0289807 -1.4337037 1.9153467
7.4111609 -1.2251158 1.9230977
7.7808876 -0.98840499 1.9284146
8.040782 -0.72136939 1.9015518
8.1972218 -1.6718413 1.8999346
8.1374836 -1.3440145 1.7865371
8.0815487 -1.0297512 1.6834329
8.0445356 -0.72750938 1.5880835
8.2089968 -1.6723028 1.5784217
8.1609278 -1.3500817 1.4731426
8.093297 -1.0354114 1.373152
8.048769 -0.73100811 1.2823603
8.2118244 -1.6736252 1.2611691
8.155303 -1.3533922 1.16124
7.6209221 -0.97903425 1.005011
7.5853629 -0.6957286 0.92367125
7.7305274 -1.576939 0.89208651
7.6873293 -1.2758688 0.80541277
7.6271491 -0.98294657 0.72152406
7.5817227 -0.69913125 0.64310336
7.7316022 -1.5784234 0.60192102
7.6851988 -1.2779961 0.51896238
7.637002 -0.98611349 0.44063148
7.6138268 -0.704638 0.36353591
7.7485075 -1.5844104 0.31225985
7.6843543 -1.2817152 0.2331223
7.6612582 -0.99318814 0.15885577
7.6057472 -0.70710355 0.083326913
7.7758451 -1.5911316 0.022579836
7.6960211 -1.2865605 -0.053249113
7.6664438 -0.99698985 -0.12441748
7.6153846 -0.71081495 -0.19614165
7.7803764 -1.5963036 -0.26902917
7.7397633 -1.2967893 -0.33975402
7.6620774 -1.001182 -0.40848219
7.6347308 -0.71450251 -0.47840467
7.781064 -1.6018232 -0.56080949
7.7422404 -1.3013723 -0.62890631
7.6637187 -1.0026209 -0.69265264
7.7139573 -0.72422594 -0.76951736
7.5292883 -1.552184 -0.82726938
7.5756521 -1.27677 -0.8997665
6.3810525 -0.8365128 -0.81460929
7.54036 -0.70978642 -1.0343697
0 -0 -0
5.1597066 -0.87256008 -0.80814207
4.872087 -0.64060062 -0.80796051
7.5245452 -0.70949024 -1.3181168
4.3368926 -0.90124589 -0.81001747
4.1977749 -0.71192229 -0.82021517
3.944037 -0.52102816 -0.80534649
3.8092203 -0.36037919 -0.81468624
3.5464866 -0.74054438 -0.80346036
3.4421718 -0.58538276 -0.80860144
3.3447554 -0.44221628 -0.81541282
3.2694697 -0.30816352 -0.82907945
3.0109265 -0.63167572 -0.80480272
2.9288132 -0.50034189 -0.80743611
2.8525772 -0.37790439 -0.81246084
2.779865 -0.26191798 -0.81966454
0 -0 0
6.2850852 -1.0769333 1.8939451
6.6024776 -0.87486774 1.9076397
6.8855433 -0.65209556 1.9091076
7.0143785 -1.4756124 1.913799
7.3977752 -1.2695836 1.9216096
7.7708254 -1.0356158 1.9274594
8.0497694 -0.77199405 1.9047616
8.2354774 -1.7323444 1.9112291
8.1685781 -1.4006922 1.7952168
8.1051693 -1.0833412 1.6897062
8.0467567 -0.77751666 1.5894339
8.2283945 -1.728905 1.5841614
8.1709261 -1.4032969 1.4764739
8.1043844 -1.087412 1.3761394
8.0618258 -0.78209722 1.285181
8.2362385 -1.7313037 1.2665263
8.1556282 -1.4049197 1.1624919
7.6216502 -1.0267035 1.0059187
7.5868793 -0.74283886 0.92439353
7.7459879 -1.6296619 0.89500773
7.6950402 -1.3257153 0.80705774
7.6249204 -1.0302606 0.72189766
7.5931568 -0.74720001 0.64445001
7.7442131 -1.6305588 0.6036703
7.6890106 -1.3271641 0.51975995
7.6426797 -1.0345618 0.44131702
7.6133361 -0.75173491 0.36372587
7.7562389 -1.6356359 0.31296998
7.7019525 -1.3332742 0.23389997
7.660964 -1.0409857 0.15897912
7.6191764 -0.75553435 0.083523266
7.780612 -1.6419104 0.022622509
7.6988201 -1.3356384 -0.053324182
7.6740518 -1.0459018 -0.12464276
7.6347532 -0.75990492 -0.1967569
7.7870569 -1.6475298 -0.26960465
7.7415037 -1.3459665 -0.34018654
7.6755772 -1.0508859 -0.40953797
7.6361613 -0.76192939 -0.47877824
7.7993865 -1.6555434 -0.56285167
7.7409835 -1.3500521 -0.62946528
7.6722245 -1.0516547 -0.69399154
7.6836243 -0.76896781 -0.76694769
7.6207657 -1.6198524 -0.83839667
7.5461516 -1.3194658 -0.89720744
6.2460628 -0.85783237 -0.7980333
7.4993858 -0.75238031 -1.0293629
0 -0 -0
7.6364751 -1.3396549 -1.1973324
4.8582897 -0.66913676 -0.80633819
4.6422 -0.46646795 -0.81368625
4.3582134 -0.93360895 -0.81505418
4.219439 -0.74225938 -0.82532257
3.9262028 -0.54320371 -0.80237037
3.8049908 -0.38354912 -0.81426972
3.5065622 -0.75469095 -0.79544961
3.4164488 -0.6026004 -0.80341232
3.3256111 -0.46046469 -0.81141919
3.1343856 -0.31484586 -0.79529941
2.9710615 -0.64236963 -0.79518557
2.9779494 -0.52756172 -0.82185924
2.8683164 -0.39791292 -0.81762356
2.7829792 -0.27944931 -0.82107294
0.7963835 -0.17316836 0.25178385
0.79564893 -0.14136313 0.24001738
6.5827012 -0.9133814 1.9035093
6.8785357 -0.69404191 1.9083095
7.0089693 -1.5194428 1.9148309
7.3936615 -1.3156304 1.9226017
7.7845225 -1.0860952 1.9324734
8.0603733 -0.82295376 1.9084297
8.2380352 -1.785736 1.9143296
8.1761885 -1.4536958 1.7988157
8.1197071 -1.1360387 1.6941582
8.06038 -0.82878286 1.5930994
8.2397213 -1.784144 1.5884199
8.1893005 -1.458239 1.4813832
8.1200209 -1.1402731 1.3799565
8.0706291 -0.83296847 1.287375
8.2496214 -1.7870415 1.2702465
8.1760998 -1.4601581 1.166665
7.633862 -1.0760794 1.008383
7.5881028 -0.78999388 0.92511582
7.7562356 -1.681581 0.89736712
7.6965532 -1.3746552 0.80808586
7.6391582 -1.0799537 0.72385937
7.6042857 -0.79543531 0.64579666
7.7681675 -1.6854455 0.60633236
7.695456 -1.3769542 0.52075696
7.636188 -1.0814369 0.44131702
7.6284485 -0.8005203 0.36467567
7.7753496 -1.6895617 0.31415352
7.7221584 -1.3856269 0.23476738
7.664331 -1.0893799 0.15918471
7.6163859 -0.80248004 0.083545074
7.7821169 -1.6921701 0.022656647
7.712132 -1.3867457 -0.053474311
7.6783786 -1.0945214 -0.12481976
7.6269646 -0.80642122 -0.19667999
7.8012137 -1.700601 -0.27045098
7.7321157 -1.3932649 -0.34014329
7.6976519 -1.1020669 -0.41106886
7.6343203 -0.80908525 -0.47896507
7.8066225 -1.7072043 -0.56411916
7.7423635 -1.3992974 -0.63026381
7.6971769 -1.1032327 -0.69684786
7.6995416 -0.81830764 -0.76902318
7.6281657 -1.6704104 -0.84032255
7.5584364 -1.3694618 -0.89965022
7.4220409 -1.0657808 -0.94910085
7.4108839 -0.78946042 -1.0178609
0 -0 -0
7.6553369 -1.3914348 -1.2016058
4.8658128 -0.70062166 -0.80828506
4.5951695 -0.49024037 -0.80595481
4.2986102 -0.94846386 -0.8049807
4.1906543 -0.76373392 -0.82059348
3.9198861 -0.56686342 -0.80177522
3.7918682 -0.40574419 -0.81197894
3.4990063 -0.77555883 -0.7948001
3.4289789 -0.6265288 -0.80724776
3.2669275 -0.47278687 -0.79779369
3.3011141 -0.35206622 -0.83813649
3.0586634 -0.68098128 -0.81973457
2.9518766 -0.54164428 -0.81556553
2.8715353 -0.41633362 -0.81925392
2.7764416 -0.29601148 -0.81966454
0 -0 0
0.80419439 -0.14797726 0.24286456
6.5512853 -0.95002985 1.8960748
6.8540196 -0.734079 1.9027218
7.006115 -1.5638938 1.9166366
7.3864021 -1.3611479 1.9228498
7.7671413 -1.1322986 1.929847
8.0580759 -0.87271023 1.9091177
8.243103 -1.8398613 1.9180945
8.1738424 -1.5050755 1.8002976
8.1213045 -1.1871136 1.6959794
8.0727005 -0.88013905 1.5965717
8.2612305 -1.8419396 1.5947151
8.1966581 -1.5114954 1.4843639
8.1372633 -1.1936532 1.3841053
8.0771475 -0.88376236 1.2892555
8.251049 -1.8404254 1.2721812
8.2059364 -1.5175012 1.1722292
7.6585069 -1.1275212 1.0125332
7.5979133 -0.83817148 0.92692149
7.7632279 -1.7330376 0.89938945
7.6928639 -1.4227589 0.80859989
7.6511021 -1.1295692 0.72563422
7.6061945 -0.84284759 0.64638579
7.7761683 -1.7372088 0.60777742
7.7162948 -1.4295996 0.52275091
7.6679258 -1.1339675 0.44354501
7.6442409 -0.84962964 0.36567298
7.7862892 -1.7420382 0.31502149
7.732183 -1.4364519 0.23533569
7.6634359 -1.1372675 0.15930806
7.6162877 -0.8497526 0.08359962
7.7969594 -1.7455686 0.022730615
7.7369027 -1.4402626 -0.053706333
7.6814079 -1.1430861 -0.12498067
7.6169057 -0.8526482 -0.19655181
7.8081851 -1.7523756 -0.27106032
7.745028 -1.4447124 -0.34109485
7.7253122 -1.1544436 -0.41291648
7.6470652 -0.8579163 -0.48008588
7.8135166 -1.7590162 -0.56538671
7.7483287 -1.4495267 -0.63146156
7.7267098 -1.1558933 -0.70015043
7.6973424 -0.86586952 -0.76931971
7.6410503 -1.7224318 -0.84289032
7.5430579 -1.4145322 -0.89883596
7.1789098 -1.0758656 -0.91883707
5.8227196 -0.65643507 -0.80026984
0 -0 -0
7.6573391 -1.4403906 -1.2032846
4.8604465 -0.73031795 -0.80812281
4.6243796 -0.52207363 -0.81162459
4.3425918 -0.98614931 -0.81433469
4.1250982 -0.77796811 -0.80867612
3.9308712 -0.5930981 -0.80475134
3.8281817 -0.43340418 -0.82030904
1.4410762 -0.32870573 -0.32779279
3.4547453 -0.65316731 -0.81424183
3.303371 -0.49877337 -0.8074255
3.144738 -0.35491693 -0.79897118
0 -0 -0
2.9503937 -0.5601064 -0.81609005
2.9564693 -0.44718662 -0.84425271
2.7802937 -0.31368729 -0.82135463
0 -0 0
0.77313685 -0.1471726 0.23375359
6.5805025 -0.99553055 1.9062629
6.8503442 -0.7762292 1.9029878
7.0058036 -1.6090158 1.9192163
7.3531694 -1.4017278 1.9164014
7.7552471 -1.1792057 1.9286531
8.0661077 -0.92368758 1.9123274
8.2744284 -1.9002274 1.9280604
8.1750145 -1.5572125 1.8026263
8.1245165 -1.238546 1.6982052
8.0778713 -0.93089134 1.598694
8.2727604 -1.8978684 1.5991586
8.2007685 -1.5643432 1.4868186
8.1356344 -1.2444547 1.3851012
8.085309 -0.93489438 1.2914494
8.2521296 -1.8938936 1.2741156
8.201334 -1.5687536 1.1729246
7.6573248 -1.1753943 1.0133114
7.6271396 -0.88879734 0.93113476
7.7727852 -1.7853105 0.90174884
7.718184 -1.4764761 0.81219822
7.6676435 -1.1801291 0.72787613
7.6335402 -0.89332455 0.64916325
7.7838264 -1.7891337 0.60922253
7.7524557 -1.4855571 0.52580827
7.6835179 -1.1844941 0.44485897
7.6468201 -0.89744925 0.36605287
7.7890863 -1.7929192 0.31557378
7.7408919 -1.4872633 0.23587406
7.6829906 -1.1883943 0.15986314
7.6307917 -0.89880872 0.08381778
7.8046179 -1.7976418 0.022784669
7.740685 -1.4901657 -0.053795047
7.6831422 -1.191576 -0.1251255
7.6373425 -0.90241849 -0.19721836
7.819684 -1.8054241 -0.27183896
7.7575994 -1.4963708 -0.34204644
7.7289371 -1.2035136 -0.41349715
7.6565242 -0.906582 -0.48101991
7.8200688 -1.8109767 -0.56665421
7.7490754 -1.4989353 -0.63226008
7.7283287 -1.2046623 -0.70095378
7.700778 -0.91413891 -0.77020919
7.6390553 -1.7713053 -0.84385329
7.5352116 -1.4609779 -0.89895225
7.5769987 -1.1831056 -0.97069985
5.8077593 -0.69086283 -0.79878134
0 -0 -0
5.0397277 -0.98005742 -0.79287976
4.8100538 -0.75295484 -0.80049747
4.5888076 -0.54659325 -0.80595481
1.4761394 -0.34475115 -0.27720118
4.1038628 -0.80007041 -0.80546039
3.9378088 -0.61888021 -0.80693388
3.7681513 -0.45004189 -0.80802214
0 -0 -0
3.3923485 -0.66295487 -0.80047935
3.2877657 -0.51706988 -0.80437154
3.1713841 -0.3776454 -0.80631471
0 -0 -0
2.8332677 -0.55590349 -0.78462124
2.8738153 -0.45273855 -0.82142776
2.8040419 -0.33380336 -0.8289597
0.82374227 -0.19506316 0.26152459
0.77974391 -0.15339398 0.23603134
6.5419831 -1.0308015 1.8969009
6.8473663 -0.81847632 1.90352
6.9920378 -1.6510841 1.9181844
7.3434796 -1.4466324 1.9161533
7.7392335 -1.225402 1.9265044
8.0718842 -0.974563 1.9150786
8.2825432 -1.9556686 1.9327111
8.201745 -1.6145172 1.8106709
8.1254692 -1.2897555 1.7000264
8.0866175 -0.98221326 1.6015875
8.2724371 -1.9513007 1.6013805
8.2016411 -1.6167271 1.4887471
8.146349 -1.2972974 1.3882544
8.0960865 -0.98651814 1.2941135
8.2750015 -1.9526681 1.2794728
8.2187557 -1.6244229 1.1768196
7.6656346 -1.22486 1.0153866
7.6353374 -0.93727326 0.93282014
7.787796 -1.8391361 0.90478247
7.7323985 -1.5284355 0.81466568
7.6877847 -1.2315643 0.7304917
7.6387939 -0.94148707 0.65008903
7.7707615 -1.8364021 0.60907042
7.7343855 -1.5313531 0.52521014
7.6879344 -1.233515 0.44554451
7.648109 -0.94520998 0.36638531
7.7934961 -1.8443601 0.31620502
7.7522101 -1.5388196 0.2365022
7.6962829 -1.2388506 0.16029486
7.6578803 -0.94967449 0.084177747
7.8197136 -1.8517176 0.022861479
7.7539535 -1.5421199 -0.053952001
7.6993761 -1.2425195 -0.12551169
7.6386056 -0.95012712 -0.19739781
7.8162374 -1.8552171 -0.27210975
7.7610092 -1.5464804 -0.34260872
7.7312646 -1.2525119 -0.41402504
7.6636925 -0.95514911 -0.48182938
7.8272471 -1.8633149 -0.56799215
7.7661242 -1.5517279 -0.63441604
7.7266908 -1.2530165 -0.70148933
7.6881118 -0.96050924 -0.76951736
7.6396484 -1.8209106 -0.84513718
7.5601912 -1.5140117 -0.90302366
7.5842853 -1.2319608 -0.97258347
7.5317516 -0.94284362 -1.0366701
0 -0 -0
0 -0 -0
7.678421 -1.2502781 -1.2791086
4.6058946 -0.57731229 -0.80956286
1.4787788 -0.35495004 -0.27810061
7.6134362 -1.5328306 -1.4960982
3.9300678 -0.642398 -0.80614018
3.7643485 -0.47303241 -0.80781388
7.6639647 -1.8473574 -1.7483004
3.4034963 -0.68684095 -0.80408919
3.3209832 -0.54319578 -0.81329852
3.2873399 -0.41192541 -0.83642292
3.0474911 -0.73762113 -0.82024074
2.9111412 -0.58975554 -0.80717385
2.845341 -0.46616235 -0.81409115
2.8028932 -0.35112163 -0.82924145
0 -0 0
0.7731514 -0.1570307 0.23432301
6.5355349 -1.070923 1.8969009
6.8374333 -0.85987413 1.9021896
6.9939814 -1.6969168 1.9215379
7.3363633 -1.4920499 1.9166493
7.726778 -1.2720773 1.9253106
8.0927896 -1.0275056 1.9214981
8.2902889 -2.0112805 1.9373618
8.2050924 -1.6675369 1.8136346
8.1512213 -1.3451692 1.7071092
8.093092 -1.0334291 1.6040956
8.28514 -2.0080411 1.6061945
8.2108612 -1.6709477 1.4922538
8.1664486 -1.3519286 1.3930672
8.1016369 -1.0376819 1.295994
8.2888117 -2.0096967 1.2834907
8.2280397 -1.6787812 1.1796017
7.673625 -1.2744715 1.0174617
7.6383033 -0.98524815 0.93390352
7.8111281 -1.8953217 0.90882719
7.7462654 -1.5806247 0.81713313
7.6771374 -1.2782218 0.7302115
7.6388025 -0.98910785 0.65059406
7.7884154 -1.891106 0.61135215
7.7414627 -1.5821781 0.52634001
7.700901 -1.2841125 0.4467442
7.6490993 -0.99302036 0.36671776
7.802422 -1.897103 0.3170335
7.7602472 -1.5899684 0.23704058
7.7151608 -1.2905041 0.16084994
7.6727319 -0.99935663 0.084406815
7.8237505 -1.9034458 0.022906996
7.7766709 -1.5963036 -0.054177206
7.7103434 -1.2928803 -0.12581742
7.6574135 -1.0002158 -0.19803871
7.8212137 -1.9071668 -0.27268526
7.7650743 -1.5968894 -0.34321427
7.7352509 -1.3019154 -0.41465852
7.6705527 -1.0038383 -0.48263887
7.8340774 -1.915809 -0.5693301
7.7652435 -1.6011624 -0.6351347
7.7276964 -1.3018922 -0.70229268
7.6840472 -1.0079234 -0.76971507
7.6128802 -1.863969 -0.84342533
7.5478411 -1.5597687 -0.90267462
6.3635473 -1.073786 -0.81686962
5.7546382 -0.75627142 -0.79269201
0 -0 -0
0 -0 -0
4.860774 -0.82212746 -0.81055641
4.6198463 -0.60787594 -0.81265539
1.4842137 -0.36590061 -0.27953964
4.109118 -0.85356617 -0.80848694
3.9192882 -0.66535211 -0.80475134
3.7924049 -0.50021392 -0.81447798
3.5187213 -0.87104803 -0.80389339
3.4507213 -0.71843439 -0.81627238
3.3367534 -0.56681842 -0.81799698
3.2116919 -0.42247799 -0.81781948
2.9715531 -0.73857123 -0.8010065
2.7780583 -0.58056265 -0.77124703
2.8500171 -0.48490363 -0.81626499
2.7540712 -0.36218303 -0.81543952
0.77771938 -0.19427401 0.2476514
0.77217335 -0.1617717 0.23432301
6.5601158 -1.1163261 1.9059876
6.8205609 -0.90029794 1.8989967
6.9965625 -1.7430689 1.9251492
7.3289666 -1.5374348 1.9171455
7.6996837 -1.3161916 1.9205357
8.1152782 -1.0809983 1.9283761
8.2976627 -2.0670612 1.9420125
8.223402 -1.7238665 1.8199856
8.1688747 -1.3996241 1.7125728
8.1138296 -1.0867151 1.6094972
8.2984104 -2.065248 1.6111937
8.2447748 -1.7306002 1.500319
8.1706352 -1.4041829 1.3952247
8.1235046 -1.0911862 1.3005387
8.2868805 -2.0631464 1.2851276
8.2408419 -1.7341299 1.1829402
7.6822724 -1.3243959 1.0196666
7.6478543 -1.0342259 0.93582958
7.8109217 -1.946097 0.91017544
7.7665963 -1.6344754 0.82032025
7.6926956 -1.3293729 0.73245341
7.6316023 -1.035826 0.65050989
7.8124628 -1.9477843 0.61416632
7.7501593 -1.6335591 0.52760285
7.7017307 -1.3328724 0.44725838
7.678493 -1.0447838 0.3684274
7.8129325 -1.9505086 0.31794086
7.7796845 -1.6437535 0.2379379
7.722858 -1.340555 0.16117887
7.6753721 -1.0476339 0.084504984
7.8284173 -1.9555357 0.02295536
7.7735777 -1.6454399 -0.054224972
7.710146 -1.3415369 -0.12594615
7.682826 -1.0515198 -0.19885907
7.8122735 -1.9558493 -0.27278683
7.7961779 -1.6532092 -0.3450309
7.742856 -1.3521019 -0.41550314
7.678092 -1.0527831 -0.48351061
7.8502321 -1.9708861 -0.57137221
7.798173 -1.6578996 -0.63864815
7.7450724 -1.3537427 -0.70461345
7.6994066 -1.0580332 -0.77188939
7.6533704 -1.9237339 -0.84920293
7.6061273 -1.6205395 -0.91081733
7.5588236 -1.3232281 -0.97132766
7.6560493 -1.0539813 -1.0554793
0 -0 -0
0 -0 -0
4.7973237 -0.84170574 -0.80082196
4.6218848 -0.63701838 -0.81368625
4.2713079 -1.0808418 -0.80570018
4.1546926 -0.88966036 -0.81851262
3.9267151 -0.69142747 -0.80713224
3.7815132 -0.52240348 -0.81281191
3.5133104 -0.89262211 -0.80389339
3.3967166 -0.72896421 -0.8045404
3.2977936 -0.58104122 -0.80930489
3.1879084 -0.43926495 -0.81243426
3.0025876 -0.76587671 -0.81062359
2.8810441 -0.62055868 -0.80088007
2.8356152 -0.50037503 -0.81300426
2.776511 -0.38247937 -0.82276297
0.8098315 -0.20758291 0.25827768
0.77678835 -0.16772054 0.23603134
6.515274 -1.1498739 1.8949735
6.8225474 -0.94318724 1.9011253
6.9726305 -1.7826159 1.9215379
7.3184485 -1.5821708 1.9168974
7.6885939 -1.3629026 1.9198194
8.1181326 -1.1321168 1.9306688
8.2923822 -2.119868 1.9437844
8.2365532 -1.7794516 1.8252783
8.1765251 -1.4526331 1.716013
8.1147823 -1.1375699 1.6110406
8.3074818 -2.1217201 1.6154521
8.2580576 -1.7863606 1.5047024
8.1725445 -1.4561933 1.3970503
8.1440411 -1.1448601 1.3049265
8.3008909 -2.1208086 1.2892944
8.255209 -1.7901186 1.1865569
7.6866903 -1.3737763 1.0213525
7.6521773 -1.0826626 0.93715376
7.8151989 -1.9981714 0.91208535
7.7632256 -1.6835753 0.82103992
7.7147746 -1.3819916 0.73534918
7.6428604 -1.0851544 0.65202481
7.8138881 -1.999144 0.6152311
7.759491 -1.6853179 0.52893215
7.704217 -1.3820432 0.44788677
7.6630378 -1.0906118 0.36799997
7.8385682 -2.0080822 0.3194795
7.776289 -1.6929462 0.23814727
7.7272792 -1.3902177 0.16144614
7.6836481 -1.0968289 0.084668614
7.8366132 -2.0087473 0.023015102
7.7828755 -1.6973681 -0.054361455
7.7283373 -1.3936112 -0.12638062
7.6950316 -1.1013319 -0.19934615
7.8320694 -2.0119536 -0.27390397
7.8073602 -1.7057059 -0.34598249
7.7589803 -1.4040312 -0.41682288
7.6981626 -1.1036997 -0.48519185
7.8553786 -2.0234962 -0.5726397
7.7946696 -1.7072099 -0.63920707
7.7464204 -1.403015 -0.70550603
7.7292142 -1.1104921 -0.77554625
7.6202416 -1.9651957 -0.84684908
7.6125326 -1.6707991 -0.91279489
7.5827761 -1.3754265 -0.97547174
7.6455154 -1.1003735 -1.0549381
0 -0 -0
0 -0 -0
4.8153687 -0.87536126 -0.80471569
4.6061888 -0.6636799 -0.81162459
4.224606 -1.0966489 -0.79814512
4.1491556 -0.91513634 -0.81851262
3.9330046 -0.71744305 -0.80931473
3.8547113 -0.55663991 -0.82926393
3.5247724 -0.91859436 -0.80779052
3.4207175 -0.75610018 -0.81130886
3.3649263 -0.61418056 -0.82668906
3.2273786 -0.46489987 -0.8232047
2.8602479 -0.74829143 -0.77342051
2.8781242 -0.63843369 -0.80114233
2.7870507 -0.50945824 -0.79996145
2.7608156 -0.39759368 -0.81881952
0.73461866 -0.19311506 0.23466371
0.77855182 -0.17310785 0.23688549
0.81800395 -0.14954987 0.23817961
6.8309422 -0.98709977 1.9051164
6.9512811 -1.8226701 1.9187002
7.2840171 -1.621573 1.9104491
7.6858168 -1.4111054 1.9212518
8.109107 -1.1816267 1.9302104
8.2735596 -2.1692255 1.9424556
8.2493296 -1.8352627 1.8305707
8.1915359 -1.5072063 1.721072
8.1280375 -1.1903256 1.6150918
8.3190231 -2.1791284 1.6202661
8.2594337 -1.83978 1.5069817
8.190609 -1.511322 1.4016972
8.1466351 -1.1962445 1.3064936
8.3192892 -2.1799738 1.2942051
8.2508345 -1.8422484 1.1875306
7.7024913 -1.4254259 1.024595
7.6591387 -1.1316265 0.93883908
7.818171 -2.0501199 0.91388309
7.7789607 -1.7370309 0.82381576
7.7130022 -1.4305735 0.73600304
7.6478863 -1.1337832 0.65303481
7.8178697 -2.0513535 0.61652404
7.7606888 -1.7355106 0.52972978
7.711297 -1.4322064 0.44880083
7.679914 -1.1411341 0.36913973
7.8116026 -2.0523322 0.31888771
7.7998919 -1.7482803 0.23919412
7.7431755 -1.4421818 0.16196011
7.6846857 -1.1451334 0.084755875
7.8454175 -2.0623875 0.023077691
7.8201227 -1.7558253 -0.054695841
7.7363501 -1.4441241 -0.12665416
7.6950502 -1.1495609 -0.19952561
7.8543692 -2.0691381 -0.2751227
7.8094182 -1.7564287 -0.34654474
7.7727947 -1.4558413 -0.418037
7.7376375 -1.157856 -0.48811844
7.8717484 -2.0793004 -0.57475233
7.8025231 -1.7591705 -0.64072424
7.7572451 -1.4541901 -0.70729119
7.7566986 -1.1630614 -0.77900541
7.7483783 -2.0490274 -0.86247009
7.6476707 -1.7277641 -0.91826212
7.6375713 -1.4338257 -0.98363405
7.6572361 -1.1500609 -1.0575091
0 -0 -0
0 -0 -0
4.8157253 -0.90598595 -0.80568916
4.5396819 -0.68255627 -0.80062878
1.4686719 -0.39088118 -0.27792072
4.1137772 -0.9338392 -0.81264853
3.860148 -0.72865427 -0.79522765
3.8231754 -0.57605541 -0.8232246
2.9597538 -0.79076982 -0.67940146
1.4581705 -0.33170474 -0.34631786
3.2455242 -0.61298782 -0.79826355
3.2110419 -0.48267618 -0.81977773
2.6733897 -0.71696085 -0.72406936
0 -0 -0
2.8245335 -0.53424042 -0.81164563
2.7583241 -0.41452625 -0.81881952
0.76939899 -0.20731348 0.24617553
0.77373719 -0.1770265 0.23574662
0.79912364 -0.15117113 0.2329479
6.7818637 -1.0225279 1.8931429
6.9474311 -1.8672943 1.920764
7.3220887 -1.677268 1.9230977
7.6856008 -1.4598691 1.9234008
8.1180639 -1.2338475 1.9341079
8.2638597 -2.2209625 1.9433415
8.2502985 -1.8886803 1.8333229
8.2004128 -1.5609195 1.7249167
8.1525898 -1.2450644 1.6214581
8.3330193 -2.2375224 1.6256355
8.2767782 -1.8970226 1.5122416
8.2005548 -1.565248 1.4050164
8.1498804 -1.2478529 1.3082174
8.3305864 -2.2376485 1.2980741
8.2596436 -1.897496 1.1904519
7.7140517 -1.4765754 1.0273186
7.6589193 -1.1796585 0.93968171
7.819838 -2.1019216 0.91556835
7.7856054 -1.788738 0.82566631
7.7246132 -1.4818118 0.73796481
7.6614656 -1.183884 0.65480226
7.8388371 -2.1083488 0.6191861
7.7703137 -1.7877948 0.53112555
7.7268753 -1.4842032 0.45022905
7.6895485 -1.1908345 0.36994708
7.8364921 -2.1103582 0.32042634
7.783174 -1.794759 0.23901467
7.7400713 -1.4908005 0.16208346
7.6923361 -1.1945658 0.084919497
7.8577199 -2.1172516 0.023151658
7.8150473 -1.8051258 -0.054736782
7.7518873 -1.4963038 -0.12705645
7.6977291 -1.1982929 -0.19978195
7.8675766 -2.1243267 -0.27603671
7.8218546 -1.8097183 -0.34758285
7.777441 -1.5061649 -0.41877607
7.7451801 -1.2076179 -0.48905247
7.8675075 -2.1299074 -0.57538605
7.8197427 -1.8135437 -0.64303994
7.7775106 -1.5074459 -0.70996898
7.7523651 -1.2110944 -0.77930188
7.7558122 -2.1019938 -0.86471695
7.6146746 -1.7694862 -0.91558659
7.6753778 -1.4897355 -0.98966175
7.6637402 -1.1991675 -1.0594035
0 -0 -0
0 -0 -0
4.805233 -0.9345758 -0.804878
4.6035366 -0.72106951 -0.81265539
0 -0 -0
1.4209598 -0.33174303 -0.28109771
3.870034 -0.75514156 -0.79820377
3.807008 -0.59753162 -0.82051736
1.6346757 -0.44750717 -0.3758575
0 -0 -0
3.2779539 -0.63996804 -0.80719054
3.1936512 -0.50011957 -0.81610596
1.4711355 -0.40422738 -0.39911127
0 -0 -0
2.8315916 -0.55359256 -0.81463462
2.7642605 -0.43277895 -0.82135463
0.77271742 -0.21330169 0.2476514
0.7912991 -0.18616132 0.24144098
0.79346365 -0.15514921 0.23157115
6.8183146 -1.0708516 1.9051164
6.9414315 -1.9114267 1.9223117
7.2918577 -1.7174999 1.9178895
7.6936502 -1.5103668 1.9276983
8.1180305 -1.284853 1.9359419
8.2528982 -2.2724035 1.9440058
8.2708998 -1.9468813 1.8405206
8.2137423 -1.6157435 1.7297734
8.1389828 -1.2941396 1.6203004
8.3399782 -2.2943451 1.6297088
8.2707329 -1.9491273 1.5132937
8.201438 -1.6176353 1.4068419
8.1596251 -1.3006345 1.3110381
8.3405352 -2.2952812 1.3017943
8.265192 -1.952238 1.1929556
7.7136006 -1.5256115 1.0284858
7.6799631 -1.2311877 0.94317275
7.8317018 -2.156723 0.91848952
7.7957811 -1.8415067 0.82792813
7.7270947 -1.5315039 0.73908573
7.6796365 -1.234985 0.65699053
7.8459396 -2.1619699 0.62078333
7.7679367 -1.8375061 0.53172368
7.7421045 -1.5364449 0.45165724
7.7116814 -1.2427619 0.37137175
7.8609614 -2.1687665 0.32196495
7.8041105 -1.8500907 0.24000171
7.758234 -1.5437278 0.16265909
7.711514 -1.2460492 0.085214011
7.8706069 -2.17261 0.023228468
7.8096623 -1.8544303 -0.05477773
7.7611909 -1.5475553 -0.12736218
7.7040467 -1.2477403 -0.20014086
7.8630629 -2.1749592 -0.27634138
7.8183789 -1.8595276 -0.34792888
7.7788243 -1.5560126 -0.41935673
7.7415648 -1.2557579 -0.48930153
7.8994689 -2.1906703 -0.57869571
7.8094378 -1.8617219 -0.64311987
7.7876472 -1.5590498 -0.71175414
7.7182684 -1.2543294 -0.77663338
7.7398944 -2.1487451 -0.86439592
7.5969114 -1.8145604 -0.91477233
7.6797109 -1.5395327 -0.99141979
7.6640611 -1.2474421 -1.0604861
0 -0 -0
1.449363 -0.3470434 -0.23015642
4.7877989 -0.96171063 -0.80293113
4.5990257 -0.74930274 -0.81265539
2.9587941 -0.82648242 -0.56177759
0 -0 -0
3.9268193 -0.79126418 -0.81090206
3.800374 -0.62040699 -0.81989259
0 -0 -0
3.4441094 -0.82804573 -0.82033342
3.3139846 -0.66813755 -0.81705725
3.1704264 -0.51643258 -0.81096554
1.4509332 -0.40826762 -0.39430273
2.8274233 -0.68202472 -0.79039055
2.7262604 -0.55038834 -0.78528816
2.7719703 -0.4514285 -0.82445294
0 -0 0
0.7985279 -0.1930404 0.24400344
0.7906121 -0.15963437 0.23102045
6.7982969 -1.1104922 1.9013914
6.9156241 -1.9500494 1.9184422
7.2905979 -1.7644885 1.9203696
7.6785278 -1.5563883 1.9262658
8.1071129 -1.3341658 1.9352541
8.2585096 -2.328557 1.9486566
8.269248 -2.0001216 1.8428494
8.2113523 -1.667671 1.7313924
8.1657391 -1.3498161 1.6272454
8.3579044 -2.3545351 1.636004
8.2720127 -2.0030828 1.5157484
8.2164822 -1.6730436 1.4111569
8.1807232 -1.3555201 1.3157396
8.3653183 -2.3574119 1.3078957
8.2723055 -2.0075865 1.1957378
7.7186666 -1.5758878 1.0304313
7.6840153 -1.2802457 0.94461733
7.8393612 -2.21067 0.92096138
7.8094678 -1.8954059 0.83060122
7.7468152 -1.5848744 0.74188811
7.6837082 -1.284054 0.65800053
7.8574767 -2.2171111 0.62276083
7.7972383 -1.8950318 0.53451532
7.7452459 -1.5865252 0.45239991
7.6989851 -1.2892317 0.37113431
7.8609686 -2.2207627 0.32251728
7.8188334 -1.9043275 0.24080931
7.7642856 -1.5945203 0.16298804
7.7214737 -1.2963227 0.085410364
7.8677135 -2.2238545 0.023259765
7.8185377 -1.9072914 -0.054921038
7.7721152 -1.5993801 -0.12770009
7.7149763 -1.2981395 -0.20062795
7.8813024 -2.2321525 -0.27745852
7.82235 -1.9112593 -0.34862092
7.794558 -1.6089621 -0.42072925
7.740603 -1.3043965 -0.48973739
7.9060297 -2.2448208 -0.58017451
7.8356266 -1.9188514 -0.64623398
7.8062215 -1.6126482 -0.71434265
7.6947274 -1.2990139 -0.77505207
7.7562118 -2.2046227 -0.86771274
7.5856347 -1.86114 -0.91477233
7.6429176 -1.5809985 -0.98790371
7.6240239 -1.2889938 -1.0560205
7.8413501 -2.2357759 -1.1813819
0 -0 -0
4.7537875 -0.98526245 -0.79822606
7.6102891 -1.2879013 -1.3461215
2.9479926 -0.84299898 -0.56069827
7.6197314 -1.8778266 -1.5117987
3.9190114 -0.81474525 -0.81030679
3.7453873 -0.63504827 -0.80885518
2.9043455 -0.8335346 -0.67009157
3.4626093 -0.85500139 -0.82597375
3.3060162 -0.68766743 -0.81611758
3.1528578 -0.53344995 -0.80729377
1.5051097 -0.43349576 -0.40974075
2.9749291 -0.73695064 -0.83287334
2.8095105 -0.58515918 -0.810287
2.7776628 -0.46986884 -0.82698804
0.73700058 -0.21320948 0.23702511
0.79174614 -0.19655064 0.24229512
0 -0 0
6.786603 -1.1513788 1.900061
6.9100266 -1.9943216 1.920248
7.276813 -1.8084885 1.9196255
7.6659818 -1.6028773 1.9255495
8.0824633 -1.381098 1.9313567
8.2028408 -2.3672891 1.938912
8.2833776 -2.0574195 1.8487769
8.2239695 -1.7228427 1.7362491
8.1843815 -1.4045417 1.632647
8.358407 -2.4101303 1.6389664
8.2891846 -2.0611658 1.5211836
8.235014 -1.7295079 1.4161355
8.178091 -1.406695 1.3166798
8.3792 -2.4169178 1.3123599
8.303071 -2.069082 1.2019975
7.7321386 -1.6281223 1.0335439
7.6828623 -1.3285539 0.94545996
7.8456979 -2.2645166 0.92332077
7.8160291 -1.9478585 0.83255458
7.7583766 -1.6368998 0.74394321
7.6953206 -1.3345816 0.65968382
7.8762951 -2.274688 0.62534678
7.8145065 -1.9500866 0.53650928
7.7597857 -1.6391778 0.45382813
7.7312789 -1.3434589 0.37308142
7.867352 -2.2747834 0.32334575
7.8283343 -1.9576017 0.24146731
7.7719617 -1.6458595 0.16335809
7.7350464 -1.3474517 0.08565034
7.9009895 -2.2857049 0.023399163
7.8328786 -1.9617888 -0.055105295
7.7768269 -1.6501518 -0.12794146
7.7334547 -1.3500952 -0.20132013
7.8876162 -2.2863123 -0.27816942
7.8414845 -1.9669987 -0.350005
7.8011432 -1.6602923 -0.42162669
7.7501507 -1.3549614 -0.49085823
7.8997703 -2.295516 -0.58073783
7.8517408 -1.9739419 -0.64854968
7.8127403 -1.6640433 -0.71586013
7.8101153 -1.3678333 -0.78750509
7.7826352 -2.2638359 -0.87220639
7.6020031 -1.9146844 -0.91814578
7.6476269 -1.6309686 -0.98978734
7.6091399 -1.3345516 -1.0550734
7.8255839 -2.283293 -1.1810951
0 -0 -0
4.7476525 -1.0144125 -0.79822606
4.5118608 -0.79205668 -0.79891068
2.9597585 -0.86604416 -0.56393623
4.0962844 -1.0362008 -0.81397265
3.9359808 -0.84350032 -0.81487024
3.764539 -0.66208357 -0.8138532
2.9759881 -0.87389529 -0.68784523
3.4412439 -0.87216264 -0.82213831
3.2893791 -0.70529062 -0.81306362
3.1246958 -0.54842752 -0.80092943
1.4903575 -0.43916786 -0.40645069
1.4019384 -0.35643286 -0.39309734
2.7955167 -0.60016495 -0.807298
2.7643318 -0.4850792 -0.82388967
0.75491792 -0.22342162 0.24322379
0.78495163 -0.199985 0.24058682
0.78859359 -0.16932437 0.23102045
6.798398 -1.1963401 1.9053825
6.8939533 -2.0355887 1.9192163
7.2646408 -1.8528646 1.9193776
7.6427126 -1.6470207 1.922207
8.0834208 -1.4323633 1.9336492
8.2517576 -2.4363532 1.9539715
8.2800674 -2.1106205 1.8508939
8.2304735 -1.7769917 1.7398914
8.1833382 -1.4561089 1.6341904
8.3528872 -2.4641519 1.640818
8.2878284 -2.1149096 1.5232877
8.2608719 -1.7879314 1.4224421
8.1819458 -1.4591024 1.318717
8.3765421 -2.4719248 1.3142945
8.3170824 -2.1268592 1.2058923
7.7355695 -1.6784788 1.0353596
7.7058344 -1.3812749 0.94931203
7.8697748 -2.3238704 0.9278149
7.8145304 -1.9984909 0.83368546
7.7744551 -1.6901844 0.74646533
7.7056208 -1.3851237 0.66128296
7.8832269 -2.3291891 0.62702006
7.8342915 -2.0061672 0.53870261
7.7690926 -1.6910067 0.45497069
7.7179747 -1.3899865 0.37284395
7.8858247 -2.3326504 0.32468712
7.8345709 -2.0103188 0.24203561
7.792974 -1.7003363 0.16401596
7.746314 -1.3984407 0.0858685
7.9069524 -2.340101 0.023458906
7.8323159 -2.0128002 -0.055187184
7.7792535 -1.7006146 -0.12815064
7.7289605 -1.3982332 -0.20142268
7.9050593 -2.344043 -0.27928656
7.837976 -2.0173175 -0.35039431
7.7878823 -1.7074863 -0.42146829
7.7505293 -1.404091 -0.49141863
7.9075284 -2.3504817 -0.58235747
7.8452721 -2.0235758 -0.64902878
7.7945995 -1.7102423 -0.71514601
7.9778161 -1.4477113 -0.80529511
7.7733631 -2.3129644 -0.8727414
7.6718493 -1.9824146 -0.92803329
6.2024207 -1.3625984 -0.80380982
7.6680713 -1.3934383 -1.0644102
7.8028917 -2.3287199 -1.1798047
0 -0 -0
4.7625399 -1.0481907 -0.80179542
4.5263004 -0.82325172 -0.80234683
4.0937366 -1.2251724 -0.78141594
4.0860476 -1.0603291 -0.81321609
3.9278598 -0.86700135 -0.81427497
3.7488589 -0.68306595 -0.81135416
3.4997935 -1.0510787 -0.81038862
3.4329989 -0.89252591 -0.8214615
1.4322592 -0.31630164 -0.35449669
3.1260417 -0.56845737 -0.80215341
1.4792982 -0.44579199 -0.40417296
1.3931886 -0.36332366 -0.39126167
2.7720482 -0.61294323 -0.80159175
2.7216537 -0.49482301 -0.81205946
0.75993419 -0.2299868 0.24529
0.76237798 -0.19922324 0.23403831
0.79129446 -0.17499022 0.23212186
6.7653246 -1.2333639 1.8981984
6.8591356 -2.0711482 1.9130251
7.2803149 -1.9045149 1.9265701
7.6390986 -1.6953572 1.9238782
8.080225 -1.4829897 1.935025
8.2170486 -2.48102 1.9493208
8.2906008 -2.1675668 1.8561864
8.2366219 -1.8312852 1.7435338
8.1945133 -1.5100276 1.6382416
8.3790064 -2.5278463 1.6489646
8.3127928 -2.1756942 1.530301
8.2420464 -1.8368695 1.4211146
8.201004 -1.5144798 1.3232616
8.3839369 -2.5301321 1.3178658
8.332612 -2.1853883 1.2100655
7.7570591 -1.7330464 1.0396397
7.7059989 -1.4301615 0.95039552
7.8848562 -2.3810196 0.9312979
7.8204017 -2.0511973 0.83563888
7.778512 -1.741118 0.74786657
7.6959972 -1.4321961 0.66119879
7.8926487 -2.3847256 0.62892145
7.8314853 -2.0567341 0.53936726
7.784874 -1.7445396 0.45651317
7.7417049 -1.4433584 0.37441114
7.9057946 -2.3914082 0.32610738
7.8414216 -2.0634406 0.24263383
7.796051 -1.7511889 0.16430378
7.7562628 -1.4494348 0.086075753
7.8962731 -2.3897316 0.023470283
7.8372231 -2.0654073 -0.055310018
7.7715993 -1.7489737 -0.12819892
7.74087 -1.4494947 -0.20196103
7.9077439 -2.3977234 -0.27989596
7.8602252 -2.0745506 -0.35195142
7.8113527 -1.7629342 -0.42331591
7.7427492 -1.451805 -0.49148092
7.9091821 -2.4038887 -0.58355457
7.8529449 -2.0770278 -0.65070564
7.7888169 -1.7591339 -0.71559232
8.0313749 -1.5083907 -0.81162047
7.706708 -2.3447003 -0.86685675
7.6806626 -2.0350471 -0.93059236
7.638648 -1.7273197 -0.99129426
7.6788516 -1.4441251 -1.0671166
2.8738153 -0.87691015 -0.43532899
0 -0 -0
