# .PCD v0.7 - Point Cloud Data file format
VERSION 0.7
FIELDS x y z
SIZE 4 4 4
TYPE F F F
COUNT 1 1 1
WIDTH 1573
HEIGHT 1
VIEWPOINT 0 0 0 1 0 0 0
POINTS 1573
DATA ascii
-0.9110024 2.3118119 0.32501706
-0.98476094 2.2553563 0.29842058
-0.72330868 2.3224733 0.27504128
-0.80999857 2.2995231 0.25198707
-0.90761405 2.305927 0.2325056
-0.98256904 2.2533386 0.2076346
-0.72514671 2.3296638 0.1861133
-0.81940603 2.3285644 0.16443557
-0.94024217 2.3905373 0.14699142
-0.93912494 2.1556585 0.11179145
-0.72298688 2.325299 0.096143678
-0.80977446 2.3047903 0.073101215
-0.91332412 2.3255539 0.051375769
-0.97952396 2.2509646 0.026779367
-0.72708035 2.3396165 0.0069699632
-0.80827957 2.3032343 -0.016657835
-0.92086327 2.3475196 -0.040582113
-0.96926886 2.2296312 -0.062346946
-0.71981627 2.3205287 -0.082296453
-0.81595182 2.3278272 -0.10679219
-0.9095276 2.3227947 -0.13186722
-0.98426235 2.265635 -0.15411317
-0.69449234 2.244149 -0.16583455
-0.79379612 2.2684233 -0.19252071
-0.8784833 2.2445507 -0.21600765
-0.91886497 2.116818 -0.22919481
-0.62640423 2.0261354 -0.22821593
-0 0 -0
-0 0 -0
-0.80279136 1.8506534 -0.27550715
-0.37667021 1.2219095 -0.18525858
-0.45536935 1.3054688 -0.21352045
-0.52491969 1.3437415 -0.23719645
-0.90215188 2.0806017 -0.39550373
-0 0 -0
-0 0 -0
-0.46680951 1.1971425 -0.26011562
-0.66603243 1.5373706 -0.35673761
-0.26110411 0.8522439 -0.19767161
-0 0 -0
-0.36680031 0.9409579 -0.24408352
-0.40618765 0.93668693 -0.25775635
-0 0 -0
-0 0 -0
-0 0 -0
-0 0 -0
-0 0 0
-0 0 0
-0.91725159 2.3550496 0.72390079
-0.97846353 2.2591417 0.67956251
-0.72944498 2.3936653 0.66811424
-0.78670305 2.2731378 0.61581784
-0.93319809 2.40132 0.63341385
-0.97296351 2.2537732 0.57821476
-0 0 0
-0.78439623 2.265449 0.51930034
-0.87745237 2.2604444 0.50104338
-0.9795745 2.2735567 0.48672673
-0 0 0
-0.79663831 2.3027554 0.43394762
-0.87991726 2.2702 0.40975493
-0.9730103 2.2607095 0.390522
-0.71207839 2.3353615 0.36741316
-0.7988404 2.3129091 0.34372592
-0.90646255 2.3423259 0.32851887
-0.97090381 2.2613564 0.29842058
-0.70585853 2.3164117 0.27380538
-0.80853748 2.3411179 0.25599664
-0.93867683 2.4284647 0.24427567
-0.96950972 2.2611568 0.20780292
-0.71316248 2.3417003 0.18672177
-0.80445188 2.3316617 0.16430263
-0.88274986 2.2854354 0.14019313
-0.92942035 2.1696439 0.11221886
-0.692711 2.2771134 0.093973845
-0.79268748 2.3012102 0.072832026
-0.8922022 2.3133905 0.050985154
-0.96333373 2.2514164 0.026713917
-0.72114718 2.3717797 0.0070524649
-0.78729999 2.2882934 -0.016514527
-0.88775229 2.3046076 -0.039745368
-0.96028477 2.246567 -0.062654577
-0.71078843 2.3421161 -0.082905799
-0.8023026 2.3346798 -0.1068787
-0.88809025 2.3096902 -0.13081144
-0.96289301 2.2541931 -0.15293008
-0.6830219 2.256006 -0.1663979
-0.7659536 2.232708 -0.18908712
-0.86469448 2.2498987 -0.21600765
-0.88437486 2.0720787 -0.22375898
-0.57596558 1.9043187 -0.21409287
-0 0 -0
-0 0 -0
-0.91580927 2.1471822 -0.31880888
-0.36145088 1.1986147 -0.18138708
-0.53944272 1.577554 -0.25747606
-0.760508 1.9826325 -0.34914282
-0.94345707 2.2129676 -0.41955698
-0.29149768 0.96933377 -0.18510059
-0.36867434 1.0798182 -0.21980858
-0.39216655 1.0242428 -0.22202089
-0 0 -0
-0.2595132 0.86598748 -0.20048621
-0 0 -0
-0 0 -0
-0 0 -0
-0 0 -0
-0 0 -0
-0 0 -0
-0 0 -0
-0 0 0
-0 0 0
-0.8959161 2.3426752 0.71839374
-0.96873766 2.2748585 0.68248934
-0 0 0
-0.80292821 2.3669109 0.63987517
-0.88244236 2.312644 0.60858345
-0.94200283 2.2193811 0.56789774
-0 0 0
-0.76859635 2.2646663 0.51803011
-0.89181679 2.3399091 0.5174346
-0.96292675 2.2732 0.48537633
-0.68207711 2.2864516 0.44954932
-0.79387558 2.3411653 0.44025958
-0.90595514 2.3806245 0.42867437
-0.96835762 2.2884669 0.39428306
-0 0 0
-0.81098914 2.3956201 0.35527155
-0.89348197 2.3515515 0.32903764
-0.95507991 2.2626982 0.29781869
-0.69276732 2.3245084 0.27425483
-0.81265593 2.4006815 0.26195964
-0.90150344 2.3755348 0.23839064
-0.97419554 2.3111372 0.21184285
-0 0 0
-0.78725326 2.328047 0.16370444
-0.87579006 2.309479 0.14133571
-0.9172532 2.1780677 0.11236133
-0.69895649 2.3493199 0.096774906
-0.78462756 2.3240244 0.073400326
-0.8730343 2.3057313 0.050697338
-0.95996928 2.2821712 0.027008435
-0.69460952 2.3359022 0.0069329794
-0.77803737 2.3072944 -0.01661689
-0.86263067 2.2810194 -0.039246541
-0.95577645 2.2745359 -0.063269846
-0.68986374 2.3243966 -0.082127184
-0.78317887 2.3253565 -0.1062299
-0.87354892 2.3141618 -0.13075864
-0.96218163 2.2913461 -0.15504718
-0.67058229 2.2649367 -0.16674998
-0.76018131 2.2609868 -0.1910834
-0.85263109 2.2598217 -0.21645397
-0.88511914 2.1095822 -0.22721814
-0.57526785 1.9450008 -0.21826559
-0.57595628 1.7155288 -0.21194243
-0 0 -0
-0.77542323 1.8494008 -0.27388334
-0.3381345 1.1467023 -0.1732139
-0.41387928 1.2350562 -0.20115794
-0 0 -0
-0.85751289 2.0460875 -0.3869133
-0.29886431 1.0164034 -0.19373502
-0.34241301 1.0233942 -0.20789126
-0.42380682 1.1275496 -0.243846
-0 0 -0
-0.2509006 0.85632074 -0.19788811
-0.28770483 0.86118263 -0.21027248
-0 0 -0
-0 0 -0
-0 0 -0
-0 0 -0
-0 0 -0
-0 0 -0
-0 0 0
-0.78105062 2.3476596 0.7348575
-0 0 0
-0.97560585 2.330554 0.69738966
-0 0 0
-0 0 0
-0.86482948 2.3089213 0.60619587
-0.92724288 2.2224245 0.56720996
-0.68940133 2.3658531 0.55963802
-0.75931239 2.2832508 0.5212056
-0.86028492 2.2994759 0.50731659
-0.94896054 2.2790656 0.48537633
-0.67326248 2.3085184 0.45306718
-0.76645732 2.3067522 0.4328956
-0.89236611 2.3889101 0.42917228
-0.95809054 2.3034847 0.39585015
-0.6861341 2.3534174 0.36890125
-0.76353818 2.3018596 0.34066564
-0.85686111 2.2975304 0.32073712
-0.9503085 2.2905226 0.30070779
-0.66431552 2.2800612 0.26852477
-0.77598971 2.3395343 0.25476295
-0.87544179 2.3502326 0.23530801
-0.95999634 2.3170714 0.21184285
-0.67015541 2.301451 0.18284281
-0.78990042 2.3839798 0.16729358
-0.84976184 2.2829969 0.13939333
-0.94436622 2.2814853 0.11739527
-0.66080827 2.2720098 0.093421519
-0.77882862 2.3544173 0.074207909
-0.86897045 2.3382225 0.051293537
-0.95053267 2.2991076 0.027139334
-0.67886794 2.335319 0.0069187554
-0.76323795 2.3101258 -0.016603241
-0.84757453 2.2834573 -0.039198264
-0.94714463 2.293293 -0.063628748
-0.68060112 2.3458629 -0.082736529
-0.75856477 2.2988095 -0.10480254
-0.86072075 2.3232238 -0.13096981
-0.94010806 2.2778327 -0.15373956
-0.65750426 2.2718832 -0.16696124
-0.73600233 2.2343652 -0.18844832
-0.82941031 2.2397919 -0.21404395
-0.84863776 2.0579364 -0.22109045
-0.54261231 1.8768581 -0.21024112
-0.5663501 1.7218609 -0.21229139
-0.62071794 1.6775744 -0.22641291
-0.7482059 1.8156489 -0.26819998
-0.33684784 1.1687256 -0.17622508
-0.41245863 1.2563519 -0.20421042
-0 0 -0
-0 0 -0
-0.2869164 0.99836421 -0.18995744
-0.31869376 0.97228932 -0.19710889
-0 0 -0
-0.38227519 0.92889822 -0.21387596
-0.2456416 0.85784411 -0.19788811
-0.28150624 0.86015403 -0.20959564
-0.37464091 1.0159489 -0.26170266
-0 0 -0
-0.22350498 0.78332621 -0.21309558
-0.26233259 0.80360782 -0.22972199
-0 0 -0
-0 0 -0
-0.6573714 2.3142531 0.74324936
-0.72890836 2.2366562 0.69869834
-0.88272083 2.39589 0.73133528
-0.9381814 2.2803349 0.68062681
-0 0 0
-0.78012061 2.3959301 0.64508349
-0.84964079 2.31145 0.6054796
-0.96233326 2.3469505 0.59747332
-0.66552442 2.3372126 0.5518868
-0.74982911 2.301806 0.52438116
-0.86202276 2.3479187 0.51682746
-0.92826974 2.2684991 0.48190385
-0 0 0
-0.75533587 2.3207734 0.43464893
-0.83289027 2.2721236 0.40726557
-0.98579174 2.4117126 0.41340169
-0 0 0
-0.74603391 2.2961414 0.3391355
-0.85842341 2.345578 0.3267031
-0.94523126 2.3183725 0.30359688
-0.65466642 2.2993855 0.27032244
-0.75885379 2.3357372 0.25383765
-0.86647344 2.3705218 0.23680261
-0.91833121 2.2555468 0.2056988
-0.6576587 2.3112738 0.18329917
-0.79774237 2.4580631 0.17214556
-0.83436763 2.2844169 0.13916482
-0.92545688 2.2752085 0.1167779
-0.65313786 2.2981284 0.094328903
-0.76282704 2.3543973 0.074058354
-0.84022081 2.3040605 0.050430074
-0.9420532 2.3187926 0.027302952
-0.66753155 2.3500218 0.0069500492
-0.75335908 2.3280852 -0.01669878
-0.83149445 2.2829781 -0.039101716
-0.93343133 2.2999876 -0.063654386
-0.692635 2.443264 -0.086020268
-0.74690324 2.3110261 -0.10514858
-0.84303778 2.3190761 -0.13044192
-0.93624145 2.3085303 -0.1554208
-0.64300901 2.2739551 -0.16682042
-0.72105443 2.2350447 -0.18812892
-0.81701225 2.2485836 -0.21440099
-0.85953844 2.1212075 -0.22731698
-0.51919389 1.838052 -0.20553343
-0.56856471 1.7650093 -0.217177
-0.6104129 1.6813514 -0.22641291
-0 0 -0
-0.35461688 1.259364 -0.18956025
-0.40685949 1.265445 -0.20527877
-0 0 -0
-0 0 -0
-0.27121297 0.96601152 -0.18348165
-0 0 -0
-0.34956482 0.9658531 -0.20793378
-0 0 -0
-0.23721747 0.84805298 -0.19529003
-0.27116847 0.84609365 -0.2057602
-0 0 -0
-0 0 -0
-0 0 -0
-0.25063866 0.78406113 -0.22369048
-0 0 -0
-0 0 -0
-0.59437293 2.1423955 0.68687105
-0.70905066 2.2219083 0.69271922
-0.84055138 2.3253176 0.7082057
-0.92561698 2.2896233 0.68169111
-0 0 0
-0.76452196 2.3979027 0.64433944
-0.82852393 2.2974365 0.60046583
-0.90244669 2.2399557 0.56881481
-0.66214585 2.3807116 0.56118828
-0.73866147 2.3156745 0.52649814
-0.81374907 2.2591848 0.49618676
-0.91982335 2.2878079 0.48479757
-0.64646393 2.3222868 0.45417809
-0.73570073 2.30848 0.43149298
-0.81659704 2.2706954 0.40610382
-0.92165357 2.2949057 0.39240256
-0.6426214 2.3092635 0.36071667
-0.75234574 2.3648455 0.34859455
-0.85306168 2.375998 0.33020487
-0.9261893 2.3121486 0.30203196
-0.63894796 2.2976153 0.26964831
-0.74119079 2.3299229 0.25270674
-0.83947766 2.3411176 0.23334633
-0.94925374 2.373086 0.21588275
-0.64026058 2.3037374 0.18238646
-0.74033982 2.3297811 0.16284038
-0.82707006 2.3082905 0.14030738
-0.91926306 2.3003228 0.11777519
-0.66120732 2.3820066 0.097603396
-0.74625063 2.3523643 0.073848985
-0.81731182 2.2846971 0.049895555
-0.92113549 2.3078129 0.027106609
-0.65497088 2.3608186 0.0069699632
-0.73362362 2.315505 -0.016575946
-0.81948918 2.2936864 -0.039198264
-0.91004539 2.2824574 -0.063013487
-0.64936244 2.3453698 -0.08243186
-0.73361313 2.3184228 -0.10527832
-0.8381837 2.3505418 -0.13191999
-0.91984242 2.3086686 -0.15504718
-0.62824762 2.2749732 -0.16660917
-0.7118302 2.2536845 -0.18932667
-0.79015869 2.2169645 -0.21091987
-0.82479203 2.0718937 -0.22148581
-0.52747142 1.9121292 -0.21345091
-0.54547632 1.7296286 -0.21240772
-0.60075045 1.6869344 -0.22666405
-0 0 -0
-0.30883598 1.1231502 -0.16876884
-0.3726792 1.1840183 -0.19169527
-0.44972438 1.2643822 -0.22064786
-0.48592684 1.2220851 -0.22936468
-0 0 -0
-0.29879019 0.95083386 -0.19200148
-0.33445087 0.94211775 -0.2023783
-0.37265289 0.93806428 -0.21491723
-0.23509604 0.86079395 -0.19788811
-0.26801327 0.85424834 -0.2073395
-0 0 -0
-0 0 -0
-0 0 -0
-0.24005932 0.76716501 -0.21844569
-0 0 -0
-0 0 -0
-0 0 0
-0.68625766 2.1969368 0.68360823
-0.83943915 2.3675807 0.71949518
-0.91724348 2.3095939 0.68594831
-0 0 0
-0.72814894 2.3331909 0.62573838
-0.83060265 2.3482518 0.61240351
-0.89549124 2.2626469 0.57317084
-0 0 0
-0.7130785 2.2837796 0.51824182
-0.83869088 2.374018 0.52026761
-0.89423454 2.2642052 0.47862431
-0 0 0
-0.72679955 2.3298678 0.43464893
-0.80264896 2.2756634 0.40610382
-0.925677 2.3464544 0.40023807
-0.62403256 2.2969403 0.3581869
-0.71485633 2.2956686 0.33774447
-0.81738985 2.3213305 0.32190439
-0.9159832 2.32795 0.30335614
-0.66545254 2.4510896 0.28717548
-0.72510636 2.3287284 0.25208989
-0.81452733 2.3161685 0.2303571
-0.90734524 2.3093083 0.20957038
-0.63081288 2.3249443 0.18375552
-0.72929037 2.3447604 0.16357152
-0.81884885 2.3302763 0.14133571
-0.89308721 2.2752364 0.11620802
-0.64684051 2.3869832 0.097642846
-0.73328477 2.3616719 0.073998541
-0.82115054 2.3406136 0.051005717
-0.91133738 2.3245931 0.027237507
-0.63341457 2.338732 0.0068931514
-0.71762508 2.3142321 -0.016534999
-0.79944879 2.2816863 -0.038908623
-0.91133374 2.3270934 -0.064090192
-0.64669365 2.3927262 -0.083955236
-0.74124461 2.3935022 -0.10847907
-0.81946003 2.3433862 -0.13123374
-0.89583898 2.2891746 -0.15336595
-0.61765194 2.291306 -0.16752459
-0.70417058 2.2780092 -0.19100356
-0.79592961 2.2772448 -0.21618618
-0.81061411 2.0732083 -0.22109045
-0.51340222 1.906689 -0.21248797
-0.57703227 1.8696045 -0.22915839
-0.61132175 1.750532 -0.2347009
-0.67102945 1.7174469 -0.25182652
-0.29988638 1.1173774 -0.16762173
-0.3782081 1.2278404 -0.19841072
-0.39516228 1.1329526 -0.19728516
-0 0 -0
-0 0 -0
-0 0 -0
-0.36314133 1.0431956 -0.22360818
-0.38502121 0.98680311 -0.22553813
-0.23207279 0.87071037 -0.19983669
-0.26419628 0.86053336 -0.20846756
-0.29965237 0.86110133 -0.22035645
-0 0 -0
-0.21922795 0.82564425 -0.22347194
-0.24184576 0.789846 -0.2244772
-0 0 -0
-0 0 -0
-0.60538608 2.2908592 0.73203272
-0.69826293 2.2845302 0.7095176
-0.77154464 2.2192295 0.67296064
-0.89709985 2.2999115 0.68142503
-0 0 0
-0.70448256 2.3070395 0.61755395
-0.81267822 2.3432121 0.60977721
-0.89287543 2.2971306 0.58050746
-0.61065274 2.3047626 0.54147804
-0.70476329 2.3068056 0.52247584
-0.78884906 2.277329 0.49800801
-0.89380813 2.3044124 0.48595509
-0.62522238 2.3575914 0.45954752
-0.69754469 2.2853191 0.42553166
-0.788993 2.2814775 0.40626979
-0.88164783 2.2756519 0.38723111
-0.61626202 2.3246224 0.36190718
-0.69383007 2.2772765 0.33440593
-0.78921705 2.2859998 0.31632748
-0.90883809 2.3520465 0.30576372
-0 0 0
-0.70471627 2.3131518 0.24993089
-0.7931605 2.3004153 0.228302
-0.8953107 2.3204103 0.21007538
-0.61806655 2.3345544 0.18421187
-0.70820826 2.3272362 0.16204281
-0.80583584 2.3390324 0.14156422
-0.89024693 2.3095663 0.11768021
-0.62707353 2.3715868 0.096853815
-0.71180713 2.3431733 0.073280685
-0.79539198 2.3125179 0.050286166
-0.88556063 2.3002794 0.026888447
-0.618797 2.3416078 0.0068903067
-0.70428264 2.3214626 -0.016555471
-0.79647768 2.3187003 -0.039455727
-0.88806748 2.309315 -0.063449293
-0.62155163 2.3570273 -0.082567275
-0.70394856 2.3234262 -0.10510531
-0.81219041 2.3691523 -0.1323951
-0.87210977 2.269474 -0.15168472
-0.6048497 2.2998762 -0.16787668
-0.67950386 2.246984 -0.18804905
-0.77451617 2.2604144 -0.21413322
-0.80750811 2.1032259 -0.22375898
-0.5456484 2.0771275 -0.23110475
-0.55176979 1.8274705 -0.22357483
-0.57614797 1.6829163 -0.22515716
-0.64131385 1.6715789 -0.24451935
-0.30831507 1.1775975 -0.17636846
-0.34243938 1.1364582 -0.18330099
-0.39778054 1.1633663 -0.20215239
-0 0 -0
-0 0 -0
-0 0 -0
-0.34470528 1.0101553 -0.2160686
-0.41290089 1.0777409 -0.24573869
-0 0 -0
-0.25694975 0.85560691 -0.20688826
-0.29718751 0.87120342 -0.22247075
-0 0 -0
-0 0 -0
-0.23201126 0.77467525 -0.21975689
-0 0 -0
-0 0 -0
-0.59799445 2.3204367 0.74029762
-0 0 0
-0.7752794 2.274879 0.6883803
-0.85607839 2.2351584 0.66067094
-0 0 0
-0.71720535 2.4013581 0.64161128
-0.78140682 2.2985065 0.59688449
-0.88778734 2.32621 0.58646846
-0.60577023 2.3443439 0.54989362
-0.69115531 2.3129594 0.52289921
-0.77517557 2.2830536 0.49821037
-0.86812788 2.2795932 0.47958887
-0.61320543 2.3708975 0.46139905
-0.6860438 2.2980466 0.42710966
-0.77719527 2.2928133 0.40743151
-0.86450779 2.2727106 0.38582072
-0.59629369 2.30634 0.35848454
-0.70303327 2.3593123 0.34581247
-0.77962506 2.3039486 0.31814322
-0.84966964 2.2396998 0.29047555
-0.59977943 2.3214939 0.2711089
-0.69136184 2.320292 0.25023928
-0.76468664 2.2627938 0.22409841
-0.88070309 2.3249283 0.20999122
-0.61494744 2.3817477 0.18763445
-0.69391525 2.331538 0.16204281
-0.78220612 2.3165019 0.13990749
-0.86863464 2.2953668 0.11668292
-0.60153216 2.3328164 0.095117934
-0.68432194 2.3034213 0.071904801
-0.7751196 2.2993541 0.049895555
-0.87213671 2.3075404 0.026910262
-0.6061644 2.3521392 0.0069102207
-0.69173175 2.3314924 -0.016596418
-0.76532739 2.2733204 -0.038602889
-0.86470091 2.2904043 -0.062782757
-0.6093176 2.3695083 -0.082871951
-0.69194961 2.3353653 -0.10545135
-0.79000539 2.3513727 -0.13112818
-0.86697531 2.2981281 -0.15324143
-0.58626634 2.2861519 -0.16660917
-0.67192274 2.2721407 -0.18980578
-0.75207132 2.2396309 -0.21172322
-0.7801981 2.0699635 -0.21970679
-0.46800843 1.8271241 -0.2029656
-0.56107694 1.9003587 -0.2320665
-0.55823731 1.6638464 -0.22214334
-0.65199852 1.7311156 -0.25263843
-0.28492796 1.1161788 -0.16690478
-0.32428706 1.1006182 -0.17719603
-0.38718614 1.1554933 -0.20036772
-0.52512991 1.3949322 -0.25994664
-0 0 -0
-0 0 -0
-0 0 -0
-0 0 -0
-0.22304922 0.8801173 -0.20135224
-0.25361633 0.86371064 -0.20846756
-0.28351572 0.84812003 -0.21612786
-0 0 -0
-0.20742205 0.82170624 -0.22170037
-0.2378298 0.81220275 -0.22998424
-0.26371613 0.7895782 -0.23504302
-0 0 -0
-0 0 0
-0.67125136 2.2966073 0.71065646
-0.79541302 2.3817191 0.7192198
-0.87796843 2.3351088 0.68860912
-0 0 0
-0.6899668 2.3629372 0.63020265
-0.75071532 2.2535076 0.58399183
-0.87110692 2.325233 0.5848636
-0.58280009 2.3139739 0.54192096
-0.67557997 2.3124661 0.52184075
-0.7568242 2.2747579 0.49537733
-0.85549849 2.2885532 0.48036051
-0.58062929 2.303148 0.44751263
-0.68517035 2.3475766 0.43552563
-0.76497728 2.3031542 0.40842727
-0.85089183 2.2788975 0.38597742
-0.5859974 2.3252976 0.3608655
-0.66583216 2.2856195 0.33440593
-0.75954455 2.2908065 0.31567898
-0.8653568 2.3239486 0.30070779
-0.59207535 2.3511472 0.27414244
-0.67321718 2.3111205 0.24879996
-0.75423056 2.2778399 0.22512595
-0.84905791 2.2835894 0.20578298
-0.59229147 2.3535666 0.18512455
-0.66231358 2.2763519 0.15792195
-0.77362216 2.3383188 0.14093579
-0.85766435 2.3090806 0.11711033
-0.59889752 2.3829796 0.097011618
-0.66292739 2.2826197 0.071127124
-0.76381844 2.3126111 0.050080582
-0.84961492 2.2903481 0.026648469
-0.58952802 2.3470852 0.0068846168
-0.67295629 2.3203263 -0.01648723
-0.75856775 2.2998133 -0.038972989
-0.86174577 2.3256636 -0.063603111
-0.59476715 2.3732023 -0.082871951
-0.68761271 2.3741136 -0.10700846
-0.76713264 2.3305652 -0.12970285
-0.84142184 2.2725177 -0.15118659
-0.57875782 2.3158352 -0.16851045
-0.65796846 2.2762208 -0.18980578
-0.74018252 2.2498801 -0.21225876
-0.79579252 2.1512418 -0.22781114
-0.48905516 1.9592259 -0.21730265
-0.52985322 1.8360126 -0.22380748
-0.54275125 1.6512183 -0.22000855
-0.56956726 1.5408509 -0.22435701
-0.28786856 1.1572825 -0.17278373
-0.31287828 1.0864427 -0.17460144
-0.38901407 1.1850356 -0.20507272
-0.41755053 1.1301458 -0.21012211
-0 0 -0
-0 0 -0
-0 0 -0
-0.37119502 1.0056512 -0.22824544
-0.21741068 0.88052148 -0.20113572
-0.24562457 0.8558864 -0.20621142
-0.28133151 0.85908121 -0.21847709
-0 0 -0
-0 0 -0
-0.22222182 0.77653629 -0.21949464
-0.25437739 0.77746147 -0.2309671
-0 0 -0
-0 0 0
-0.61870819 2.1661077 0.66908765
-0.72757596 2.2239182 0.67020708
-0.8432681 2.2852869 0.67237842
-0 0 0
-0.66269565 2.3224106 0.61829799
-0.74771917 2.2913055 0.59258693
-0.85783082 2.3332751 0.58555138
-0.56673199 2.3099296 0.54014927
-0.67264712 2.3560388 0.53073215
-0.74527991 2.2868075 0.49699619
-0.83096439 2.2652028 0.47438014
-0.567424 2.3104849 0.44825321
-0.66130197 2.3186002 0.42938897
-0.74961054 2.3040533 0.40776342
-0.83621329 2.2822211 0.38566402
-0.56794643 2.3134837 0.35848454
-0.64664394 2.2715657 0.331763
-0.73414195 2.2605305 0.31088024
-0.83677143 2.2900524 0.29565185
-0.57100922 2.3277144 0.27099657
-0.6598407 2.3180778 0.24910839
-0.74607569 2.3004193 0.22690082
-0.81897831 2.2447593 0.20182721
-0.58045059 2.3678093 0.18596119
-0.6404205 2.2525401 0.15599445
-0.75248909 2.3221273 0.13967898
-0.83253455 2.2842681 0.11559065
-0.58569014 2.3924329 0.097248331
-0.65027344 2.2914524 0.07127668
-0.73976696 2.286814 0.049422707
-0.86735308 2.3829036 0.02766292
-0.57654142 2.3564866 0.0069016861
-0.66006953 2.3292222 -0.01652135
-0.74444205 2.3044245 -0.038972989
-0.83857846 2.3064802 -0.062936574
-0.57498008 2.3554468 -0.082127184
-0.67303246 2.378288 -0.10700846
-0.73443431 2.2782021 -0.12653551
-0.82166845 2.2616904 -0.15012802
-0.55722398 2.2892971 -0.16632749
-0.64317667 2.2773373 -0.18956622
-0.73735988 2.2885079 -0.2154721
-0.78427541 2.1607614 -0.22830531
-0.49370024 2.0307841 -0.22489914
-0.49890187 1.7694454 -0.21531582
-0.53443336 1.6601835 -0.22076201
-0.58780313 1.6206943 -0.23545307
-0.28449014 1.1744165 -0.17507796
-0.32146287 1.1425688 -0.18330099
-0.37448734 1.1648546 -0.20117892
-0.42101613 1.1613973 -0.21544817
-0.23708898 0.98203301 -0.18474083
-0 0 -0
-0 0 -0
-0.35136262 0.97020525 -0.21970706
-0.21131921 0.87899125 -0.20048621
-0.23984237 0.85550129 -0.2057602
-0.27605498 0.86079121 -0.21847709
-0 0 -0
-0 0 -0
-0.21771272 0.77881461 -0.21975689
-0.23903079 0.74601442 -0.22118497
-0.27768263 0.76583672 -0.23913924
-0.56359327 2.3663695 0.7515142
-0.64404839 2.3083651 0.71179527
-0.71479648 2.2310872 0.67103314
-0.86040401 2.376524 0.6976558
-0 0 0
-0.6203422 2.2256494 0.59151256
-0.73896646 2.3125002 0.59688449
-0.84316772 2.3375793 0.58532214
-0.54824346 2.2953422 0.53594142
-0.64163828 2.3008127 0.51739502
-0.72855467 2.2829409 0.49517494
-0.83200186 2.3118048 0.48306137
-0.56763297 2.3741367 0.45991784
-0.64679867 2.3216658 0.42921364
-0.73276508 2.3001533 0.40626979
-0.8155123 2.2687204 0.38252982
-0.56017661 2.3438549 0.3626512
-0.63561177 2.2859855 0.33329314
-0.7322771 2.3027897 0.31606808
-0.83677322 2.3343928 0.30070779
-0.55094558 2.3070118 0.2681877
-0.64933509 2.3354998 0.25054774
-0.72561854 2.2850263 0.22493914
-0.80888289 2.2600622 0.20275304
-0.55757862 2.3364112 0.18322311
-0.65248352 2.3496838 0.1624416
-0.73581111 2.3190877 0.13922194
-0.82791871 2.3156695 0.11692037
-0.56381851 2.3658495 0.096025325
-0.65061772 2.347414 0.072891846
-0.74051356 2.3380132 0.050430074
-0.82346231 2.306252 0.026713917
-0.55651098 2.336633 0.006833409
-0.64629877 2.3351562 -0.016534999
-0.73812795 2.3337352 -0.039391361
-0.81903744 2.2965169 -0.062526397
-0.56097859 2.3608754 -0.082194895
-0.65683007 2.376595 -0.10674894
-0.74178147 2.3502791 -0.13028355
-0.83122814 2.3324997 -0.15448679
-0.54753584 2.3111153 -0.16766542
-0.62786597 2.2764363 -0.18916698
-0.71161842 2.2559443 -0.21199098
-0.74830627 2.1017857 -0.22158463
-0.46634927 1.9708852 -0.21794462
-0.47880727 1.7389582 -0.21124448
-0.51976353 1.6492383 -0.21887836
-0.56688851 1.5934653 -0.23098759
-0.27296394 1.1578381 -0.17235357
-0.29402417 1.0701879 -0.17139633
-0.33919048 1.0777134 -0.18576604
-0.39539924 1.1119797 -0.20582689
-0.2321838 0.98825729 -0.18564025
-0 0 -0
-0 0 -0
-0.3323071 0.9354769 -0.21137694
-0.20480995 0.87551826 -0.19940367
-0.23664637 0.864474 -0.2075651
-0.2661097 0.84763068 -0.21471833
-0 0 -0
-0.19204251 0.82444274 -0.22144729
-0.21902813 0.80247855 -0.22605065
-0.23704103 0.7557314 -0.2236305
-0 0 -0
-0.52857554 2.2813587 0.72347271
-0.61601526 2.2614036 0.69613588
-0.69907951 2.2290101 0.66910571
-0.80709606 2.2727535 0.66572642
-0 0 0
-0.62091893 2.2817605 0.60540134
-0.72389364 2.3142107 0.59616828
-0.82361448 2.3280265 0.58165383
-0 0 0
-0.6375221 2.3414836 0.52565134
-0.72212517 2.3116722 0.50043631
-0.81094265 2.2974358 0.47901011
-0.55283219 2.3766177 0.45973265
-0 0 0
-0.71775711 2.3017819 0.40577191
-0.813398 2.307214 0.38817137
-0.54533654 2.3453217 0.36235362
-0.62598336 2.3060894 0.33565789
-0.71636564 2.3015592 0.31528991
-0.79543644 2.2626867 0.29083666
-0.54442543 2.3432572 0.27200773
-0.6318658 2.3279204 0.24931403
-0.72370005 2.3284168 0.22876908
-0.78575981 2.2386568 0.20039642
-0.54233021 2.3359034 0.18291888
-0.61873472 2.2823792 0.15752316
-0.71386933 2.2987692 0.1377366
-0.81931293 2.3367302 0.1177277
-0.54635751 2.3566103 0.09551245
-0.62471545 2.3089082 0.071575783
-0.71312869 2.3004949 0.049525503
-0.8023563 2.2914424 0.026484849
-0.55615741 2.4004035 0.0070097921
-0.62987185 2.3313549 -0.016480407
-0.71108085 2.2971487 -0.038699437
-0.81120133 2.319428 -0.063013487
-0.54310584 2.3496666 -0.081687093
-0.64067382 2.3747931 -0.10648942
-0.7182104 2.3252082 -0.12864707
-0.81031531 2.3187127 -0.15324143
-0.5313288 2.3056831 -0.16703168
-0.61440444 2.2821708 -0.18932667
-0.7012884 2.2716885 -0.21306209
-0.71833938 2.0574839 -0.21644528
-0.45134839 1.9611135 -0.2165537
-0.48307943 1.7974956 -0.21799128
-0.51314294 1.6637728 -0.22038528
-0.5499205 1.5763324 -0.22801058
-0.26297915 1.1469508 -0.1704895
-0.29052371 1.0834267 -0.17322783
-0.35057956 1.1382424 -0.19582498
-0.41030014 1.1767086 -0.21733809
-0.2219526 0.97144276 -0.18222244
-0 0 -0
-0.27094299 0.88159662 -0.18670389
-0 0 -0
-0.20138289 0.88532609 -0.20135224
-0.23058325 0.86308616 -0.20688826
-0.2634728 0.85760993 -0.21683262
-0 0 -0
-0.18740758 0.82749265 -0.22195345
-0.21559034 0.80940235 -0.22762407
-0.2349409 0.76545179 -0.22607604
-0 0 -0
-0 0 0
-0 0 0
-0.68595356 2.2350957 0.66965646
-0.79091656 2.2712908 0.6638639
-0 0 0
-0.60243124 2.2686739 0.60093707
-0.70825917 2.313966 0.59497446
-0.80644339 2.32476 0.57959038
-0.52347302 2.3171165 0.53948486
-0.60934007 2.2934005 0.51400787
-0.70191598 2.2963922 0.49618676
-0.80549532 2.3274043 0.48421887
-0.51677895 2.2850733 0.44140261
-0.61396611 2.3132517 0.42623302
-0.70822465 2.321234 0.40842727
-0.80406576 2.3261633 0.390522
-0.51763499 2.2897873 0.35327616
-0.61917472 2.3376477 0.33969191
-0.70223004 2.3059113 0.31528991
-0.81809157 2.3735805 0.30443954
-0.52959943 2.3446152 0.27178302
-0.61858869 2.3355999 0.24972525
-0.70708215 2.3251932 0.22802179
-0.79178739 2.3009117 0.20553048
-0.54467195 2.4131074 0.18869928
-0.62436563 2.3604078 0.16264099
-0.70874816 2.3327191 0.13950759
-0.80301136 2.3360457 0.11744276
-0.5312283 2.3569942 0.095394105
-0.60951596 2.3088322 0.071456149
-0.69812924 2.3019569 0.049463827
-0.80094296 2.3332071 0.026910262
-0.53438693 2.3725529 0.0069187554
-0.61479038 2.3322749 -0.016459934
-0.69871116 2.3072102 -0.038795982
-0.78236401 2.2818084 -0.061859857
-0.53174567 2.3666062 -0.082161032
-0.62380159 2.3699839 -0.10610013
-0.70104116 2.3200121 -0.12811919
-0.80610043 2.3529105 -0.15517172
-0.51673532 2.3069532 -0.16689083
-0.59431243 2.2627592 -0.18741025
-0.69424713 2.2988322 -0.21520431
-0.702479 2.052438 -0.21545695
-0.43496576 1.9444404 -0.21441385
-0.47178924 1.7994652 -0.21787496
-0.50063199 1.6592917 -0.21938068
-0.54408532 1.5909269 -0.22963439
-0.26002648 1.1668965 -0.1732139
-0.273366 1.045032 -0.16681762
-0.3205311 1.0638434 -0.18268345
-0.37630701 1.1009011 -0.20290615
-0.21705385 0.97758788 -0.18312186
-0 0 -0
-0.26186019 0.87104046 -0.18412456
-0.32491112 0.95151705 -0.21408421
-0.19131152 0.86557305 -0.19658907
-0.22626582 0.86825567 -0.20779072
-0.25568792 0.8508324 -0.21471833
-0 0 -0
-0.18045558 0.82012343 -0.2196757
-0.20455365 0.78736001 -0.22106808
-0.226919 0.75581819 -0.22281533
-0.25081217 0.7335937 -0.22759071
-0 0 0
-0.58340639 2.2502341 0.69044149
-0.67333198 2.2429454 0.67075783
-0.77385122 2.2669783 0.66120315
-0 0 0
-0.59942925 2.3145294 0.61209768
-0.69460469 2.3201289 0.59545201
-0.78432983 2.3066256 0.57385868
-0.51049995 2.3259997 0.54081362
-0.6241858 2.4087341 0.53898841
-0.68781233 2.3006558 0.49618676
-0.77701461 2.2904887 0.47553763
-0 0 0
-0.59803361 2.3103034 0.42500564
-0.69284046 2.3217559 0.40776342
-0.77678365 2.2927012 0.38409692
-0.51863599 2.3614957 0.36384171
-0.59194046 2.2915449 0.3324585
-0.68099201 2.2864192 0.31204751
-0.78699082 2.329649 0.29817984
-0.51562905 2.3497615 0.27200773
-0.60698247 2.3499455 0.25085616
-0.69563991 2.339031 0.22895591
-0.76873773 2.279289 0.20317386
-0.51810908 2.3628359 0.18451609
-0.60837531 2.3583975 0.1622422
-0.69328409 2.3331959 0.13927908
-0.77909523 2.312531 0.11601806
-0.51248175 2.340687 0.094605066
-0.60505652 2.3502803 0.072622657
-0.69223583 2.3339944 0.050060026
-0.76875579 2.2850041 0.02629941
-0.52110159 2.3816485 0.0069358251
-0.60395354 2.3495622 -0.016555471
-0.68539304 2.3143301 -0.038844258
-0.771851 2.2969894 -0.062141854
-0.51550955 2.3620131 -0.081890211
-0.60626751 2.3621547 -0.1055811
-0.69415015 2.3491695 -0.1294917
-0.79387176 2.3644354 -0.1556076
-0.50363064 2.3149538 -0.16724291
-0.58239555 2.2740884 -0.18804905
-0.67335844 2.2801232 -0.21306209
-0.73702401 2.197283 -0.23018314
-0.43379232 1.9966238 -0.21987048
-0.47771236 1.8687226 -0.22590132
-0.49016061 1.6613808 -0.21925509
-0.53022027 1.5820227 -0.22787528
-0.25411758 1.1742737 -0.17407425
-0.27110064 1.0629694 -0.16941223
-0.31316087 1.0629505 -0.18219672
-0.40052286 1.1956668 -0.21991521
-0.21333191 0.98947883 -0.18510059
-0 0 -0
-0.26784357 0.91118455 -0.19225937
-0.28771862 0.85981309 -0.19305065
-0.18599688 0.86673063 -0.19658907
-0.21901496 0.8620739 -0.20598581
-0.25292876 0.86077857 -0.21683262
-0 0 -0
-0.17501581 0.81932306 -0.21916954
-0.20066631 0.79234219 -0.22211705
-0.22309032 0.75996655 -0.2236305
-0.24691589 0.73693854 -0.22815406
-0 0 0
-0.57475561 2.2742178 0.69670522
-0.65495402 2.2313535 0.66607684
-0.7938711 2.3731556 0.69073778
-0 0 0
-0.58901024 2.3331923 0.61606592
-0.69072181 2.3597622 0.60452461
-0.77046961 2.3123183 0.57408798
-0.49662462 2.3309958 0.54125655
-0.58067191 2.29881 0.51358443
-0.69154149 2.3659317 0.50934017
-0.76480287 2.3007998 0.47669515
-0.51083767 2.3950408 0.46139905
-0.58770037 2.3292029 0.42781097
-0.67195302 2.3032434 0.4037804
-0.76363486 2.3002362 0.38456705
-0.49836302 2.3375537 0.35967499
-0.58367151 2.3181813 0.33579698
-0.66667283 2.2896028 0.31191784
-0.77143371 2.3306642 0.29769829
-0.50327176 2.3626001 0.27313128
-0.58890933 2.3391566 0.24931403
-0.68099684 2.3422992 0.22886248
-0.7531746 2.2792325 0.20275304
-0.5029785 2.3630447 0.18428792
-0.59535277 2.367892 0.16264099
-0.67449898 2.3220661 0.13836503
-0.75330669 2.2821722 0.11426093
-0.4987331 2.3467197 0.094723418
-0.58721852 2.3403754 0.072203904
-0.67957211 2.3439593 0.050183378
-0.75628597 2.2944267 0.02635395
-0.50689375 2.3867574 0.0069415141
-0.58174944 2.3221836 -0.016337099
-0.67117965 2.3184919 -0.038844258
-0.75993067 2.3083291 -0.062321313
-0.49748591 2.3485103 -0.081314713
-0.59176219 2.3658302 -0.1055811
-0.68304801 2.3648973 -0.13012518
-0.75751847 2.3028963 -0.15124884
-0.49312615 2.3355684 -0.16851045
-0.56794834 2.2756851 -0.18788937
-0.65686917 2.2755995 -0.21225876
-0.66263849 2.0164716 -0.21081179
-0.45230195 2.1451786 -0.23591943
-0.53177917 2.1347246 -0.2576578
-0.48078203 1.6672168 -0.21963182
-0.51833951 1.5786567 -0.22692804
-0.24182299 1.1515971 -0.1704895
-0.26695681 1.074204 -0.17093846
-0.30144495 1.0468358 -0.17911416
-0.38580671 1.1756374 -0.21579179
-0.21329902 1.0196545 -0.1904971
-0 0 -0
-0 0 -0
-0.28274217 0.86249167 -0.1932589
-0 0 -0
-0.21723254 0.8775866 -0.20937002
-0.24871556 0.86605132 -0.21777231
-0.27695605 0.8438462 -0.2242211
-0 0 -0
-0.19788133 0.80199069 -0.2244772
-0.22160783 0.77242178 -0.22689122
-0.24149173 0.73570472 -0.22730905
-0 0 0
-0.56629068 2.3000414 0.70353854
-0.66590363 2.3212688 0.6916846
-0.75828141 2.3138604 0.67211229
-0 0 0
-0.56936181 2.3151259 0.61036158
-0.66127348 2.3116727 0.5911544
-0.75143462 2.3021972 0.57041967
-0.47777361 2.3120344 0.53616291
-0.56608868 2.3004315 0.513161
-0.65576231 2.2957401 0.49335375
-0.75097477 2.3063822 0.47688806
-0.48777059 2.3577123 0.45362264
-0.57950759 2.3576224 0.43236962
-0.65429318 2.2949946 0.40162292
-0.74981189 2.3058178 0.38472375
-0.48120716 2.3270104 0.35759166
-0.56212389 2.291904 0.33148476
-0.64745575 2.2755299 0.30945361
-0.75191391 2.3192999 0.29565185
-0.48655403 2.3549392 0.27189538
-0.58236402 2.3746066 0.25270674
-0.66770029 2.3502648 0.22923616
-0.74439156 2.2999275 0.20418385
-0.48423612 2.3455799 0.18269071
-0.56799519 2.3191667 0.15905187
-0.65751237 2.3165567 0.13779373
-0.75496 2.3352237 0.11668292
-0.48573658 2.3565865 0.094999589
-0.5716607 2.3390796 0.072054356
-0.6540044 2.3086455 0.049340475
-0.74680144 2.3132977 0.026517574
-0.49062544 2.3819873 0.0069187554
-0.56914914 2.3325098 -0.016384866
-0.65612459 2.3196802 -0.038795982
-0.7497406 2.3253171 -0.062654577
-0.48206079 2.3466237 -0.08114545
-0.57250506 2.3500028 -0.10471603
-0.66581237 2.3594329 -0.12959729
-0.73266244 2.2742517 -0.14906946
-0.48638907 2.3756857 -0.17118634
-0.55750579 2.2936559 -0.18908712
-0.64451611 2.2853389 -0.21279432
-0.66000855 2.050812 -0.21397446
-0.41164786 2.0134861 -0.22115441
-0.49642527 2.046252 -0.24660699
-0.4689289 1.6644059 -0.21887836
-0.50500363 1.5704887 -0.22530423
-0.23356776 1.1472408 -0.16962919
-0.26617223 1.0998358 -0.17475407
-0.29635212 1.0534152 -0.17992537
-0.37496883 1.1667279 -0.2137301
-0.19648132 0.96888465 -0.18078336
-0 0 -0
-0 0 -0
-0.27714574 0.8632791 -0.19305065
-0.17747098 0.8794747 -0.19897065
-0.20978917 0.87037915 -0.2073395
-0.24024612 0.85633051 -0.21495324
-0 0 -0
-0.16590063 0.82615161 -0.22043496
-0.18754667 0.7806704 -0.21818344
-0.21556559 0.76913369 -0.22553259
-0.24049675 0.74813432 -0.23068911
-0 0 0
-0.55998826 2.3360996 0.7135036
-0.64697862 2.3086488 0.6867283
-0.70312512 2.1908896 0.63512748
-0 0 0
-0.55830377 2.3317657 0.61383379
-0.6491676 2.3231688 0.59306449
-0.74499929 2.3308706 0.57638067
-0.47123757 2.3531699 0.54502147
-0.55105197 2.30006 0.5123142
-0.64824337 2.3233025 0.49841273
-0.74306822 2.3305786 0.48093927
-0.47232887 2.3558431 0.45269689
-0.55082464 2.3017704 0.42149901
-0.63861173 2.2932661 0.40062714
-0.73594916 2.3113163 0.38488045
-0.47333196 2.3619156 0.36250243
-0.55540997 2.3261325 0.3359361
-0.64649063 2.3262718 0.31580871
-0.72415286 2.2812908 0.29023477
-0.47287554 2.3617775 0.2723448
-0.56177688 2.3529799 0.25003368
-0.64687783 2.3312922 0.22699422
-0.7251482 2.2883036 0.20275304
-0.47042161 2.35144 0.18291888
-0.56115937 2.3536668 0.16117877
-0.62968397 2.2714813 0.13488019
-0.74001431 2.3379076 0.11658794
-0.47616041 2.3840191 0.095985875
-0.55706626 2.3415711 0.07202445
-0.64222586 2.3212874 0.049525503
-0.73349726 2.3206966 0.026550295
-0.47071609 2.3584752 0.0068419441
-0.55713719 2.3456872 -0.016453108
-0.64028162 2.3178799 -0.038699437
-0.72522724 2.2974613 -0.061782949
-0.46999431 2.3612998 -0.081551686
-0.55991906 2.3612485 -0.10506206
-0.64548594 2.342294 -0.12843592
-0.71449119 2.2653787 -0.14819771
-0.46869773 2.3629701 -0.17005965
-0.54296273 2.2950935 -0.18892743
-0.63418382 2.3026941 -0.21404395
-0.65488839 2.0785506 -0.21644528
-0.42150033 2.1281352 -0.23345859
-0 0 -0
-0.45870745 1.6672518 -0.21887836
-0.50339061 1.5990748 -0.2289578
-0.24318302 1.2331263 -0.18210402
-0.2591922 1.1004862 -0.17460144
-0.28308672 1.0304747 -0.17570709
-0.34799352 1.1060457 -0.20221891
-0.19375561 0.98648125 -0.18384141
-0 0 -0
-0.24247739 0.88476658 -0.18571185
-0.27067053 0.86123103 -0.19221763
-0 0 -0
-0.20377728 0.86880463 -0.20666265
-0.23601452 0.86153841 -0.21589294
-0.2610504 0.82960874 -0.2195702
-0.16692172 0.85849279 -0.22878668
-0.18670684 0.79872054 -0.22290376
-0.21287443 0.77786785 -0.2277064
-0.23100513 0.73403651 -0.22590068
-0.45693445 2.3649347 0.7441349
-0.54281312 2.3273556 0.70980227
-0.62544268 2.2856848 0.67874306
-0.7408089 2.3579378 0.68222326
-0 0 0
-0.54222751 2.3275993 0.61184961
-0.62595481 2.2943187 0.58470809
-0.73039263 2.3344688 0.57615137
-0.45604742 2.3521876 0.54413557
-0.53404438 2.2910242 0.50956213
-0.62882763 2.3083389 0.49436551
-0.71998447 2.3069942 0.47515178
-0.46610448 2.4011438 0.46084359
-0.55432755 2.380857 0.43535027
-0.62815052 2.3104637 0.40295061
-0.72322273 2.320503 0.38566402
-0.46071413 2.3744831 0.36399052
-0.53664523 2.3102047 0.33315402
-0.62493503 2.3033998 0.31217721
-0.72133416 2.3217163 0.29480919
-0.45818597 2.3636591 0.27223244
-0.55295497 2.3806052 0.25260392
-0.63646585 2.3496325 0.22839543
-0.71256965 2.2974684 0.20317386
-0.45295101 2.3386197 0.18170196
-0.55008864 2.3716455 0.16217573
-0.63711971 2.3543258 0.13956472
-0.7147187 2.3071012 0.11483081
-0.45545316 2.3555024 0.094723418
-0.53975838 2.3322854 0.071635611
-0.6261459 2.3184278 0.049381595
-0.71924388 2.3251536 0.026550295
-0.45680499 2.3642647 0.0068504787
-0.5431841 2.3510103 -0.016466757
-0.62917101 2.3333497 -0.03889253
-0.71495253 2.3142848 -0.062116221
-0.45492956 2.3611948 -0.081450127
-0.53980654 2.340302 -0.10398073
-0.63213927 2.3500679 -0.12864707
-0.71470696 2.315496 -0.15118659
-0.46208891 2.4069457 -0.17301719
-0.52931714 2.3003247 -0.18908712
-0.59832329 2.2257459 -0.20654617
-0.66030115 2.1414874 -0.22257297
-0.42041412 2.193176 -0.24030612
-0 0 -0
-0.44460931 1.655663 -0.21699473
-0.48861039 1.5860364 -0.22665741
-0.22782022 1.193766 -0.17608169
-0.26302651 1.1482959 -0.18192737
-0.27854735 1.0388639 -0.17684278
-0.31916878 1.0366052 -0.18916143
-0 0 -0
-0 0 -0
-0 0 -0
-0.26681861 0.86754996 -0.1932589
-0.16176854 0.85568553 -0.19312494
-0.1986592 0.87098843 -0.20688826
-0.23398755 0.8751778 -0.21894692
-0.26137668 0.84880108 -0.2242211
-0 0 -0
-0.182658 0.80361515 -0.22395271
-0.2051176 0.76800191 -0.22444569
-0.23101546 0.75011218 -0.23040742
-0.44206387 2.3658154 0.74354452
-0.53000653 2.3371866 0.71179527
-0.6153748 2.3043401 0.68314868
-0.72377741 2.3541462 0.67982852
-0 0 0
-0.53071737 2.3431652 0.6150738
-0.60711831 2.280287 0.58017176
-0.70408744 2.2998164 0.56652212
-0.44106692 2.3520663 0.54347122
-0.529266 2.3352439 0.51866519
-0.61087817 2.2979572 0.49133015
-0.71240652 2.3329525 0.47958887
-0.45988566 2.4493525 0.46954572
-0.5240584 2.315078 0.42272633
-0.61826068 2.3304782 0.40577191
-0.71300393 2.3381226 0.38785794
-0.43829298 2.3354735 0.35759166
-0.52791363 2.3376029 0.3366316
-0.60089338 2.2698083 0.30711907
-0.70707476 2.3260984 0.29480919
-0.43799782 2.3361499 0.26874951
-0.53066885 2.3499939 0.24900559
-0.61516768 2.3275042 0.22587328
-0.70164198 2.3122864 0.20409968
-0.44079602 2.3531153 0.18261464
-0.52652758 2.3350687 0.15945065
-0.6190936 2.3446767 0.13876492
-0.6950444 2.2932804 0.1139285
-0.44080785 2.3572705 0.094683975
-0.52828968 2.3482308 0.07202445
-0.61165375 2.3212593 0.049361032
-0.70814949 2.3400509 0.026670286
-0.44449362 2.3788188 0.0068846168
-0.53291172 2.3728368 -0.016596418
-0.61255258 2.3284636 -0.038747713
-0.70073891 2.3186281 -0.062116221
-0.43841937 2.3531342 -0.081077747
-0.52827793 2.3562434 -0.10454302
-0.61720073 2.3519707 -0.1285415
-0.69471586 2.3007288 -0.14994122
-0.44749358 2.4107168 -0.17308763
-0.51388729 2.2976928 -0.18860804
-0.5977934 2.2794735 -0.21118766
-0.62875742 2.0845253 -0.21624763
-0.41637093 2.2465501 -0.24586977
-0.43011725 1.9270873 -0.23125221
-0.43444198 1.6583599 -0.21699473
-0.48430142 1.6070292 -0.22922845
-0.20846106 1.1299342 -0.16647461
-0.25082189 1.1267362 -0.17826441
-0.2804077 1.0720564 -0.18219672
-0.31081355 1.0319412 -0.18795879
-0 0 -0
-0.21909024 0.98638332 -0.19464976
-0 0 -0
-0.25754553 0.8560583 -0.19034335
-0 0 -0
-0.19246794 0.86838645 -0.20598581
-0.22542435 0.86436981 -0.21589294
-0.26203635 0.86988467 -0.22936152
-0.15447134 0.85000616 -0.22600278
-0.17501828 0.79247093 -0.22054359
-0.20816509 0.79904735 -0.23314092
-0.22336391 0.7414096 -0.22730905
-0.42618141 2.3609614 0.74118316
-0.50266129 2.2814167 0.69385809
-0.58765346 2.255976 0.66772896
-0.67961371 2.2597704 0.65135825
-0 0 0
-0.51008409 2.3179939 0.60763341
-0.59726471 2.2999475 0.58423054
-0.70336545 2.348851 0.57752699
-0.42906049 2.3681619 0.54657173
-0.51765954 2.3508556 0.52141732
-0.60733545 2.3424249 0.50003165
-0.69864005 2.3391604 0.47997472
-0.42555261 2.3457663 0.44917899
-0.52147412 2.3711343 0.43236962
-0.59456295 2.2979496 0.39946541
-0.69638574 2.3348818 0.38660425
-0.43348157 2.3906608 0.36562741
-0.50698179 2.3108127 0.33231941
-0.59216005 2.2936141 0.30984271
-0.68458509 2.3027978 0.29131818
-0.42772883 2.3612819 0.27133363
-0.51069778 2.3279443 0.24633253
-0.59615326 2.3129165 0.22409841
-0.68630689 2.3127267 0.20376301
-0.43700358 2.4146457 0.18717812
-0.51667345 2.3587236 0.16084643
-0.59025627 2.2923551 0.13545147
-0.67670226 2.2831366 0.11321615
-0.42384866 2.3461647 0.094131649
-0.51707226 2.3660755 0.072473101
-0.60013622 2.3356204 0.049587179
-0.69037282 2.3328459 0.026539387
-0.42438227 2.3509946 0.0067964257
-0.5145058 2.3584759 -0.016473582
-0.59328496 2.312808 -0.038425885
-0.68848211 2.3295949 -0.062295672
-0.42645088 2.3695507 -0.081551686
-0.51423556 2.3613927 -0.10462953
-0.60275769 2.3557136 -0.1285415
-0.68482524 2.3193061 -0.15087524
-0.43498173 2.4261813 -0.17400306
-0.49999082 2.3017766 -0.18868788
-0.58897716 2.3033626 -0.21306209
-0.62383753 2.1150687 -0.21901496
-0.40415522 2.2578712 -0.24683271
-0.43532753 2.0083144 -0.24067445
-0.42843217 1.6773353 -0.21912952
-0.47695231 1.6185241 -0.23044631
-0.28379995 1.5930223 -0.23444101
-0.25413588 1.1755865 -0.18574294
-0.27894491 1.0938359 -0.1856038
-0.31004211 1.0527289 -0.19139495
-0 0 -0
-0 0 -0
-0 0 -0
-0.25615236 0.87075889 -0.1932589
-0.15312104 0.86818212 -0.19550653
-0.18713601 0.86955106 -0.20598581
-0.22155355 0.87138903 -0.21730247
-0.25998136 0.88263696 -0.23229893
-0.1484172 0.84617347 -0.22473738
-0.17136641 0.79919124 -0.22211705
-0.1952038 0.7685957 -0.22390224
-0.21853936 0.74184579 -0.22702737
-0 0 0
-0.49807754 2.3285162 0.70723987
-0.58681399 2.3107862 0.68287331
-0.68721932 2.3369567 0.67237842
-0.41730508 2.3869147 0.64696157
-0.49160141 2.3011854 0.60242516
-0.58647758 2.3167486 0.58757311
-0.6864785 2.3447154 0.57546359
-0.4081392 2.3342474 0.53815609
-0.50118208 2.3444302 0.51930034
-0.58767194 2.3252192 0.49557969
-0.6685974 2.2897158 0.46897852
-0.40691432 2.3241336 0.44455019
-0 0 0
-0.58382791 2.3149409 0.40178886
-0.67651671 2.3201475 0.38347006
-0.41573647 2.3757427 0.36294883
-0.49733138 2.3351879 0.33537966
-0.58001131 2.3048968 0.31088024
-0.66240823 2.2793095 0.28782716
-0.41254777 2.3599465 0.27088419
-0.50614166 2.3767595 0.25116459
-0.58777219 2.3397059 0.22634032
-0.68598408 2.3647444 0.20797126
-0.40862709 2.3396852 0.18116955
-0.49347514 2.3208587 0.15805487
-0.59246129 2.3608127 0.13927908
-0.6779688 2.3400137 0.1158281
-0.41030288 2.3536429 0.094328903
-0.49735937 2.3447587 0.071725339
-0.58312225 2.3285904 0.049361032
-0.6757679 2.3360777 0.02652848
-0.40857604 2.3456728 0.006773666
-0 0 -0
-0.58175015 2.327075 -0.038602889
-0.6730653 2.3299339 -0.062193129
-0 0 -0
-0 0 -0
-0.58708394 2.3545227 -0.12827756
-0.66172516 2.292779 -0.14888266
-0.41889673 2.4219241 -0.17351013
-0.48770848 2.3135796 -0.18940654
-0.56592268 2.2711744 -0.2097595
-0 0 -0
-0.39739904 2.3014584 -0.25132641
-0 0 -0
-0.42340374 1.7011122 -0.22189218
-0.46756074 1.6233243 -0.23071694
-0 0 -0
-0.23028083 1.0978106 -0.17322783
-0.26865858 1.0811626 -0.18317018
-0.29867166 1.0375711 -0.1883024
-0 0 -0
-0 0 -0
-0 0 -0
-0.24945335 0.86761427 -0.19221763
-0 0 -0
-0.18080141 0.8659147 -0.20485774
-0.21713755 0.87650597 -0.21824215
-0.24195337 0.84042406 -0.22079413
-0.14725456 0.87091583 -0.23106442
-0.16940737 0.81439936 -0.22605065
-0.19649452 0.7940681 -0.2309671
-0.21663824 0.75239331 -0.22984409
-0 0 0
-0.48046973 2.3155718 0.70239961
-0 0 0
-0.65555948 2.2809105 0.65508336
-0 0 0
-0.49693292 2.3980701 0.62697846
-0.56504285 2.2910757 0.58017176
-0.65440643 2.2871196 0.56033182
-0.39056763 2.3174756 0.53372681
-0.48559681 2.3417194 0.51803011
-0.57175469 2.322125 0.49416319
-0.66368967 2.325856 0.47553763
-0.39428139 2.3362768 0.44640172
-0.49034086 2.3677144 0.43061629
-0.57337719 2.3338022 0.40444422
-0.65496045 2.2986093 0.37923887
-0.40000004 2.3714232 0.36190718
-0.48199195 2.3333466 0.33468416
-0.56302506 2.2968559 0.30932394
-0.66088486 2.3272598 0.29336464
-0.39426228 2.3398967 0.26830006
-0.48772565 2.3613119 0.24921119
-0.57577145 2.3529391 0.22727446
-0.66358101 2.3411071 0.20553048
-0.39293921 2.3342822 0.18056108
-0.48345739 2.3443649 0.15945065
-0.57796448 2.3644035 0.13927908
-0.66033304 2.3325963 0.11525822
-0.39303896 2.3393643 0.093658231
-0.48840073 2.3742008 0.072532922
-0.56455892 2.314641 0.04899098
-0.66359699 2.347878 0.026615744
-0.39914206 2.3777215 0.0068590124
-0.4885419 2.3793054 -0.016575946
-0.56958944 2.3393443 -0.038747713
-0.66473031 2.3551857 -0.062757127
-0.39453676 2.3578484 -0.080976188
-0.47518957 2.3185894 -0.10246687
-0.57474667 2.3668144 -0.12875266
-0.64574838 2.2900717 -0.14844678
-0.40370023 2.4224808 -0.17336929
-0.47609854 2.3292246 -0.1904446
-0.55502981 2.2871871 -0.21091987
-0.59756565 2.1216071 -0.21891613
-0.38718599 2.3273921 -0.25389424
-0.4489558 2.2013288 -0.263125
-0.43539366 1.7962377 -0.23394744
-0.4651061 1.6528679 -0.23450583
-0.37315378 2.2544668 -0.33108518
-0.29306448 1.4410695 -0.22710395
-0.28035405 1.1585572 -0.19598722
-0.31363532 1.1152514 -0.20204708
-0.16724159 1.015255 -0.1881586
-0 0 -0
-0 0 -0
-0.25258878 0.89926082 -0.19888173
-0 0 -0
-0.17877036 0.88324028 -0.20869318
-0.20833625 0.86364812 -0.21471833
-0.23705459 0.84282619 -0.22103891
-0.13848847 0.85079569 -0.22549661
-0.16517003 0.81920737 -0.2270996
-0.18485551 0.76719087 -0.22281533
-0.21331669 0.75832671 -0.23125245
-0.37244144 2.3052106 0.7214064
-0.46852055 2.3297539 0.70581627
-0.55953878 2.3224866 0.68425006
-0.64311522 2.2904582 0.65667981
-0.37653488 2.3212829 0.62787259
-0.46771249 2.3288898 0.60812944
-0.55324185 2.303942 0.58255929
-0.65215123 2.3332767 0.57064891
-0.38789621 2.3910599 0.55011511
-0.47526315 2.3647766 0.52247584
-0.55429953 2.3122568 0.49133015
-0.64202935 2.3034191 0.47013599
-0.37332025 2.2979124 0.43862534
-0.4761911 2.3726091 0.43096697
-0.55721128 2.3296039 0.40311655
-0.64163858 2.3054392 0.37970901
-0.38385686 2.3640721 0.36041906
-0.46708262 2.3333471 0.33426684
-0.5553655 2.3272727 0.31295538
-0.64685798 2.3322277 0.29348502
-0.38005665 2.3432527 0.26841244
-0.47264206 2.3613338 0.24890277
-0.55555546 2.3322148 0.22493914
-0.63883561 2.3076816 0.20224805
-0.38100114 2.3514132 0.18170196
-0.46945456 2.3492439 0.15958358
-0.55951697 2.3513937 0.13830788
-0.64520949 2.3337157 0.11511575
-0.38298428 2.3683648 0.094723418
-0.4699159 2.3575475 0.071934715
-0.55381012 2.3326526 0.049299356
-0.64598554 2.3403389 0.026484849
-0.38454512 2.3801258 0.0068590124
-0.4680801 2.3528354 -0.01637122
-0.55015212 2.3213909 -0.038393702
-0.64707905 2.3476553 -0.062449489
-0.37990293 2.3592379 -0.080942325
-0.46562386 2.34498 -0.10350495
-0.56021333 2.3702965 -0.12875266
-0.63830882 2.318047 -0.15000349
-0.38582784 2.4061985 -0.17203134
-0.46160406 2.3311241 -0.19036473
-0.54121441 2.2915189 -0.21100913
-0.58902276 2.1415448 -0.2205963
-0.38279802 2.3915751 -0.26063478
-0.39366725 1.9926021 -0.23788269
-0.43620881 1.8490857 -0.24047738
-0.45233029 1.6461368 -0.23315266
-0.32834637 2.0622203 -0.30255079
-0.22615094 1.1480666 -0.18070637
-0.25107315 1.0661288 -0.1800876
-0.30287328 1.1029055 -0.19946995
-0 0 -0
-0.18080702 0.92016244 -0.18065162
-0 0 -0
-0.23956373 0.87343985 -0.19284239
-0.13650733 0.86699593 -0.1946405
-0.16660105 0.84990376 -0.20057108
-0.2050323 0.87342685 -0.21683262
-0.23906867 0.87044364 -0.22789283
-0 0 -0
-0.15810622 0.80978709 -0.22421496
-0.1731146 0.73832786 -0.2141201
-0.20713475 0.75406986 -0.22956242
-0.36767235 2.367877 0.74029762
-0.45165148 2.3194118 0.70183021
-0.5435223 2.3183885 0.68204731
-0.62522584 2.2804165 0.65268862
-0.36883378 2.3655529 0.6392228
-0.45193452 2.3241081 0.60614532
-0.54218787 2.3205318 0.58590186
-0.63859105 2.3400514 0.57133675
-0.37291715 2.3914678 0.54967219
-0.45196989 2.3225594 0.51252592
-0.5512237 2.3633001 0.50144815
-0.6258226 2.299741 0.46859267
-0.36618853 2.3448231 0.44714233
-0.45749235 2.3542249 0.42710966
-0.53329563 2.2916789 0.3959803
-0.62748057 2.3093328 0.37970901
-0.36614153 2.345865 0.35729402
-0.45237982 2.3342247 0.33398864
-0.53771168 2.3161483 0.31100994
-0.62371421 2.3035731 0.28939211
-0.36674303 2.3524132 0.26919889
-0.44697931 2.3065743 0.242837
-0.54101002 2.3346095 0.22484572
-0.62648356 2.3182917 0.2028372
-0.36518502 2.3448396 0.18101743
-0.45067212 2.3295488 0.15805487
-0.5392248 2.329494 0.13682257
-0.63296008 2.3453457 0.11549567
-0.36890543 2.3736322 0.094841778
-0.45373705 2.3515534 0.071665518
-0.53543729 2.3184721 0.048929304
-0.63239372 2.3471551 0.026517574
-0.36870626 2.3745353 0.0068362537
-0.45250002 2.3497717 -0.016330274
-0.53814393 2.334466 -0.038554616
-0.63396055 2.3564084 -0.062577672
-0.36664245 2.369426 -0.081213154
-0.44820958 2.3320949 -0.10281289
-0.54163188 2.3561711 -0.12780245
-0.62536883 2.3267393 -0.15031482
-0.37120831 2.4095066 -0.17210175
-0.45235765 2.3603451 -0.19252071
-0.52669775 2.2928553 -0.21083063
-0.57380736 2.1374302 -0.21980564
-0.37174314 2.4174638 -0.26320261
-0.41780484 2.1852105 -0.26056588
-0.46856049 2.0422182 -0.26521578
-0.44273457 1.6507952 -0.23342329
-0.24177706 1.5809199 -0.2317166
-0.22928019 1.202827 -0.18910068
-0.24672973 1.0772678 -0.18171
-0.27518708 1.0267165 -0.18538164
-0.14988744 0.98513848 -0.18222244
-0 0 -0
-0 0 -0
