# .PCD v0.7 - Point Cloud Data file format
VERSION 0.7
FIELDS x y z
SIZE 4 4 4
TYPE F F F
COUNT 1 1 1
WIDTH 1758
HEIGHT 1
VIEWPOINT 0 0 0 1 0 0 0
POINTS 1758
DATA ascii
-0 0 0
-0 0 0
-0 0 0
-0 0 0
-0 0 0
-0 0 0
-0 0 0
-0 0 0
-0 0 0
-0 0 0
-0 0 0
-0 0 0
-0 0 0
-0 0 0
-0 0 0
-0 0 0
-0 0 0
-0 0 0
-0 0 0
-0 0 -0
-0 0 -0
-0 0 -0
-0 0 -0
-0 0 -0
-0 0 -0
-0 0 -0
-0 0 -0
-0 0 -0
-0 0 -0
-0 0 -0
-0 0 -0
-0 0 -0
-0 0 -0
-0 0 -0
-0 0 -0
-0 0 -0
-0 0 -0
-0 0 -0
-0 0 -0
-0 0 -0
-0 0 -0
-0 0 -0
-0 0 -0
-0 0 -0
-0 0 -0
-0 0 -0
-0 0 -0
-0 0 -0
-0 0 -0
-0 0 -0
-0 0 0
-0 0 0
-0 0 0
-0 0 0
-0 0 0
-0 0 0
-0 0 0
-0 0 0
-0 0 0
-0 0 0
-0 0 0
-0 0 0
-0 0 0
-0 0 0
-0 0 0
-0 0 0
-0 0 0
-0 0 0
-0 0 0
-0 0 0
-0 0 0
-0 0 0
-0 0 0
-0 0 0
-0 0 0
-0 0 0
-0 0 0
-0 0 0
-0 0 0
-0 0 0
-0 0 0
-0 0 0
-0 0 0
-0 0 -0
-0 0 -0
-0 0 -0
-0 0 -0
-0 0 -0
-0 0 -0
-0 0 -0
-0 0 -0
-0 0 -0
-0 0 -0
-0 0 -0
-0 0 -0
-0 0 -0
-0 0 -0
-0 0 -0
-0 0 -0
-0 0 -0
-0 0 -0
-0 0 -0
-0 0 -0
-0 0 -0
-0 0 -0
-0 0 -0
-0 0 -0
-0 0 -0
-0 0 -0
-0 0 -0
-0 0 -0
-0 0 -0
-0 0 -0
-0 0 -0
5.2900028 3.1313658 1.8991528
5.3445601 3.4464467 1.8888201
4.820735 3.3743865 1.6854305
0 0 0
6.0113759 3.563478 1.8658186
5.391449 3.474685 1.6420983
0 0 0
4.165648 3.1459999 1.2295662
6.9532146 4.121954 1.8357102
6.859777 4.4223499 1.7679075
6.8200841 4.7623591 1.718846
0 0 0
5.9435992 3.5252638 1.3019897
6.8045397 4.3842182 1.4415827
0 0 0
0 0 0
5.9250035 3.5135353 1.0366141
5.4601579 3.5141129 0.91210473
0 0 0
0 0 0
6.1159482 3.6253231 0.80388904
0 0 0
4.7474794 3.3049941 0.54273105
0 0 0
5.9506588 3.5260823 0.52761257
5.4792476 3.5238297 0.43395302
0 0 0
0 0 0
1.137511 0.67355305 0.052194539
0 0 0
0 0 0
12.324683 9.2455635 0.16807188
1.132463 0.67035049 0.0037438662
1.1091228 0.7119621 -0.0089942757
0 0 -0
1.7749627 1.330501 -0.056886461
1.1184042 0.66123796 -0.044008795
1.0974388 0.70389426 -0.056445446
1.0930004 0.75804353 -0.0703151
1.1198468 0.83900297 -0.087299667
1.1235771 0.6632911 -0.092106842
1.0860941 0.69581544 -0.10332717
0.98714215 0.68439662 -0.10764679
0 0 -0
1.1920247 0.70324957 -0.14893417
1.0398155 0.66552693 -0.1445908
0.87334561 0.60516173 -0.13449153
0 0 -0
1.9673995 1.1585169 -0.33079842
1.0774941 0.68879479 -0.19749497
0.88754147 0.61449409 -0.17749175
0 0 -0
2.1556845 1.2671613 -0.45726499
2.1037416 1.3434337 -0.4808549
1.9057834 1.317758 -0.46904144
0 0 -0
2.1381326 1.2540838 -0.54971325
2.1017501 1.3408198 -0.5773468
1.8661742 1.2900813 -0.548307
1.6582646 1.2406758 -0.52285618
2.1466694 1.2563732 -0.65067542
2.0665896 1.3162079 -0.66582662
1.8772969 1.297044 -0.64426237
1.6602105 1.2422221 -0.60869247
5.3148932 3.1022196 1.9012189
5.3817825 3.4238794 1.8945144
4.9425893 3.4146874 1.7206755
4.4634733 3.336364 1.5381953
6.0931835 3.5616302 1.8843917
5.5271177 3.5143089 1.6768202
0 0 0
4.1848731 3.1203809 1.2295662
6.9295459 4.0506687 1.8228652
5.9169755 3.7633526 1.5189481
6.8080535 4.69208 1.7085258
0 0 0
5.9863248 3.5011308 1.3066183
6.5679307 4.1749625 1.3860023
0 0 0
0 0 0
0 0 0
0 0 0
0 0 0
0 0 0
6.1749663 3.6092896 0.80872023
0 0 0
4.8989649 3.3660131 0.55767715
4.4993234 3.3375266 0.4731746
6.2063518 3.6263268 0.54830027
5.5235138 3.5045764 0.43574759
0 0 0
0 0 0
1.1528401 0.67311049 0.052707411
1.1414447 0.72344524 0.040438976
4.9260974 3.3792164 0.12283722
0 0 0
1.1296457 0.65935647 0.003721107
1.1227634 0.7110284 -0.0090693422
1.0870152 0.74503177 -0.021208256
0 0 -0
1.125894 0.65637648 -0.044144206
1.0882293 0.68859982 -0.055753395
1.1347133 0.77670532 -0.072690614
1.072015 0.7929436 -0.083189979
1.1293499 0.65738809 -0.092247672
1.0920284 0.69020331 -0.10348687
1.0702342 0.73232287 -0.11621569
0 0 -0
1.1438925 0.6654256 -0.1424076
1.0690738 0.67504251 -0.14808051
0.9769482 0.66811514 -0.14981176
0.82478172 0.60938096 -0.14005399
2.1387961 1.2418343 -0.35832909
1.05913 0.66793662 -0.19337414
0.90596008 0.61905742 -0.18041208
0 0 -0
2.1429935 1.2420717 -0.4529478
2.1244075 1.3383514 -0.48369238
1.9203099 1.3104593 -0.47062874
1.7312413 1.2778481 -0.45815685
2.106066 1.2179695 -0.53953737
2.1264284 1.3382769 -0.58185917
1.9093841 1.3027102 -0.55864352
1.6970416 1.2535203 -0.53264749
2.1157928 1.2209351 -0.63903362
2.1285558 1.3373866 -0.68313444
1.8828348 1.2838743 -0.64344716
1.7310867 1.278761 -0.63178957
5.333828 3.0695496 1.9012189
5.4124331 3.396908 1.8979311
4.9856882 3.3994601 1.7283854
4.4823098 3.3077693 1.5376631
6.1651478 3.553122 1.8998692
5.622438 3.5266581 1.6991414
0 0 0
4.1945343 3.0877197 1.226815
6.9703226 4.0173254 1.8270731
5.5872841 3.5056951 1.428764
5.0293541 3.4208817 1.2568581
0 0 0
5.994925 3.45697 1.3038411
6.7035232 4.2036247 1.4091463
5.0204506 3.4111104 1.0214831
0 0 0
0 0 0
5.5507073 3.4768074 0.92003369
5.0121059 3.4016058 0.79231018
0 0 0
6.407064 3.692395 0.83613449
0 0 0
4.9302382 3.3431544 0.55889153
4.546247 3.3292847 0.47595203
0 0 0
5.5609837 3.4806771 0.43701044
4.9429698 3.3500247 0.34168506
0 0 0
1.1725363 0.67499751 0.053417541
1.1356918 0.710069 0.040080048
4.9649529 3.3612576 0.12328951
1.9388748 1.4176328 0.026201237
1.1336702 0.65241265 0.003721107
1.1075991 0.69194013 -0.0089123854
1.1006764 0.74451023 -0.021385262
16.927597 12.367308 -0.53761423
1.1359657 0.65294218 -0.044381179
1.0924339 0.68190962 -0.055753395
1.1063579 0.74736863 -0.070579045
1.0945929 0.79929978 -0.084559873
1.1307669 0.6489566 -0.092036419
1.0937053 0.68190765 -0.10324732
1.0144513 0.68505168 -0.10969976
0 0 -0
1.1695158 0.67076081 -0.14508241
1.0757248 0.67004544 -0.14842948
1.0065212 0.679313 -0.15370461
0 0 -0
2.1300566 1.2193458 -0.35560468
1.0841873 0.67447633 -0.19718973
1.0455482 0.70506853 -0.20734411
0 0 -0
2.1129947 1.2074252 -0.44503292
2.1359155 1.3273642 -0.48444903
1.9608325 1.3205515 -0.47856513
1.7461638 1.2723854 -0.46003115
2.0939932 1.1939023 -0.5345577
2.1445317 1.3313702 -0.58456647
1.918954 1.2920557 -0.55911338
1.7211527 1.2550803 -0.53778785
1.5606898 0.88788819 -0.46972132
2.1244183 1.3166754 -0.67920089
1.9577451 1.3174294 -0.66627222
1.7272718 1.2596349 -0.62756449
5.3442516 3.0320492 1.8982671
5.4339895 3.3641386 1.8982158
5.0646772 3.4079831 1.7484862
4.5227785 3.2949617 1.5445812
6.2246351 3.5367045 1.9114774
5.6933999 3.5226762 1.7140223
0 0 0
4.1693063 3.0298803 1.2139759
6.9651666 3.9576194 1.8193219
0 0 0
6.8724375 4.6130934 1.7103469
6.8044395 4.9374237 1.6529033
6.0168777 3.4206064 1.3040262
6.8547812 4.2400994 1.435446
0 0 0
0 0 0
0 0 0
0 0 0
0 0 0
0 0 0
6.4797091 3.6814828 0.84265101
0 0 0
0 0 0
4.6198864 3.3398566 0.48150691
1.1826226 0.67166781 0.10374276
0 0 0
0 0 0
0 0 0
1.1584064 0.65743309 0.052589055
1.1247134 0.69364268 0.039541658
5.083581 3.3962669 0.12571542
1.9718606 1.4232661 0.02652848
1.1359124 0.6444574 0.0037154173
1.1152291 0.68722934 -0.0089396816
1.102729 0.73607725 -0.021336988
0 0 -0
1.1390811 0.64546698 -0.044347323
1.1025527 0.67886037 -0.056056164
1.1142465 0.7427817 -0.070790209
0 0 -0
1.1399367 0.64495337 -0.092458926
1.1038123 0.67883921 -0.10380628
1.0534465 0.70201206 -0.11344865
0.94385588 0.67996216 -0.11553632
1.2212116 0.69048697 -0.15096703
1.0679684 0.65615332 -0.14680097
1.020579 0.67972356 -0.15521151
0.92144781 0.66347718 -0.15507425
2.1504269 1.213549 -0.35775554
1.8860029 1.1572982 -0.34172431
1.0063161 0.66966653 -0.19874531
0 0 -0
2.0492275 1.1543653 -0.43010253
2.1406713 1.3121808 -0.48369238
1.9664495 1.3068677 -0.47796991
1.783316 1.2827793 -0.46773651
1.5302148 0.86006242 -0.389281
2.1509991 1.3171691 -0.58411533
1.9867563 1.3200634 -0.57649761
1.7563629 1.2643218 -0.54635531
1.5458571 0.86693805 -0.46364737
2.1398673 1.3081454 -0.68156105
1.9730072 1.3101836 -0.66871774
1.7458701 1.2568611 -0.63150787
5.3527484 2.9936039 1.894725
5.4569836 3.3322318 1.89907
5.2000165 3.452888 1.7878616
4.6242995 3.3256814 1.5722532
6.2386322 3.4941952 1.9091558
5.8455625 3.5674114 1.7532084
5.2018805 3.4485033 1.5344708
4.1609282 2.9849501 1.2061808
7.0259032 3.9352989 1.8288448
6.963738 4.2511425 1.7672724
6.9079614 4.5757051 1.7121681
6.8090806 4.877295 1.6467299
5.9623137 3.341346 1.2877328
5.9082818 3.604697 1.2325865
0 0 0
0 0 0
0 0 0
5.8821583 3.5846746 0.96760726
0 0 0
0 0 0
6.607945 3.700892 0.85635811
5.9390731 3.6192172 0.7188468
5.1013341 3.3685346 0.57355744
4.6751699 3.3363361 0.48512602
1.1754111 0.65806651 0.10275401
5.8734283 3.576684 0.45807999
5.0961971 3.3633547 0.34939739
0 0 0
1.1685227 0.65372783 0.052865218
1.1554215 0.70283186 0.040468883
5.1485643 3.394176 0.12680502
1.9895146 1.4175228 0.026648469
1.141591 0.63845164 0.003721107
1.1219885 0.68193161 -0.0089601548
1.1130698 0.73314714 -0.021449625
1.0708925 0.76241589 -0.033711445
1.1386576 0.63602865 -0.044178061
1.1032816 0.67000818 -0.055883154
1.1112745 0.73099166 -0.0703151
1.0839893 0.77134097 -0.083003178
1.1551981 0.64426303 -0.093374364
1.1054001 0.67050266 -0.10356672
1.0685529 0.70264906 -0.11460902
0 0 -0
1.2167406 0.67814034 -0.1498971
1.1169939 0.67686862 -0.15296613
1.042141 0.68489069 -0.1578486
0.98930132 0.70315731 -0.16576438
1.9865898 1.1050746 -0.32936451
2.1137431 1.2792587 -0.38155904
0.99473459 0.65318865 -0.19566275
0.86730421 0.6162414 -0.18555345
1.6391697 0.91016865 -0.34285882
2.1385984 1.2929249 -0.48142239
2.0383606 1.3367002 -0.4934459
1.8318254 1.3006921 -0.47835743
1.5055737 0.8340981 -0.38170323
2.1473653 1.2968949 -0.58095664
2.0330241 1.3328964 -0.5875389
1.7632973 1.2529596 -0.54611051
1.5486072 0.85603243 -0.46288812
2.1462007 1.2939942 -0.68103653
2.024477 1.326535 -0.68339092
1.7950023 1.2755829 -0.64643645
5.3643222 2.9570138 1.8923637
5.4756846 3.2976964 1.8985004
5.2669392 3.4509473 1.8035566
4.731081 3.3586249 1.6015217
6.2506504 3.4507134 1.9063182
5.8731518 3.5349736 1.7549444
5.2847037 3.4569209 1.552616
0 0 0
7.0336971 3.8831599 1.8246371
5.8819575 3.5413926 1.4871931
6.9039369 4.5123367 1.704276
6.8252587 4.8257933 1.6434503
7.0235472 3.8796356 1.5117668
5.9117303 3.5572095 1.2287292
0 0 0
0 0 0
1.2153472 0.67118967 0.20892996
5.9312034 3.5648391 0.97205859
0 0 0
0 0 0
0 0 0
5.9901562 3.6001296 0.72234237
5.1594458 3.3616281 0.57776105
0 0 0
1.2213309 0.67396581 0.10640478
5.9038181 3.5457153 0.45874465
5.1619153 3.3614409 0.35248232
0 0 0
1.1751369 0.64799309 0.052983571
1.1348552 0.68081695 0.039601482
5.1625891 3.3581598 0.12664056
0 0 0
1.145487 0.63143498 0.003721107
1.1338708 0.67966139 -0.0090215718
1.1108403 0.72194475 -0.021320896
1.0951803 0.76962531 -0.03432671
1.1469163 0.6314401 -0.044347323
1.1073719 0.66322595 -0.055883154
1.0763698 0.69860715 -0.06783402
1.069917 0.75148129 -0.081571013
1.1530104 0.63379908 -0.092881434
1.1060717 0.66166055 -0.10324732
1.0928973 0.70909017 -0.11675125
0 0 -0
1.2173929 0.66874701 -0.14946914
1.1705749 0.69955355 -0.15971293
1.0330054 0.66984707 -0.15583938
0.90680951 0.63618654 -0.15128537
1.3008298 0.7131927 -0.2149401
2.116461 1.263226 -0.38064334
1.0790523 0.6991176 -0.21140014
0.88719994 0.62222123 -0.18898962
1.4954385 0.81839579 -0.31173888
2.1490216 1.281287 -0.48198989
2.038295 1.3188436 -0.49146181
1.8557906 1.3006548 -0.48252249
1.4823867 0.80940485 -0.37455848
2.1494236 1.2802048 -0.57937735
2.0656486 1.3362353 -0.59458655
1.8146106 1.272738 -0.55957353
1.543636 0.84096026 -0.45985109
2.1416583 1.2734032 -0.67710292
2.0358112 1.3161781 -0.68447781
1.8483564 1.2965029 -0.66277349
5.4125891 2.9404631 1.90299
5.4702654 3.2488613 1.8896742
5.3679404 3.4702349 1.8308164
4.8163338 3.3748925 1.6233401
6.2988639 3.4270711 1.914573
6.2654428 3.7189093 1.8653105
5.3808784 3.4728758 1.5745814
0 0 0
7.0436864 3.8324718 1.8210937
6.9019322 4.0980062 1.7386929
5.4969664 3.544811 1.3515626
6.8330154 4.768662 1.6382416
0 0 0
5.9503789 3.5309172 1.2322359
0 0 0
0 0 0
1.3228 0.71997529 0.22663842
0 0 0
0 0 0
0 0 0
1.216753 0.66198063 0.15662073
6.084868 3.6064155 0.73108125
5.4689145 3.5156496 0.60998857
0 0 0
1.2385825 0.67360491 0.10754565
5.9065752 3.4982371 0.45728239
0.92393649 0.59362644 0.062841259
0 0 0
1.1834806 0.64315599 0.053180829
1.1605182 0.68656439 0.040349241
1.1493686 0.73764431 0.028082954
0 0 0
1.1467036 0.62296242 0.0037125724
1.1251073 0.66505867 -0.0089192092
1.1152493 0.71511519 -0.021320896
1.1113819 0.77086735 -0.034685615
1.1560398 0.62725067 -0.044550445
1.1140013 0.65794295 -0.056012917
1.0764313 0.68929696 -0.067570068
1.0909125 0.75627476 -0.08281637
1.1568775 0.62671244 -0.092881434
1.115262 0.65790015 -0.10372642
1.0779338 0.69002038 -0.11469828
0.93658054 0.64887285 -0.11316432
1.2118554 0.65605783 -0.1482922
1.1893919 0.70093042 -0.16169044
1.0905805 0.69771343 -0.16387624
0.97423297 0.67460662 -0.16184016
1.2564222 0.67885256 -0.20691031
2.1369479 1.2577351 -0.38293266
1.0351001 0.66165918 -0.20199013
0.94608122 0.65489316 -0.20067263
1.2900425 0.69573855 -0.2680271
2.1424527 1.2596161 -0.4787741
2.1165707 1.3511389 -0.50832665
1.907977 1.319847 -0.49397644
1.500221 0.8072328 -0.3778061
2.1538782 1.2650186 -0.57847494
2.0983894 1.3392234 -0.6016342
1.8470989 1.2786878 -0.56716186
1.5598478 0.83742177 -0.46314117
2.1411066 1.2553574 -0.67448056
2.0957766 1.3367839 -0.7018683
1.8712659 1.2955145 -0.66812521
5.4288449 2.9062946 1.9023995
5.5124316 3.2283154 1.8973618
5.4288478 3.4625635 1.8443087
4.8876915 3.3803687 1.6403692
6.3308425 3.3942924 1.9179264
6.2664061 3.6676722 1.8588623
5.5249543 3.5180304 1.6103945
4.9410629 3.4086189 1.413898
7.039567 3.7744346 1.8140067
6.9311643 4.0580487 1.7397513
5.5458803 3.528363 1.3582405
6.8427529 4.7132869 1.6336117
0 0 0
5.9931755 3.5067699 1.2366192
0 0 0
0 0 0
0 0 0
0 0 0
0 0 0
4.9628067 3.4090655 0.73010117
1.2724611 0.68220359 0.16324958
6.2202425 3.6352623 0.74465215
5.5332637 3.5092218 0.61475265
4.8639607 3.3376682 0.4982557
1.2409346 0.66505045 0.10739353
1.1313039 0.66068506 0.087269157
0 0 0
4.9798565 3.4147682 0.28707701
1.1953324 0.64012772 0.053535897
1.1301736 0.65928441 0.03915282
1.1352895 0.71881181 0.027630666
4.9428959 3.3863804 0.065361284
1.1496228 0.61544263 0.0037097272
1.1317587 0.65965331 -0.0089396816
1.1145461 0.70505142 -0.021224348
1.114441 0.76290411 -0.034634344
1.1510532 0.61543322 -0.044211917
1.1154274 0.64958686 -0.055883154
1.095837 0.69227928 -0.068520278
0 0 -0
1.1633412 0.62101144 -0.093092687
1.1322025 0.65856248 -0.10492419
1.0829896 0.68392509 -0.11478753
0.97504455 0.66670406 -0.11731532
1.2114719 0.6462698 -0.14775725
1.2022579 0.69860935 -0.16285367
1.0789007 0.68094796 -0.16149029
1.0045305 0.6865055 -0.16617033
1.3016217 0.69299001 -0.2136496
2.1377869 1.240631 -0.38171169
2.1074939 1.3290129 -0.40965873
0.8858211 0.60517424 -0.18709974
1.3385884 0.71135235 -0.27720118
2.1424956 1.2420143 -0.47707161
2.1364326 1.3454387 -0.5111044
1.924925 1.3141812 -0.4962672
1.4861698 0.78795153 -0.37304291
2.1413662 1.2400618 -0.57306021
2.1246636 1.3377165 -0.60680246
1.9109496 1.3056182 -0.58429664
1.5427225 0.81607342 -0.45656106
2.1404147 1.2373666 -0.67185813
2.1422226 1.3479887 -0.71463943
1.8799719 1.2845495 -0.6684069
5.4017859 2.8493037 1.8867553
5.5445886 3.2016213 1.9016324
5.5809932 3.5116148 1.8886403
4.9839764 3.4019415 1.6656464
6.3301935 3.3441007 1.9114774
0 0 0
5.6122208 3.525387 1.6294947
5.0214238 3.4187737 1.4308637
6.9608498 3.677418 1.787874
6.9703226 4.0237498 1.7433503
5.9182925 3.7144814 1.4438387
5.0067816 3.4035635 1.1902909
0 0 0
6.0145798 3.4699304 1.2366192
0 0 0
5.0409031 3.4239297 0.96690238
1.2930671 0.68335849 0.22009075
0 0 0
0 0 0
4.9860964 3.3802214 0.73046231
1.2265421 0.64792758 0.15684544
6.225194 3.5870948 0.74259597
0 0 0
4.9181762 3.3306694 0.50170648
1.2467554 0.65835488 0.10754565
1.1716534 0.67464244 0.090060703
0 0 0
4.9800344 3.3701525 0.28588977
1.2071913 0.63697803 0.053890962
1.1359305 0.65333414 0.039212644
1.1481584 0.71712863 0.027836252
4.97435 3.3632686 0.065503091
1.161338 0.61257607 0.0037353314
1.1323169 0.65070361 -0.0089123854
1.1188512 0.69819945 -0.021224348
1.1108177 0.75045544 -0.034377981
1.1636502 0.61301708 -0.044550445
1.1159266 0.64074063 -0.055710144
1.093284 0.68131709 -0.068097964
1.0372475 0.70038325 -0.078084007
1.1803725 0.62082672 -0.094148956
1.1293044 0.64763594 -0.10428539
1.0922379 0.68042701 -0.1153231
1.0822254 0.7302863 -0.1296695
1.1775703 0.6189332 -0.14315654
1.2108308 0.69368792 -0.1634353
1.0813743 0.67326641 -0.16123913
0.9676522 0.65262824 -0.15940444
1.2383658 0.64959151 -0.20260864
2.136781 1.2225825 -0.38018546
2.1172845 1.317099 -0.40998322
0.89523542 0.60358256 -0.1883024
1.2949972 0.67803019 -0.26730755
2.1202378 1.2117912 -0.47045091
2.132992 1.3250636 -0.50832665
1.9337635 1.3028919 -0.49647543
1.4831886 0.77474964 -0.37109435
1.8993539 1.0844051 -0.506504
2.1320059 1.3241416 -0.6065675
1.9350028 1.3047091 -0.58919227
1.5065202 0.78513062 -0.44441307
1.9962173 1.137722 -0.62439275
2.1357355 1.3256834 -0.70974839
1.9689635 1.3277078 -0.69713742
5.4132323 2.8130214 1.8846891
5.5516329 3.1604264 1.8973618
5.6367407 3.4985971 1.9002053
5.0791078 3.4213812 1.6903917
6.3454509 3.3025203 1.9099296
6.4911346 3.6930149 1.9119372
5.694005 3.528223 1.6469238
0 0 0
6.9971242 3.6418417 1.7914176
7.0016756 3.9847722 1.7450438
5.8618708 3.6291251 1.4246145
6.8511863 4.5961623 1.6220366
0 0 0
6.0263443 3.4276061 1.2346905
5.9330664 3.66905 1.1740003
0 0 0
1.1516366 0.59960467 0.19538821
0 0 0
0 0 0
0 0 0
1.2340205 0.64222443 0.15729485
6.5264454 3.7075276 0.77580357
5.7817984 3.5681152 0.63745213
0 0 0
1.2490023 0.64977223 0.10739353
1.1662259 0.66202235 0.089329593
0 0 0
0 0 0
1.2119637 0.63001972 0.053930413
1.1416569 0.64733791 0.039272465
1.1346617 0.69905728 0.027404523
1.0039693 0.66986656 0.013166066
1.1810468 0.61373872 0.0037865394
1.1354182 0.64325064 -0.0089055607
1.1205598 0.68974882 -0.021176076
1.1220556 0.74806172 -0.034583073
1.1700507 0.60724664 -0.044652
1.1180981 0.63289702 -0.055623636
1.1102048 0.6824401 -0.068889797
1.0714257 0.71392924 -0.080325656
1.1788455 0.61081892 -0.093726456
1.1540825 0.65246826 -0.10620181
1.0946952 0.67266953 -0.11514458
0.98232442 0.65413707 -0.1172165
1.1760484 0.60895306 -0.14251459
1.2228477 0.69064116 -0.16448221
1.085485 0.66661859 -0.16123913
1.0409234 0.69279146 -0.17077114
1.2229856 0.63198531 -0.19945408
2.1227224 1.1973102 -0.37636986
2.1278493 1.305631 -0.41046995
1.1334949 0.75414592 -0.23743971
1.2938876 0.66736591 -0.26622823
2.045505 1.1524857 -0.45229113
2.1460965 1.3150234 -0.50951707
2.0044365 1.3326997 -0.51251096
1.3603045 0.69997025 -0.33926767
1.5154387 0.85292816 -0.40272143
2.1326311 1.3064651 -0.60445327
1.9575019 1.3024795 -0.59359843
1.4458996 0.74229211 -0.4251788
1.55979 0.87634951 -0.48619244
2.1364427 1.3080311 -0.70730281
1.9946471 1.3272957 -0.70333421
5.4661117 2.7980387 1.8970865
5.5734282 3.1277099 1.8982158
5.6441631 3.4554117 1.8955241
5.1497774 3.4232371 1.7068886
6.3759127 3.2688124 1.9130251
6.5077572 3.6497991 1.910201
5.8149762 3.553988 1.6755742
0 0 0
0 0 0
7.0225849 3.9398232 1.744197
5.8882074 3.5956409 1.4256264
6.8939867 4.5637875 1.6255093
0 0 0
5.9648228 3.3443427 1.2178586
5.9285274 3.6161439 1.1686895
0 0 0
1.202808 0.61689603 0.20342398
0 0 0
5.9062886 3.5983377 0.90462655
0 0 0
1.2379378 0.63464051 0.15729485
6.6193705 3.7067788 0.78413111
5.9158444 3.6009037 0.64978266
5.1208897 3.3770373 0.51811862
1.2556279 0.64346045 0.10762171
1.1929052 0.66752237 0.091057695
5.8477106 3.5574734 0.39167243
5.1477928 3.3923302 0.29310825
1.2264793 0.62803656 0.054403834
1.1508424 0.64324671 0.039451927
1.1440562 0.69519711 0.027527874
5.1363487 3.3817039 0.067084767
1.1687678 0.59827852 0.0037353314
1.1367246 0.63480902 -0.0088850884
1.1230615 0.68182236 -0.021143891
1.1216136 0.73786634 -0.034429252
1.1666358 0.59641647 -0.044381179
1.12894 0.62991899 -0.055969659
1.1143713 0.67561519 -0.068889797
1.0724503 0.70514828 -0.080076575
1.1816827 0.60312068 -0.093656033
1.1484863 0.64003694 -0.10532344
1.1064681 0.67058599 -0.11594791
0.99962574 0.65684056 -0.11879782
1.1833056 0.60353255 -0.14294256
1.2218556 0.68022627 -0.16378427
1.1625314 0.70414764 -0.17203866
1.0633744 0.69835699 -0.17374812
1.1977348 0.60965443 -0.19472225
1.3284609 0.73860353 -0.23473515
2.1307554 1.2894849 -0.40949649
1.3826855 0.90774947 -0.2884669
1.2909423 0.65584987 -0.26478919
1.6507865 0.91679341 -0.36376238
2.1415427 1.2942263 -0.50654095
2.0379276 1.3370076 -0.51896679
1.2922958 0.65497756 -0.32129756
1.5087169 0.83699697 -0.39956281
2.1364474 1.2908417 -0.60327864
1.9849088 1.3032154 -0.59947318
1.4763274 0.74650282 -0.43277127
1.574424 0.87190491 -0.48907709
2.1403091 1.2924101 -0.70594418
2.007566 1.3181915 -0.70502418
5.4789114 2.7622957 1.8956106
5.594192 3.0943811 1.8987852
5.6529145 3.4132612 1.8913939
5.2923961 3.4714072 1.7470664
6.406199 3.2348549 1.9161208
6.535965 3.6130805 1.9119372
5.8907323 3.5508268 1.6910932
0 0 0
0 0 0
7.0320868 3.8886189 1.7405981
5.9202256 3.5655067 1.4280546
6.855319 4.4779358 1.609883
0 0 0
0 0 0
5.9277887 3.565974 1.1642085
0 0 0
1.1845045 0.59835738 0.19970371
1.2761819 0.70442671 0.20476106
5.934206 3.5656042 0.90553439
5.2695661 3.4325416 0.76260364
1.2329385 0.62255394 0.15617132
6.8283525 3.7689576 0.80613244
5.923316 3.5558255 0.64819461
5.1749225 3.367291 0.52148521
1.2666736 0.63933831 0.10823017
1.2153263 0.6703099 0.092453465
5.8831258 3.5297437 0.39258647
5.1676736 3.3601356 0.29306078
1.231202 0.62094915 0.054443285
1.1608962 0.63954937 0.039661303
1.1525881 0.69073391 0.027630666
1.8799998 1.2212973 0.024455942
1.2054551 0.60775274 0.003840592
1.131838 0.62300026 -0.0088168466
1.1246505 0.67337769 -0.021095619
1.1059957 0.71790755 -0.033813987
1.1595614 0.5838533 -0.04397494
1.1406627 0.62731308 -0.056358941
1.1133534 0.66569 -0.068573058
1.0842925 0.70344341 -0.080636993
1.1933825 0.59989083 -0.094289802
1.1646235 0.63969648 -0.10644136
1.1165465 0.6673612 -0.11657273
1.0620854 0.68858868 -0.12571616
1.1985365 0.60206246 -0.14433347
1.1990134 0.65790504 -0.16017823
1.1651266 0.69598365 -0.17178749
1.0909213 0.70690554 -0.17753702
1.2041073 0.60362434 -0.19515242
1.2853 0.70431733 -0.22634083
2.1225283 1.2667781 -0.40641391
2.0901988 1.3539606 -0.43433252
1.2852653 0.64307463 -0.26281047
1.5211484 0.83262545 -0.33406362
2.1469176 1.2795564 -0.50594574
2.0690827 1.3393599 -0.52479792
1.309393 0.65357596 -0.32454517
1.4915999 0.81557214 -0.39369687
2.1485028 1.2801962 -0.60445327
2.0465751 1.3258041 -0.61562884
1.4826123 0.73829269 -0.43327746
1.5763561 0.86037868 -0.48802811
2.1357961 1.2718673 -0.7018683
2.0204482 1.3089788 -0.70671421
5.508594 2.7349992 1.9000381
5.5878239 3.0462325 1.8902438
5.6712732 3.3770356 1.8905678
5.3572965 3.46715 1.7614346
6.4129505 3.1890335 1.9122514
6.555459 3.5715182 1.9111931
6.466671 3.8440948 1.8496257
0 0 0
0 0 0
7.0068994 3.8187389 1.7285311
5.9428344 3.529614 1.4282571
6.7688489 4.3624344 1.5832607
1.1164798 0.5555436 0.23495802
0 0 0
6.8103991 4.0402231 1.3326579
0 0 0
1.2138292 0.60385108 0.20401922
1.1969706 0.65115356 0.19140707
6.0916071 3.6094937 0.92615598
0 0 0
1.2233891 0.60834062 0.15448602
6.9116411 3.7597857 0.81322634
6.08039 3.5995502 0.66295391
5.3682222 3.4463704 0.53882319
1.2687869 0.63066643 0.10807806
1.21065 0.65807498 0.091788806
1.1487992 0.67970246 0.076380685
0 0 0
1.2475177 0.61960566 0.054995608
1.1683122 0.63432193 0.039780941
1.1413118 0.67449278 0.027260613
1.8579929 1.1908535 0.024074158
1.2136399 0.60256827 0.0038548163
1.1409131 0.61890465 -0.0088577922
1.1279 0.6659559 -0.021079527
1.1171145 0.71542078 -0.034019075
1.1783439 0.58427507 -0.044550445
1.1400986 0.61792201 -0.056142677
1.1182772 0.65935332 -0.068625852
1.1129661 0.71238059 -0.082442768
1.1907829 0.5894593 -0.093796864
1.1658968 0.63111484 -0.10620181
1.11633 0.65796894 -0.11612643
1.0553929 0.67508811 -0.12443133
1.1950787 0.59117031 -0.14347753
1.2135115 0.65620482 -0.16157411
1.1642463 0.68580037 -0.17103405
1.0835513 0.69272685 -0.17564258
1.2122256 0.59841514 -0.19586936
1.2478572 0.67387676 -0.21901491
2.1302612 1.2537307 -0.40641391
2.1134086 1.3506589 -0.43742508
1.2547733 0.61822087 -0.25579497
1.3153569 0.70952797 -0.28790763
2.1395185 1.2574199 -0.50237435
2.1127074 1.3492761 -0.5337528
1.2932267 0.63562465 -0.31956547
1.4742775 0.79438931 -0.38783088
2.1437466 1.2596028 -0.60092944
2.0971539 1.3403738 -0.62835759
1.5661607 0.7679407 -0.45630795
1.5807557 0.85023308 -0.48776588
2.149369 1.2621495 -0.7037704
2.1052463 1.3456494 -0.733473
5.5072465 2.6923354 1.8938396
5.6570778 3.0391088 1.9073268
5.7084675 3.3519092 1.8960748
5.4540281 3.4824581 1.7861797
6.4193816 3.1432512 1.9083819
6.6011486 3.5440581 1.9181374
6.5035405 3.812201 1.8534458
5.5639935 3.5433836 1.5537517
0 0 0
7.037087 3.7793729 1.7302248
5.9838157 3.5044658 1.4329113
6.6439624 4.2244735 1.5479569
0 0 0
0 0 0
6.8844299 4.0272388 1.3422835
0 0 0
1.1811016 0.5785566 0.19791798
1.1642867 0.6241461 0.18556471
6.1624393 3.6005609 0.93354869
5.6106019 3.5573947 0.80557907
1.2511946 0.61262053 0.15751956
1.2185925 0.65323073 0.14290577
0 0 0
5.5433187 3.5109372 0.55422533
1.2529297 0.61322612 0.10640478
1.222581 0.65487444 0.092386998
1.1658833 0.68018728 0.077237621
0 0 0
1.253989 0.61325634 0.055113964
1.173945 0.62808442 0.039840762
1.1428374 0.66596699 0.027198937
1.4638146 0.92558855 0.018892815
1.2227046 0.59774536 0.0038718858
1.1429254 0.61094964 -0.0088441428
1.1276445 0.65650737 -0.02099907
1.1206381 0.7080189 -0.033993442
1.2079517 0.58974963 -0.045532174
1.1544436 0.61656272 -0.056661714
1.1171219 0.64946783 -0.068309113
1.0911554 0.68901873 -0.080512457
1.1881006 0.57908237 -0.093303941
1.1750244 0.626764 -0.10668091
1.1444583 0.66511995 -0.1186257
1.0704554 0.67550337 -0.12571616
1.1977897 0.58339095 -0.14337052
1.2105027 0.64500999 -0.16064352
1.2113264 0.70355725 -0.17731282
1.0844291 0.68395102 -0.1751013
1.211424 0.58880264 -0.19515242
1.2781421 0.68013507 -0.22359361
2.1285257 1.2351882 -0.40462926
2.1291564 1.3423945 -0.43897134
1.240842 0.60192347 -0.2521973
1.2902051 0.68577415 -0.28147602
2.1454978 1.2432857 -0.50197756
2.1416345 1.3493216 -0.53895909
1.2654659 0.6123684 -0.31177121
1.4937518 0.79309481 -0.39166632
2.1379778 1.238629 -0.59717065
2.1299434 1.3429947 -0.63570106
1.6117915 0.77808404 -0.46820286
1.5731529 0.83373934 -0.48383227
2.1520758 1.2460442 -0.70214003
2.1191447 1.336289 -0.73544472
5.5503511 2.6713378 1.90299
5.6586742 2.9953709 1.9016324
5.7339191 3.3197098 1.8977269
5.59519 3.524451 1.8252931
6.4428988 3.105901 1.9096717
6.6065001 3.4948804 1.9134252
6.5839806 3.8052669 1.869681
5.6243682 3.5335138 1.5645273
0 0 0
0 0 0
6.0043578 3.4671941 1.432709
6.7736611 4.2488008 1.5720714
0 0 0
0 0 0
6.9295125 3.9967456 1.3462666
0 0 0
0 0 0
1.1891097 0.62809068 0.1889032
0 0 0
0 0 0
1.2352378 0.59543931 0.15504779
1.2155414 0.64202482 0.14208329
0 0 0
5.5765882 3.4842501 0.55540365
1.2656515 0.60985506 0.10716536
1.2354006 0.65201777 0.093051657
1.1760927 0.67650527 0.077637516
0 0 0
1.2622298 0.60771775 0.055311222
1.1954612 0.6301918 0.040438976
1.1521037 0.66193056 0.027322289
1.1453692 0.71443164 0.014725924
1.2380632 0.59586954 0.0039088693
1.1537306 0.6076532 -0.0088987369
1.1325188 0.65007371 -0.021015164
1.1156291 0.69531316 -0.033711445
1.21425 0.58362556 -0.045633737
1.1555526 0.60807186 -0.056531951
1.1262842 0.64558065 -0.068625852
1.1089169 0.69075364 -0.081508741
1.2015243 0.57652831 -0.094078548
1.1717891 0.61583251 -0.1060421
1.1459252 0.65659964 -0.11835792
1.078804 0.67155188 -0.12621033
1.1914849 0.57130188 -0.14219362
1.199488 0.62972194 -0.15866601
1.2147596 0.69561839 -0.17718725
1.1012244 0.68513525 -0.17713107
1.2078722 0.57794118 -0.19400531
1.2481552 0.65438288 -0.21764131
2.1386342 1.2235746 -0.40511599
2.1273148 1.3230617 -0.43690968
1.249838 0.59684187 -0.25327662
1.2917789 0.67647803 -0.28090852
2.1394696 1.2223184 -0.49880296
2.1440585 1.3325415 -0.53750134
1.2868272 0.61298925 -0.31610134
1.4493852 0.75817531 -0.37880632
1.8104559 1.0340954 -0.50390685
2.1472001 1.3355333 -0.63839364
1.5492525 0.73620671 -0.44871548
1.4884206 0.77717263 -0.45629713
2.1454725 1.2247052 -0.69752067
2.1273041 1.323261 -0.73544472
5.5718179 2.6396854 1.904761
5.6514478 2.9472954 1.8930908
5.7516756 3.283035 1.8969009
5.6658363 3.5205786 1.8412578
6.4688177 3.0696232 1.9117354
6.5968928 3.4381597 1.9044968
6.7025461 3.8191221 1.8966602
5.7510185 3.5640545 1.5936443
0 0 0
0 0 0
6.0246682 3.4298024 1.4325066
5.9117923 3.6578376 1.366809
1.2587867 0.59770405 0.26254568
0 0 0
6.9093294 3.9288046 1.3376367
0 0 0
0 0 0
1.1929412 0.62078261 0.1889032
6.5441442 3.7166188 0.98438931
0 0 0
1.2361749 0.58657092 0.15471072
1.2282817 0.63914585 0.14311139
6.5171065 3.6978042 0.7030282
0 0 0
1.2765769 0.60549611 0.10777383
1.2446896 0.64718699 0.093450442
1.1897745 0.67469347 0.078265935
1.1354485 0.69925839 0.063399144
1.2686437 0.60124522 0.055429578
1.1975312 0.62192333 0.040379152
1.1439643 0.64795053 0.027034469
1.1301433 0.69533849 0.014475037
1.2597703 0.59682441 0.0039657666
1.1574374 0.60056257 -0.0088987369
1.1417074 0.64606702 -0.021111708
1.1139132 0.68478996 -0.033531994
1.2169048 0.57573664 -0.045599885
1.1699054 0.60648775 -0.057050988
1.131963 0.63964033 -0.068731427
1.1148353 0.68498152 -0.081633285
1.1978233 0.56573701 -0.093515202
1.1746604 0.60817266 -0.10596225
1.160339 0.65543431 -0.11942903
1.0930804 0.67116809 -0.12739633
1.1904722 0.56185848 -0.14165865
1.1927429 0.61687493 -0.15727013
1.2224607 0.69010252 -0.17768955
1.1011853 0.67577422 -0.17645448
1.2239304 0.57642233 -0.19601275
1.2468785 0.64399093 -0.21672556
2.1125822 1.1915238 -0.39878857
2.128675 1.3058627 -0.43553519
1.2427936 0.58414042 -0.251118
1.2749616 0.65773445 -0.27636862
2.1264334 1.1976244 -0.49404109
2.1455238 1.3152713 -0.53583533
1.296752 0.60798299 -0.31761694
1.4695978 0.75730038 -0.38286737
1.5177838 0.85461867 -0.42097947
2.1520488 1.320305 -0.63741452
1.4354355 0.67135537 -0.41454935
1.5669612 0.80598509 -0.47884974
2.0380445 1.1468594 -0.66029423
2.1402905 1.313194 -0.73713475
5.5844464 2.6038327 1.9035803
5.6668677 2.9112492 1.8922367
5.7599826 3.2410815 1.893046
5.8443084 3.5819581 1.8920788
6.4682727 3.0208793 1.9060603
6.5937343 3.3852284 1.8975524
6.569222 3.6899438 1.8524908
5.804338 3.5479908 1.6023566
0 0 0
0 0 0
5.9601979 3.3448439 1.4122707
5.8227291 3.5535116 1.3411511
0 0 0
0 0 0
6.9470692 3.8940504 1.340292
5.9524827 3.6295619 1.1062179
1.189759 0.5558812 0.19762036
1.1702905 0.59989923 0.18473008
1.1844512 0.66310734 0.17755322
5.9253054 3.6057591 0.84109098
1.2226446 0.57098603 0.152576
1.2383766 0.63477337 0.14383104
6.6170092 3.7010016 0.71134198
5.8879933 3.5791116 0.58199972
1.2640049 0.59005988 0.10640478
1.2441968 0.63726324 0.093118116
1.1982493 0.66981614 0.078551576
1.1644757 0.70731658 0.064776354
1.2723091 0.59344965 0.055429578
1.2137829 0.62093699 0.0407979
1.1531563 0.64384347 0.027157821
1.1472113 0.6961723 0.014638659
1.2588769 0.58697045 0.0039515425
1.1611006 0.59344941 -0.0088987369
1.1404109 0.636127 -0.021015164
1.1215132 0.68001539 -0.033634536
1.2457832 0.58007139 -0.046547767
1.1736047 0.59929794 -0.057050988
1.1358665 0.63268268 -0.068731427
1.1215779 0.67967981 -0.081820078
1.2130315 0.56384265 -0.094430633
1.186362 0.60502946 -0.10668091
1.16869 0.65072495 -0.11987533
1.1022851 0.66754133 -0.12798934
1.1947991 0.5549621 -0.14176564
1.2000455 0.61134815 -0.15773542
1.5482942 0.86155719 -0.22427812
1.1290448 0.68336987 -0.18024337
1.2166692 0.5639075 -0.19429208
1.21293 0.61705899 -0.21016274
1.787818 0.99394262 -0.33632576
2.1349618 1.2917569 -0.4351916
1.2508184 0.57856864 -0.25201741
1.2640914 0.64233696 -0.27315283
1.5347518 0.85202289 -0.35535246
2.1418357 1.294997 -0.5329197
1.2658855 0.58406347 -0.30917311
1.4194876 0.72048986 -0.36865368
1.5111006 0.83868587 -0.41769058
2.1501551 1.301052 -0.63447708
1.4131628 0.6504007 -0.40695682
1.592537 0.80682212 -0.48514348
1.5653417 0.8682546 -0.50541043
2.1433823 1.2970561 -0.73544472
5.5985813 2.5687215 1.90299
5.696599 2.8824825 1.8962228
5.7789202 3.2052116 1.8927706
5.8645267 3.5450332 1.8915465
0 0 0
6.6480975 3.3617556 1.9072249
6.7574039 3.7412877 1.8990479
5.8993549 3.5565333 1.6225321
0 0 0
0 0 0
6.9900889 3.8666093 1.6506507
5.8931832 3.5470653 1.3523402
0 0 0
0 0 0
1.1971947 0.66144425 0.23018636
5.9128551 3.5558136 1.0947781
0 0 0
1.3092011 0.66099346 0.20601298
1.2084651 0.6668455 0.18053623
5.9336991 3.5611603 0.83916491
1.2243192 0.56264347 0.15235129
1.2413603 0.62671459 0.14372826
1.2041075 0.66381043 0.12900372
5.9098434 3.5429163 0.58199972
1.2621652 0.57979566 0.10594843
1.2614464 0.63635802 0.094115093
1.2110809 0.66726899 0.079122856
1.1799333 0.70683122 0.065393724
1.2786509 0.58688223 0.05554793
1.2282819 0.61887485 0.041156825
1.1562091 0.63627368 0.027137261
1.1488874 0.68757957 0.014605936
1.2833594 0.58882648 0.0040169749
1.196875 0.60250044 -0.0091444077
1.1486735 0.63152617 -0.021095619
1.1256646 0.67312109 -0.033634536
1.2647651 0.57949364 -0.047123265
1.1799376 0.59343225 -0.057180751
1.1519824 0.63242918 -0.06947048
1.1231571 0.67124915 -0.081633285
1.2155612 0.55597413 -0.09436021
1.190052 0.59773868 -0.10668091
1.1709144 0.64258337 -0.11969681
1.1319903 0.67607254 -0.13095434
1.2008946 0.54886043 -0.14208663
1.1904579 0.59729224 -0.15599056
2.0867693 1.1444826 -0.301256
1.1936208 0.71248525 -0.18985096
1.2174051 0.55519968 -0.19386193
1.2175769 0.6100477 -0.21031535
1.285919 0.70461637 -0.24109024
2.13608 1.2745943 -0.43381709
1.2597169 0.57332778 -0.25309673
1.2662526 0.63368958 -0.27277449
1.4952397 0.81812596 -0.34503514
2.1371405 1.2743169 -0.52979594
1.2623336 0.5730567 -0.30744106
1.3428408 0.67125595 -0.34767157
1.5111016 0.82659924 -0.41628104
2.1439435 1.279388 -0.63031578
1.4091954 0.63812578 -0.40467912
1.6190449 0.80780607 -0.49169949
1.5841506 0.86601955 -0.509758
2.1397655 1.2769961 -0.73150134
5.5959496 2.5260656 1.8967912
5.7442074 2.8624387 1.9061879
5.793417 3.1669259 1.8911185
5.8985887 3.5163865 1.8955377
0 0 0
6.6928806 3.3329918 1.9141693
6.8058057 3.7137089 1.9062103
6.7886868 4.0360975 1.8602834
0 0 0
0 0 0
7.0171213 3.8255212 1.6514601
5.9460564 3.5293694 1.3594782
0 0 0
0 0 0
1.2237483 0.66634709 0.23450132
0 0 0
1.2730736 0.57588172 0.21026926
1.1855445 0.58946073 0.185982
1.1959836 0.65041721 0.17807201
6.1374078 3.6323824 0.86480576
1.2177888 0.55061734 0.1511154
1.2487451 0.6208573 0.14413948
1.2291541 0.66781729 0.13124563
0 0 0
1.277511 0.57737875 0.10693718
1.2644336 0.62816209 0.094048634
1.2116429 0.65791976 0.07889434
1.179088 0.69652969 0.065108784
1.2840492 0.57984799 0.055626836
1.2302653 0.61043805 0.041097004
1.1609703 0.62964398 0.027157821
1.14964 0.67848426 0.014562302
1.2833025 0.57929516 0.0040055956
1.2104046 0.60003072 -0.0092194732
1.1498896 0.62303716 -0.021047344
1.1314958 0.66721702 -0.033685807
1.2774084 0.57582945 -0.047461793
1.1728133 0.58086026 -0.056661714
1.1567194 0.62582403 -0.069523267
1.1272546 0.66434497 -0.081633285
1.2380527 0.55710107 -0.095838994
1.1919104 0.58954155 -0.10652121
1.1818439 0.6391772 -0.12041088
1.1309725 0.66608405 -0.13036133
1.1987989 0.53903508 -0.14144465
1.1905386 0.5882166 -0.15552525
1.5430406 0.83400136 -0.22201777
1.2201705 0.71821553 -0.19336921
1.2126622 0.54407328 -0.19257142
1.2115481 0.59775531 -0.20863651
1.3188704 0.71218491 -0.2464442
2.1387661 1.258466 -0.43278623
1.2551308 0.5619697 -0.25147778
1.2560242 0.61896324 -0.26974788
1.4726253 0.79405046 -0.33868602
2.1398606 1.2582052 -0.52854645
1.2667176 0.56569844 -0.30765757
1.3408157 0.65999204 -0.34609225
1.485343 0.80070722 -0.40782386
2.1358764 1.2568661 -0.62566495
1.3892236 0.61883813 -0.39784586
1.6326323 0.8021118 -0.49432188
1.5851983 0.85400093 -0.50839937
2.1483877 1.2643293 -0.73178297
5.6314282 2.5006003 1.9035803
5.7659659 2.8292503 1.9076115
5.8262815 3.1386132 1.8955241
5.9408283 3.4923398 1.9021896
0 0 0
6.7105956 3.2905827 1.9134252
6.8643856 3.6911952 1.916238
6.7713385 3.9697526 1.84882
0 0 0
0 0 0
0 0 0
5.9921579 3.5071924 1.3650727
0 0 0
0 0 0
0 0 0
0 0 0
1.260321 0.56082302 0.20759067
1.1704615 0.57303119 0.18306084
1.1990781 0.64259821 0.17794232
6.2547517 3.6501966 0.87816787
1.2501978 0.55605698 0.15471072
1.2480642 0.6109966 0.14362544
1.2235734 0.65509343 0.13021809
0 0 0
1.2700963 0.56466836 0.1060245
1.2655753 0.61907649 0.093849242
1.2271005 0.65659606 0.079637013
1.1686666 0.68073493 0.064301454
1.2811906 0.5691188 0.055350672
1.2474592 0.6094594 0.041545659
1.1798019 0.63051963 0.027507314
1.1494602 0.66890275 0.014507762
1.316079 0.5843966 0.0040966314
1.2266445 0.59873337 -0.009315012
1.1501626 0.61408609 -0.020982979
1.1424822 0.66428161 -0.033890896
1.2836584 0.56919599 -0.047563352
1.1943148 0.58241117 -0.057526778
1.1623 0.6196543 -0.069628842
1.1313097 0.65741575 -0.081633285
1.2496572 0.55312777 -0.096472763
1.1919205 0.58047122 -0.10620181
1.1857436 0.63191354 -0.12041088
1.1548305 0.67062563 -0.13263451
1.202993 0.53207141 -0.14155166
1.1860873 0.57699025 -0.15447834
1.211008 0.6449706 -0.17367113
1.2459778 0.723149 -0.19675218
1.2241266 0.54021841 -0.19386193
1.2080814 0.58685547 -0.20741552
1.2944689 0.68878311 -0.24109024
2.1421874 1.2428473 -0.4319272
1.2549542 0.55267191 -0.25075823
1.2571481 0.60995883 -0.26918039
1.3138834 0.69808406 -0.30118653
2.1323097 1.2362214 -0.52479792
1.2683769 0.5571301 -0.30722454
1.3010057 0.63050902 -0.33481154
1.497954 0.79568207 -0.40993819
2.1469028 1.2456833 -0.62664407
1.3947668 0.61107892 -0.39835206
1.6401293 0.79333967 -0.4951086
1.5955088 0.84696567 -0.51002973
2.1494658 1.2472707 -0.72952962
5.648417 2.4667642 1.9041706
5.7737226 2.7892308 1.9044795
5.8505249 3.1055093 1.8971763
5.9596434 3.4543717 1.9013914
0 0 0
6.7175741 3.2430279 1.909705
6.8791823 3.6449149 1.9140892
6.8039966 3.933001 1.8511127
0 0 0
1.2488306 0.60311007 0.30040243
0 0 0
6.0195141 3.4737923 1.3664231
0 0 0
0 0 0
0 0 0
6.9116321 3.9850864 1.2659056
1.334399 0.5840041 0.21919788
1.1748476 0.5662685 0.18319993
1.2380712 0.65374851 0.18313013
6.2331476 3.5864992 0.87202853
1.2381097 0.54160535 0.15280071
1.2455173 0.60030407 0.14290577
1.2416598 0.65500611 0.1317127
0 0 0
1.2762779 0.55806303 0.10625267
1.2756429 0.61432993 0.094314493
1.2266905 0.64672631 0.079351366
1.1849481 0.68051565 0.064966314
1.2837429 0.56084681 0.055311222
1.2610838 0.60655951 0.041874677
1.1960335 0.62979013 0.027795136
1.1518083 0.660842 0.014485946
1.3269714 0.579512 0.0041193906
1.2492228 0.60029083 -0.0094583202
1.1530241 0.60655183 -0.020966889
1.1465366 0.65725899 -0.033890896
1.2917073 0.56330639 -0.047732618
1.2041706 0.57809865 -0.057829548
1.1687325 0.61390406 -0.069787212
1.1422502 0.65443099 -0.082131423
1.2557713 0.54664397 -0.096684009
1.1954597 0.57314682 -0.10620181
1.1798984 0.6195327 -0.11942903
1.1641052 0.66649371 -0.13322751
1.2290287 0.53459454 -0.14422648
1.1940842 0.57184666 -0.15505996
1.2017654 0.63061321 -0.17178749
2.081979 1.1913353 -0.3276045
1.2246947 0.53151512 -0.19343175
1.20631 0.5768736 -0.20649977
1.2707049 0.66616625 -0.23589854
2.1437871 1.2262558 -0.43072456
1.2682512 0.54926157 -0.25273696
1.2378294 0.59123003 -0.26426211
1.2946968 0.67773616 -0.29582945
2.1296651 1.2172902 -0.52229887
1.254743 0.54198158 -0.3031109
1.2995743 0.61999738 -0.33345786
1.4442458 0.75582802 -0.39396349
1.5704325 0.89836723 -0.45676479
1.3878281 0.59791577 -0.39531502
1.6597779 0.79031372 -0.49956667
1.5972645 0.83537585 -0.50894284
2.1404214 1.224529 -0.72389621
5.6564231 2.4290438 1.9018092
5.7751455 2.7463412 1.8993547
5.8856554 3.0780172 1.902408
5.9723573 3.4129562 1.8987305
0 0 0
6.7189717 3.1930165 1.9044968
6.9022789 3.603086 1.9143281
6.9565439 3.9644334 1.8859615
0 0 0
1.2066089 0.57361603 0.28939402
0 0 0
6.0245113 3.4275727 1.3627577
1.3349941 0.57466829 0.27383998
0 0 0
0 0 0
6.9059019 3.9255202 1.2604208
1.2789164 0.5503965 0.20952521
1.2221396 0.579849 0.19001603
1.1919194 0.62005597 0.17573749
6.4545002 3.6613321 0.89983612
1.2368456 0.53203505 0.15223894
1.2383928 0.58753395 0.14167204
1.252723 0.65104812 0.13246001
1.1859978 0.67199451 0.11513747
1.278762 0.54982752 0.10617661
1.2811916 0.60734606 0.094447434
1.2439255 0.64608997 0.080208294
1.1977936 0.6781534 0.065441214
1.2917504 0.5549314 0.055508479
1.2593613 0.59624386 0.041695215
1.2167374 0.63118684 0.028185746
1.1480081 0.64933157 0.014387772
1.3360153 0.57372648 0.0041364599
1.2574023 0.59475231 -0.0094924411
1.1691524 0.60590649 -0.021192165
1.1531588 0.65168709 -0.033967804
1.2969764 0.55615777 -0.047800321
1.2221476 0.57752877 -0.058521602
1.1733643 0.60718024 -0.069839999
1.1514584 0.65035498 -0.082505032
1.2701064 0.54363871 -0.097529031
1.1935452 0.56324834 -0.1057227
1.1792542 0.60999328 -0.11898273
1.1820383 0.66716433 -0.13480885
1.2121743 0.51844174 -0.14187263
1.189485 0.56069773 -0.15401305
1.202087 0.62140518 -0.1712852
2.1246314 1.1984969 -0.33315256
1.2206509 0.52088308 -0.19228464
1.2178746 0.57324892 -0.20787339
1.2826589 0.6624319 -0.23735869
2.07919 1.172433 -0.41629261
1.2489712 0.53183466 -0.24823986
1.2503203 0.5878014 -0.26615375
1.3118976 0.67651749 -0.29880559
1.8507849 1.0428717 -0.45232579
1.2688282 0.53885186 -0.30570897
1.2954175 0.60828495 -0.33142734
1.4454005 0.74517047 -0.39302382
1.5463563 0.87204498 -0.44819739
1.3629644 0.57731444 -0.38721642
1.664596 0.78011465 -0.49956667
1.6049267 0.82688177 -0.509758
2.1286724 1.2005315 -0.71741778
5.6817837 2.3987501 1.9053514
5.7806015 2.7055712 1.8956534
5.9001579 3.0396442 1.9010311
5.9747095 3.3658376 1.8928769
0 0 0
0 0 0
6.9095759 3.553117 1.9102693
6.9807386 3.9216743 1.8859615
0 0 0
0 0 0
0 0 0
5.9966483 3.363184 1.3517616
1.302295 0.55114579 0.26643386
1.2004099 0.56128192 0.23599736
1.2555255 0.64421749 0.2374886
0 0 0
1.2731625 0.53868562 0.20803711
1.2597709 0.58826077 0.19530198
1.2098206 0.61996603 0.17781261
1.2295173 0.6875096 0.17081839
1.2565603 0.53140253 0.15426131
1.2284553 0.57361162 0.14012989
1.2460592 0.63790488 0.13133904
1.2344666 0.68948537 0.11942987
1.2775196 0.5400297 0.10579632
1.2740433 0.5944109 0.093649842
1.2523103 0.64071888 0.080493934
1.1940821 0.66641009 0.065013804
1.2914492 0.54543984 0.055350672
1.2684323 0.59103841 0.041874677
1.2170262 0.62188953 0.028103514
1.1589576 0.64617079 0.014475037
1.3321404 0.56240654 0.0041137007
1.2664675 0.58955801 -0.0095333857
1.1710671 0.59781206 -0.021159982
1.1553892 0.64362621 -0.033916533
1.3040482 0.54974216 -0.047935732
1.2374449 0.57549584 -0.059083894
1.1779575 0.60042268 -0.069892794
1.1519392 0.64133561 -0.08225596
1.2954847 0.54512042 -0.099219061
1.1996909 0.55717385 -0.10596225
1.1811999 0.60184169 -0.11880422
1.2078493 0.67199379 -0.13727969
1.2336634 0.51870149 -0.1440125
1.2037146 0.55840427 -0.15540893
1.1988046 0.61041635 -0.17028059
2.1284816 1.183512 -0.33261129
1.2274745 0.51491481 -0.19285819
1.2222657 0.56618077 -0.20802601
1.2383273 0.62994212 -0.22843544
1.6859525 0.93710321 -0.33640152
1.2803403 0.5359357 -0.25381625
1.2610329 0.583417 -0.26766706
1.3081594 0.66446036 -0.2970199
1.5057271 0.83630943 -0.36673376
1.2919309 0.53933054 -0.31047216
1.2973568 0.59950769 -0.3309761
1.4473455 0.73496729 -0.39231905
1.5372714 0.85453206 -0.4440361
1.3530842 0.56336272 -0.38342017
1.6719803 0.77109861 -0.5003534
1.613403 0.81876057 -0.51084495
1.7485499 0.97205657 -0.5872854
5.7061019 2.3678703 1.9085982
5.7709727 2.6580203 1.8871118
5.9101253 2.9990342 1.8982778
6.0314875 3.3492367 1.9043183
0 0 0
0 0 0
6.9295149 3.5097764 1.9097917
7.003818 3.8782957 1.8857322
0 0 0
0 0 0
0 0 0
6.9884033 3.8632283 1.5699494
1.3328724 0.55446815 0.27198845
1.2199301 0.56131315 0.23915336
0 0 0
1.2838528 0.70907754 0.23271476
1.317531 0.54795134 0.21473357
1.2687556 0.58300078 0.19613661
1.2012092 0.60627621 0.17599688
1.2710978 0.70055705 0.17599469
1.2643851 0.52558953 0.15482306
1.2518367 0.5751999 0.14239173
1.256173 0.633385 0.13199294
1.2456572 0.6857422 0.12010319
1.2743636 0.52950269 0.10526392
1.2849209 0.58991283 0.094181567
1.262459 0.63616771 0.080893829
1.1963983 0.65810794 0.064918824
1.2966173 0.53827161 0.055429578
1.2892982 0.59115976 0.042442974
1.2297498 0.61890483 0.028309098
1.1585189 0.63663954 0.014420497
1.333719 0.55345553 0.0041080113
1.2782432 0.58552396 -0.0095948037
1.1845397 0.59555578 -0.021336988
1.1628217 0.63844925 -0.034019075
1.3046271 0.5405826 -0.047834177
1.2445866 0.56955516 -0.059256908
1.1834043 0.59407961 -0.069998369
1.1567276 0.63473547 -0.082318224
1.2997268 0.53754246 -0.099289484
1.2039938 0.55021656 -0.1060421
1.1875412 0.59592283 -0.119072
1.2032244 0.65978545 -0.13629135
1.2671461 0.52365339 -0.14754325
1.19989 0.54770845 -0.15447834
1.1972066 0.60038072 -0.16952713
1.8176938 0.99615067 -0.28308493
1.2342707 0.50888246 -0.19343175
1.2203212 0.55621117 -0.20711027
1.2121737 0.6073041 -0.22291924
1.3806384 0.75634921 -0.27455038
1.2581327 0.51759058 -0.24877951
1.2636952 0.57526165 -0.2674779
1.2675072 0.63405812 -0.286901
1.5099723 0.82658511 -0.3665255
1.2888935 0.5287993 -0.30895659
1.3027846 0.59234238 -0.33142734
1.4127069 0.70650792 -0.3817476
1.524629 0.83530021 -0.43889564
1.4039711 0.5744673 -0.39683354
1.6793164 0.7620213 -0.50114012
1.6227006 0.81099671 -0.51220357
1.5845031 0.86817539 -0.53038776
5.7187543 2.3320923 1.9080079
5.7932854 2.62533 1.8891048
5.9456143 2.9713089 1.9037848
6.0189462 3.2941165 1.8939413
0 0 0
0 0 0
6.9448371 3.4641573 1.9081205
6.9813452 3.8100684 1.8733518
0 0 0
0 0 0
0 0 0
0 0 0
0 0 0
1.2475672 0.56477988 0.24388732
1.2262574 0.61030751 0.23051827
1.2326621 0.67096716 0.22268532
1.2714388 0.51965427 0.20669781
1.3002818 0.58785117 0.20044883
1.2182255 0.60551435 0.17794232
1.2230316 0.66431457 0.16877194
1.2436696 0.50805134 0.15190189
1.2408402 0.56095189 0.14074676
1.2627109 0.62699366 0.13227317
1.2314485 0.66810721 0.11833572
1.2831273 0.52393502 0.10572027
1.2776045 0.57708877 0.093383983
1.2645502 0.62752187 0.080779575
1.2144639 0.65837127 0.065678664
1.2961949 0.52879578 0.055271767
1.2974569 0.58529276 0.042592525
1.2380033 0.61356747 0.028411891
1.1588864 0.62761432 0.014376866
1.3324599 0.54337353 0.0040937862
1.2963986 0.5842436 -0.009703991
1.209677 0.59892392 -0.021723175
1.1640797 0.62987512 -0.03394217
1.3199526 0.53746718 -0.048274264
1.2635448 0.56888038 -0.059992213
1.1923984 0.5894624 -0.0703151
1.1649901 0.62999976 -0.082629561
1.313166 0.53368866 -0.10006408
1.2155294 0.54649734 -0.10676076
1.1884966 0.58730125 -0.11880422
1.1941184 0.64529383 -0.13480885
1.2795473 0.51960933 -0.14861318
1.2050402 0.5411495 -0.15471099
1.1901935 0.58775222 -0.16802022
1.2937273 0.69871348 -0.2008117
1.2373699 0.5012995 -0.19343175
1.2101843 0.54264754 -0.2048209
1.2273811 0.60553038 -0.22502838
1.2985665 0.70106357 -0.25736952
1.2986765 0.52497625 -0.25615475
1.2636166 0.56589156 -0.26672125
1.272253 0.62670195 -0.28709939
1.5038253 0.81126761 -0.36381823
1.2984521 0.52343595 -0.31047216
1.3019481 0.58234859 -0.33029926
1.390855 0.68494344 -0.37469992
1.521194 0.82132316 -0.4364478
1.3410455 0.5391376 -0.37810543
1.69101 0.75484973 -0.50323802
1.6405983 0.80739892 -0.51627946
1.5813574 0.85387784 -0.52757108
5.7196527 2.2916286 1.9035803
5.8346763 2.6010528 1.8973618
5.9697719 2.9377427 1.9057122
6.0322576 3.2534618 1.8918126
0 0 0
0 0 0
6.9616041 3.4193387 1.9069266
6.9625869 3.7445691 1.8621176
0 0 0
0 0 0
0 0 0
0 0 0
1.4435323 0.57982624 0.29309577
1.2114373 0.53949177 0.23617271
1.2733693 0.62403595 0.23865031
1.1671284 0.6260432 0.21014848
1.2975444 0.52105552 0.21041806
1.2921014 0.5746305 0.19864048
1.203215 0.58887458 0.1752187
1.2270848 0.65679771 0.16877194
1.2522964 0.50263149 0.152576
1.2460766 0.55413604 0.14095238
1.2629565 0.61748481 0.13189952
1.2504636 0.66852528 0.11976653
1.2807654 0.51382446 0.10526392
1.2820332 0.5696438 0.093450442
1.2800379 0.62544876 0.081522249
1.222886 0.65326029 0.065916114
1.3003427 0.52120429 0.055311222
1.2864056 0.57083398 0.04211396
1.2507298 0.61034429 0.028617475
1.1785948 0.6289658 0.014573211
1.3246298 0.53072447 0.0040596481
1.3109292 0.58114111 -0.0097858803
1.2357982 0.60244375 -0.022125458
1.1652763 0.62130958 -0.033865262
1.3213696 0.52861553 -0.048206557
1.2724924 0.56354398 -0.060251728
1.1932992 0.58082384 -0.070156738
1.1758802 0.62659448 -0.083127707
1.3127103 0.52414161 -0.099782407
1.2316228 0.54467303 -0.10787868
1.1893909 0.57869041 -0.11853644
1.1936636 0.63561618 -0.13431469
