# .PCD v0.7 - Point Cloud Data file format
VERSION 0.7
FIELDS x y z
SIZE 4 4 4
TYPE F F F
COUNT 1 1 1
WIDTH 1530
HEIGHT 1
VIEWPOINT 0 0 0 1 0 0 0
POINTS 1530
DATA ascii
0.14986207 1.4062724 -0.21840441
0.16197269 2.3310061 -0.38418686
0.077927738 2.3856986 -0.41629261
0.18179481 1.2578554 -0.23241007
0.14694642 1.3727729 -0.26596457
0.15194911 2.1676047 -0.43987513
0.072278589 2.1916528 -0.46690351
0.18302996 1.2578714 -0.28189313
0.12912214 1.2011082 -0.27976164
0.096799739 1.3788106 -0.33405849
0.03285329 1.0068556 -0.25432935
0.29962 2.045603 -0.54083753
0.10532008 0.97282839 -0.26591107
0 0 -0
0 0 -0
0.33876377 2.2939825 0.71638846
0.24835287 2.2833662 0.68218464
0.16332848 2.3168559 0.66525078
0.07797721 2.3575003 0.65109217
0.33759078 2.2960207 0.61961794
0.24885529 2.2824268 0.58779234
0.16328834 2.2917659 0.56489152
0.080663785 2.3541577 0.55482942
0.33984855 2.3116565 0.53062636
0.24735186 2.2715812 0.49495479
0.16569977 2.3130815 0.4791885
0.082258001 2.351516 0.46261224
0.33566856 2.2868297 0.43547773
0.2515828 2.3048294 0.41290772
0.16711034 2.3163218 0.39083549
0.083566189 2.3629441 0.37516439
0.33869055 2.3060172 0.35074639
0.25217918 2.2995026 0.32494688
0.16788304 2.310178 0.30296883
0.085103258 2.3472524 0.2848177
0.33929422 2.3073263 0.26369357
0.25258672 2.3028476 0.23944426
0.16899596 2.3126497 0.21755947
0.086573869 2.3560152 0.19913396
0.33690992 2.2886145 0.17645398
0.25475109 2.3158672 0.15519686
0.17126867 2.3358984 0.13402326
0.088307507 2.3816714 0.11331113
0.34534633 2.3408186 0.093421519
0.25567645 2.313875 0.069661513
0.17181319 2.327173 0.047983613
0.08891359 2.3711925 0.025884902
0.34404194 2.3297243 0.006699699
0.25773528 2.324702 -0.015961768
0.1727615 2.3272943 -0.037556957
0.089607209 2.3665257 -0.060731873
0.34286737 2.3133888 -0.079215832
0.25636315 2.3046131 -0.10039072
0.17344105 2.3172739 -0.12284028
0.090192065 2.3666773 -0.14776184
0.34770992 2.3353813 -0.16667958
0.25887012 2.3161125 -0.1866916
0.17454495 2.3271112 -0.2091347
0.091274343 2.3765466 -0.23621199
0.20111728 1.3482121 -0.14668731
0.17155825 1.5288891 -0.18018596
0.17491083 2.3238323 -0.29497722
0.092452899 2.3919923 -0.32692793
0.20246346 1.3496486 -0.19773342
0.16003852 1.4190753 -0.22054113
0.1747092 2.3093057 -0.3807798
0.092106208 2.3733625 -0.41423088
0.20241721 1.3423132 -0.24823986
0.15790839 1.3942868 -0.27031535
0.15920901 2.087472 -0.42380396
0.086298503 2.205828 -0.47002733
0.19103767 1.2586551 -0.28232613
0.14023203 1.2332046 -0.28743255
0.075427599 0.98760647 -0.2393851
0.055258948 1.4251783 -0.36007556
0.28937799 1.8945351 -0.50135666
0 0 -0
0 0 -0
0 0 -0
0.35457754 2.3031926 0.71993059
0.26257765 2.283704 0.68275404
0.17710046 2.3100591 0.66359866
0.091987774 2.3454192 0.64789927
0.35108688 2.2900858 0.61858606
0.26363167 2.2875936 0.58952844
0.1781718 2.3013709 0.56751782
0.095185712 2.3555636 0.55528796
0.35668582 2.3268778 0.53461266
0.26240292 2.2797298 0.4970718
0.17905381 2.3012815 0.47696257
0.096604452 2.3490064 0.46222645
0.35519513 2.3206689 0.44232839
0.26786408 2.3218248 0.41623902
0.18131988 2.3152528 0.39083549
0.097612791 2.3515322 0.37344059
0.35388151 2.3107378 0.35178804
0.26582792 2.293977 0.32439044
0.18182106 2.3061388 0.30257976
0.099798515 2.3536286 0.28566036
0.35449949 2.3120763 0.26448005
0.2675136 2.3081713 0.24016394
0.18396948 2.3214948 0.21849363
0.10047337 2.3424976 0.19803981
0.35412291 2.3072009 0.17805117
0.26803473 2.3063316 0.15466514
0.18504447 2.327837 0.13362338
0.10279009 2.3780909 0.11316866
0.35970283 2.3386557 0.093421519
0.27021694 2.3152411 0.06975124
0.18752435 2.3440137 0.048353665
0.10311248 2.3626103 0.025797637
0.36137351 2.3473365 0.0067565967
0.27025023 2.3081789 -0.015859405
0.18735881 2.3301771 -0.037621323
0.10395043 2.3619363 -0.060629323
0.35751337 2.3142045 -0.079317391
0.26945028 2.2940664 -0.10000143
0.18797888 2.3201473 -0.12305143
0.10391775 2.3481317 -0.14664102
0.35973877 2.3184178 -0.16562329
0.27272627 2.3115106 -0.18645203
0.1884176 2.3210325 -0.20868839
0.10505761 2.3580477 -0.234433
0.21412045 1.377409 -0.15000409
0.17357719 1.4656696 -0.17285754
0.16597348 2.0379379 -0.25881141
0.10633 2.3735633 -0.32449222
0.20050189 1.2828685 -0.18812636
0.16640724 1.3984393 -0.21748868
0.15555876 1.9010361 -0.31361201
0.10666715 2.3727529 -0.41423088
0.20545974 1.3080056 -0.2421238
0.16727602 1.4001168 -0.27163953
0.12168254 1.4759525 -0.29979762
0.10398939 2.2971017 -0.4896031
0.20409179 1.2912101 -0.28990394
0.14652008 1.2216808 -0.28495079
0.095640123 1.1585884 -0.28096622
0.04625072 1.0296232 -0.26020417
0.37240997 2.3417802 -0.62030554
0.12014104 0.99541396 -0.27246708
0 0 -0
0 0 -0
0.36855185 2.3000302 0.71963543
0.27658525 2.2820499 0.68275404
0.19055708 2.3003063 0.66112047
0.1062462 2.3419216 0.64710104
0.36802503 2.3060162 0.62348729
0.27964893 2.3022814 0.59374464
0.1920467 2.2973311 0.56680155
0.10868677 2.3345165 0.55047327
0.37111026 2.3256087 0.53483415
0.2770924 2.2838984 0.49834201
0.19284302 2.296236 0.47615314
0.1110622 2.3493495 0.46241936
0.36757216 2.3068001 0.44010654
0.28198665 2.3191602 0.41606373
0.1948584 2.3062358 0.38950783
0.11156952 2.3410237 0.3718735
0.36525086 2.2909455 0.34910947
0.28109875 2.3021324 0.32578149
0.19663982 2.3128836 0.3036173
0.1138531 2.3450394 0.28469732
0.3732214 2.3383138 0.26773831
0.28191239 2.308461 0.24036954
0.19812569 2.31933 0.2184002
0.11460073 2.3368607 0.19761898
0.3700034 2.3158152 0.1788878
0.28327245 2.3135571 0.15526333
0.1983017 2.3147211 0.13293782
0.11654249 2.3604553 0.11236133
0.37341395 2.332458 0.093263708
0.28490579 2.317508 0.069870889
0.20070161 2.3288736 0.048065845
0.11715969 2.3529449 0.025699466
0.37292179 2.3273017 0.0067053894
0.28404072 2.3034999 -0.015838932
0.20139423 2.3259952 -0.037573047
0.11809047 2.3542652 -0.060449872
0.37408599 2.3267686 -0.079825185
0.28523818 2.306251 -0.10060699
0.20290551 2.3269091 -0.12347375
0.11862512 2.3534307 -0.14701462
0.37634248 2.3309383 -0.16667958
0.288133 2.3196857 -0.18725054
0.20256896 2.3188405 -0.20859914
0.11907084 2.3484142 -0.23354349
0.22399679 1.3849027 -0.15096703
0.17544134 1.4074131 -0.16611075
0.12798929 1.4607036 -0.18560082
0.12033737 2.3619816 -0.32300371
0.21329302 1.3118961 -0.19257142
0.16688022 1.3326707 -0.20741552
0.12699406 1.4429733 -0.23816989
0.12092242 2.3661509 -0.41320008
0.21094398 1.2911872 -0.23924565
0.17072017 1.3581443 -0.26369461
0.12589122 1.4205058 -0.28868666
0.091512434 1.7797015 -0.37943721
0.22641915 1.3775989 -0.30960613
0.15718392 1.2458892 -0.29081675
0.086940013 0.97982907 -0.23774065
0 0 -0
0 0 -0
0.13681769 1.0779451 -0.29528192
0 0 -0
0.041129198 0.8058998 -0.23688588
0.38234371 2.2958405 0.71904504
0.29155186 2.2879174 0.68503183
0.20509413 2.3038816 0.66249728
0.11982045 2.3258228 0.64284378
0.38422307 2.3161054 0.62684077
0.29450646 2.306288 0.59523273
0.20596559 2.2941754 0.56632406
0.12224057 2.3192255 0.54703432
0.3847346 2.3194394 0.53394824
0.29060629 2.2782772 0.49749523
0.20692883 2.2950094 0.47615314
0.12495197 2.3388257 0.4604902
0.38204068 2.3064404 0.44047686
0.29546249 2.311527 0.4150117
0.20847121 2.299104 0.38851207
0.12598474 2.3412812 0.3720302
0.38172612 2.3032944 0.35134161
0.29484096 2.2974179 0.3253642
0.21091776 2.3126209 0.303747
0.12764339 2.3333931 0.28337315
0.38756198 2.3359797 0.26773831
0.2959449 2.3057013 0.24026674
0.21189898 2.3131135 0.21793315
0.12888238 2.3351185 0.19753483
0.3843694 2.3144853 0.17896387
0.29695344 2.3078167 0.15499747
0.21387061 2.3283734 0.13379474
0.13052537 2.3507197 0.11193392
0.38755462 2.3291373 0.093224265
0.29707161 2.2998552 0.069392323
0.21471167 2.3246117 0.048004169
0.13153903 2.3511832 0.025688555
0.38571635 2.316092 0.006679785
0.30240875 2.3344395 -0.016064132
0.21557012 2.3237202 -0.037556957
0.13225272 2.348506 -0.060321696
0.38884982 2.3273866 -0.079926744
0.30079952 2.3153555 -0.10108276
0.21755072 2.3295972 -0.12368491
0.13244332 2.3416975 -0.14632969
0.38948253 2.3216989 -0.16618665
0.30365029 2.3277583 -0.18804905
0.21521628 2.3006954 -0.20708174
0.13364765 2.35062 -0.23383999
0.23249017 1.3835022 -0.15096703
0.18098007 1.3826747 -0.16331896
0.13157539 1.4026015 -0.17831743
0.13505387 2.3651555 -0.32354498
0.2185369 1.2939733 -0.19013381
0.17647111 1.3424001 -0.20909438
0.14306355 1.5187943 -0.25082472
0.13476278 2.3535619 -0.41113836
0.22017905 1.2976271 -0.24068473
0.18316057 1.3882235 -0.26974788
0.13515998 1.4255611 -0.28987715
0.1124377 1.9529159 -0.41650623
0.21483001 1.258775 -0.28319219
0.16559282 1.2506961 -0.29217046
0.094420053 0.99475974 -0.24149938
0.057663657 1.0076821 -0.25481892
0.32141903 1.8726782 -0.49705425
0 0 -0
0 0 -0
0 0 -0
0.39870182 2.306632 0.72317749
0.3060928 2.289886 0.6861707
0.21804211 2.2901385 0.65891767
0.13364518 2.3173451 0.64071518
0.39826325 2.312752 0.6265828
0.3077518 2.2977164 0.59349662
0.22087337 2.3015678 0.5684728
0.13709791 2.3291204 0.54955626
0.39912468 2.3179963 0.53416973
0.30574656 2.2851696 0.49940053
0.2209129 2.2927215 0.47595075
0.13842502 2.3233228 0.45759648
0.39701819 2.3088951 0.44140261
0.31160244 2.3243072 0.41764173
0.22333495 2.305634 0.38983977
0.14058466 2.3444076 0.37265703
0.39702532 2.3077307 0.35238329
0.31038496 2.3063612 0.32689434
0.22529601 2.313257 0.3040064
0.14183779 2.330584 0.28313237
0.40256259 2.3374748 0.2681877
0.3106176 2.307785 0.24067798
0.22628179 2.3137515 0.21811996
0.14333001 2.3362732 0.19770317
0.39720848 2.3042221 0.17835541
0.31124178 2.3069403 0.15506394
0.22786099 2.3240366 0.13362338
0.14476217 2.3468838 0.11179145
0.40285897 2.3326232 0.093460977
0.31399435 2.3187897 0.070020437
0.22975567 2.3312104 0.048168641
0.14559127 2.3443439 0.025623109
0.40400815 2.3373311 0.0067480626
0.31591964 2.3265946 -0.016023185
0.22943027 2.3183737 -0.037492596
0.14628643 2.3416638 -0.060167879
0.40158641 2.3160942 -0.07962206
0.31648326 2.3243556 -0.10155855
0.23025757 2.3123195 -0.12284028
0.14637192 2.333868 -0.14589381
0.40628687 2.3340063 -0.16724291
0.31684744 2.3179505 -0.18741025
0.22873592 2.293385 -0.20654617
0.1476302 2.3428037 -0.23314816
0.2261167 1.2968347 -0.14165865
0.19580294 1.4277864 -0.1687862
0.15370342 1.5370088 -0.1955213
0.14868793 2.3504388 -0.32165053
0.22254421 1.2701873 -0.18683586
0.18753582 1.3618518 -0.21229947
0.14508626 1.4452335 -0.23881887
0.14845324 2.3408928 -0.40907663
0.22302182 1.2671878 -0.23528822
0.17998104 1.3024485 -0.25329062
0.13829018 1.3691208 -0.27856776
0.091945238 1.4426678 -0.30779812
0.22391084 1.2651238 -0.28492424
0.17379901 1.2535163 -0.29307291
0.10198878 1.0086679 -0.24502322
0 0 -0
0.33324251 1.8725756 -0.49756041
0 0 -0
0 0 -0
0 0 -0
0.41149947 2.2966187 0.72081614
0.32013753 2.2879646 0.6861707
0.23267196 2.2944963 0.66056979
0.14816864 2.3212912 0.64204556
0.41312572 2.3140693 0.62761462
0.32332397 2.3063378 0.59622478
0.23430051 2.293407 0.56680155
0.15100761 2.3224072 0.54818064
0.41505378 2.3251038 0.5363844
0.32111782 2.2929294 0.50151753
0.23457702 2.2874262 0.47514132
0.15248495 2.3194923 0.45701772
0.41376495 2.3209276 0.44417989
0.32339582 2.3048022 0.41448572
0.23858991 2.3150105 0.39166531
0.15457605 2.3375881 0.3717168
0.41465059 2.3247211 0.35535949
0.32494497 2.3073552 0.32731166
0.23979215 2.31479 0.3043955
0.15573703 2.3237271 0.28241012
0.41846937 2.3437645 0.26919889
0.32560444 2.3117456 0.24129485
0.24026848 2.310339 0.21793315
0.15719257 2.3283901 0.19711399
0.41326898 2.3125389 0.17919205
0.32288051 2.2872031 0.15386756
0.24180618 2.3196158 0.13345198
0.15807785 2.3300059 0.11103161
0.41804454 2.3350253 0.093658231
0.32877707 2.3207781 0.070140079
0.24301375 2.3198133 0.047963053
0.15942833 2.3354254 0.025535842
0.41992941 2.343667 0.006773666
0.32836127 2.3117418 -0.015934471
0.24271008 2.3079729 -0.037347771
0.16044649 2.3377302 -0.06009097
0.4198561 2.336211 -0.080400683
0.32792208 2.3025882 -0.10069349
0.24549182 2.3207939 -0.12336817
0.16089526 2.3359132 -0.14608061
0.41900659 2.3226347 -0.16660917
0.33106413 2.3159628 -0.18741025
0.24448243 2.307786 -0.20797431
0.1611785 2.3299408 -0.23196214
0.24202521 1.3394516 -0.14647333
0.19229485 1.3410234 -0.15866601
0.1540162 1.4502081 -0.18459621
0.16269542 2.3435516 -0.32083863
0.23510657 1.2950891 -0.19070736
0.18884718 1.3117656 -0.20466828
0.15154582 1.4217486 -0.23508734
0.16206171 2.3291276 -0.40718675
0.23379254 1.2822469 -0.23834623
0.19260187 1.333391 -0.25953302
0.14815105 1.3818901 -0.28134552
0.15112513 2.1621392 -0.46148893
0.23202135 1.2656467 -0.28535727
0.18022975 1.243749 -0.29104239
0.104131 0.97033101 -0.23586127
0.15565623 2.2381973 -0.56642753
0.22356351 1.2130631 -0.32268035
0 0 -0
0 0 -0
0 0 -0
0.43133464 2.3250511 0.73055685
0.33527946 2.2935457 0.68844849
0.2472606 2.2978044 0.66194654
0.16247632 2.3213 0.64231157
0.43118078 2.3323922 0.63328975
0.33775008 2.3062277 0.59672081
0.24899592 2.2977188 0.56823409
0.16456363 2.311728 0.54588795
0.43143958 2.3340201 0.53904194
0.33602983 2.2967179 0.50278771
0.24754918 2.2762082 0.47311771
0.1667846 2.3194916 0.45721063
0.42996058 2.3289752 0.44621655
0.33781731 2.3047228 0.41483641
0.25236163 2.3095818 0.39100149
0.16841781 2.3296998 0.3706198
0.43160117 2.3367195 0.35759166
0.33866417 2.3023787 0.32689434
0.25409913 2.3142607 0.30452517
0.1691227 2.3108466 0.28096557
0.4323006 2.3382213 0.26886183
0.34050676 2.3146248 0.24180888
0.25433084 2.3078313 0.21783972
0.17154957 2.3283758 0.19719817
0.4310793 2.3295686 0.18071321
0.33865485 2.2970245 0.15466514
0.25636333 2.3210654 0.13362338
0.17207663 2.3250077 0.11084165
0.43473175 2.3451886 0.094171099
0.3409631 2.3048742 0.069721334
0.25713301 2.3172846 0.047942493
0.17338412 2.3294175 0.025481304
0.43521401 2.3459623 0.006787891
0.34532693 2.3284776 -0.016064132
0.25598159 2.2984903 -0.037219044
0.17493667 2.3386955 -0.060142245
0.43345168 2.3296607 -0.080265269
0.34321976 2.3084385 -0.10103951
0.26006073 2.322221 -0.12352654
0.17455289 2.3259244 -0.1455202
0.43672931 2.3386507 -0.16794711
0.34615105 2.3198032 -0.18788937
0.25985914 2.3171301 -0.20895617
0.17375213 2.3060853 -0.22968897
0.23031528 1.2314143 -0.1348111
0.19655035 1.3132969 -0.15552525
0.16246831 1.4452922 -0.18409391
0.17662403 2.3365812 -0.32002673
0.2520031 1.3412819 -0.19773342
0.19395597 1.2910358 -0.20161583
0.15938181 1.4129478 -0.2337894
0.17627551 2.3271072 -0.40701494
0.23746108 1.2585558 -0.23420891
0.1965359 1.3040257 -0.25404724
0.15176728 1.3381045 -0.27261546
0.16401802 2.1562951 -0.46044767
0.23523462 1.2402197 -0.27994457
0.19426543 1.2850038 -0.30096942
0.13332747 1.1744257 -0.28566465
0.16726381 2.2091627 -0.55932879
0.22611068 1.1860095 -0.3158471
0 0 -0
0 0 -0
0 0 -0
0.44757316 2.3326824 0.73380375
0.35035744 2.2980788 0.69044149
0.26124629 2.2952888 0.66167122
0.17598444 2.3106477 0.63965082
0.44439515 2.3240087 0.631742
0.35218698 2.3060272 0.59721684
0.26331085 2.2980773 0.56871158
0.17882012 2.3116453 0.54611725
0.44483709 2.32654 0.5379346
0.34996849 2.2936468 0.50257599
0.26218218 2.2804837 0.47433189
0.18078445 2.31549 0.45663187
0.44645482 2.3378763 0.44843841
0.3515062 2.2996869 0.4143104
0.2661888 2.3050511 0.39050362
0.18224588 2.322715 0.36967957
0.4459309 2.3340273 0.35759166
0.35308516 2.3022149 0.32717252
0.26783732 2.3087182 0.3040064
0.18322006 2.3087759 0.2808452
0.44589296 2.3316209 0.26841244
0.3574172 2.3301897 0.24365947
0.26986822 2.318095 0.21896069
0.18607093 2.3302591 0.19745067
0.44555259 2.3278589 0.18078926
0.35471338 2.307724 0.1555292
0.26840216 2.3006074 0.13253793
0.18649904 2.3258994 0.11093663
0.44836077 2.3385515 0.094013296
0.3590599 2.3284233 0.07049901
0.2718122 2.3196354 0.048024729
0.18783456 2.330303 0.025503119
0.45091939 2.3501222 0.006807805
0.3605243 2.3322444 -0.016105076
0.27089742 2.3038275 -0.037331682
0.18928334 2.3375781 -0.060142245
0.45321438 2.3554184 -0.081247009
0.3596724 2.3210981 -0.10168831
0.27395305 2.3176064 -0.12336817
0.18906361 2.3277941 -0.145707
0.45220551 2.3418033 -0.16836961
0.35854068 2.3058159 -0.18693115
0.27454019 2.3194485 -0.2093132
0.12823038 1.5730171 -0.15674987
0.29053724 1.5023301 -0.16466212
0.20598221 1.3208984 -0.15657218
0.1647886 1.3890983 -0.17706168
0.13516414 1.6530863 -0.22652209
0 0 -0
0.20600007 1.316184 -0.20573665
0.15615332 1.3119999 -0.21724081
0.1372225 1.6750209 -0.29310572
0.24291925 1.2454891 -0.2320503
0.20407665 1.2998849 -0.25347975
0.16649497 1.3916461 -0.28372642
0.11728198 1.4261093 -0.30467433
0.23889598 1.218634 -0.2753979
0.20548014 1.3049594 -0.30593291
0 0 -0
0.1037416 1.2668763 -0.3209103
0.22964352 1.1656159 -0.31078544
0 0 -0
0 0 -0
0.060586128 0.74018604 -0.21801388
0.45370299 2.2886553 0.72081614
0.36535332 2.3015664 0.69214982
0.27669993 2.3050966 0.66497546
0.19063361 2.3152885 0.64124727
0.46501413 2.3534644 0.64051259
0.36404791 2.2894716 0.59349662
0.27729017 2.2954543 0.5684728
0.19251458 2.3046846 0.54474163
0.46231726 2.3400302 0.54169947
0.36480218 2.2962825 0.50363451
0.27711257 2.2866096 0.47595075
0.19432962 2.3065152 0.45508856
0.45926932 2.3273799 0.44695717
0.36808577 2.3130434 0.41711572
0.2799699 2.3004377 0.39000574
0.19674426 2.3245056 0.3701497
0.46828803 2.3719931 0.36384171
0.36876592 2.3097842 0.3285636
0.28272015 2.3129368 0.30478457
0.197383 2.3076081 0.2808452
0.46365842 2.3463876 0.2704348
0.37139454 2.3259881 0.24345385
0.28311715 2.3084896 0.21821339
0.19959696 2.3201385 0.19669318
0.46408355 2.3466008 0.18246253
0.37012771 2.313386 0.1560609
0.28348756 2.3068445 0.13299495
0.20111075 2.328692 0.11112659
0.46386644 2.3416376 0.094250008
0.3727065 2.3222287 0.070379369
0.2860401 2.317924 0.048024729
0.20178369 2.3251219 0.025459487
0.46591437 2.3502541 0.0068163397
0.37578085 2.335912 -0.016146021
0.28515118 2.3031142 -0.037347771
0.20214733 2.3194423 -0.059706423
0.46980184 2.3633759 -0.081619389
0.37358955 2.316875 -0.10160181
0.28681207 2.3049815 -0.12278749
0.20308243 2.3236074 -0.1455202
0.46968818 2.3546367 -0.1694963
0.37077177 2.2917643 -0.18597293
0.28852063 2.3157437 -0.2091347
0.13370691 1.5246183 -0.15200588
0.39635545 1.9841172 -0.21773063
0.21296985 1.312747 -0.15575792
0.17146514 1.3732945 -0.17517804
0.12985419 1.4765412 -0.20243551
0.25033981 1.2478474 -0.18439823
0.21153124 1.2992883 -0.20329466
0.16530432 1.319829 -0.21870098
0.12830393 1.4562924 -0.2549642
0.24414726 1.2121525 -0.22611414
0.21394771 1.3102376 -0.25574973
0.17111404 1.3594801 -0.27737731
0.12396273 1.4019802 -0.29967624
0.24326991 1.2018352 -0.27193376
0.20639874 1.2604105 -0.2957803
0.15295342 1.21417 -0.29576626
0.085229658 0.96777141 -0.24527241
0.23698412 1.165133 -0.31103855
0 0 -0
0 0 -0
0.065799825 0.74744689 -0.22026725
0.47903815 2.3410549 0.73823142
0.37900031 2.2964437 0.69129568
0.29156107 2.309078 0.66662753
0.20517634 2.3179159 0.64231157
0.47828746 2.344887 0.63896489
0.38045898 2.3015318 0.59721684
0.29210383 2.2994897 0.56990534
0.20647828 2.3015211 0.54428309
0.47705647 2.3390603 0.54214245
0.38111469 2.3075006 0.50659829
0.29064262 2.2809803 0.47514132
0.2090971 2.31212 0.45643899
0.48060313 2.3591835 0.45362264
0.38275346 2.3136551 0.41764173
0.29382956 2.29672 0.3896738
0.21100345 2.3232546 0.3701497
0.48085871 2.3593857 0.36235362
0.38309366 2.3084548 0.32870269
0.29703307 2.3121419 0.30491427
0.21199185 2.3112965 0.28144708
0.4816218 2.3610239 0.27245715
0.38712534 2.3324969 0.24437913
0.29816726 2.3136213 0.21886727
0.2133718 2.3139088 0.19627234
0.47887215 2.3456628 0.18261464
0.38382438 2.3081186 0.15586151
0.29865956 2.312983 0.13345198
0.21456711 2.3184624 0.11069918
0.48002729 2.3475578 0.094605066
0.38711283 2.320884 0.070409276
0.30000016 2.3141422 0.047983613
0.21613912 2.3248355 0.025470395
0.48032647 2.3473511 0.0068163397
0.39109594 2.3394802 -0.016186967
0.30018008 2.3082619 -0.037460409
0.21618956 2.3161678 -0.059655156
0.48529878 2.365344 -0.081788652
0.38796368 2.3155243 -0.10164506
0.3015967 2.3081288 -0.12305143
0.21733598 2.3223176 -0.1455202
0.48855206 2.3732049 -0.1710455
0.38829669 2.3100896 -0.18764982
0.30207831 2.3089917 -0.20868839
0.14250118 1.5178246 -0.15141287
0.39788267 1.9300374 -0.21206
0.21722424 1.2888893 -0.15308246
0.18169361 1.3859878 -0.17693609
0.13668311 1.4520421 -0.19918789
0.27584657 1.3325397 -0.19715987
0.21356711 1.2628857 -0.19780022
0.17957398 1.3657497 -0.22648855
0.13631238 1.44567 -0.2532461
0.25778475 1.2404882 -0.23169054
0.22083382 1.3021233 -0.25442559
0.17637171 1.3350843 -0.27261546
0.13311552 1.4070356 -0.30092576
0.24585037 1.1773839 -0.26673761
0.20596196 1.211099 -0.28449956
0.17645335 1.3346258 -0.32536641
0.11172861 1.1853878 -0.30059332
0.24631381 1.174072 -0.31382242
0 0 -0
0 0 -0
0 0 -0
0.50266564 2.3820097 0.75210458
0.39389333 2.298799 0.69271922
0.30572382 2.3072455 0.66662753
0.2184861 2.3070168 0.63965082
0.49803659 2.3674357 0.64592975
0.39506528 2.3020182 0.59796089
0.30736226 2.3063173 0.57205415
0.22180425 2.3128066 0.54726356
0.49340704 2.3456321 0.54435706
0.39741337 2.3176413 0.50935042
0.3052817 2.2840078 0.47615314
0.22299695 2.3078635 0.45586023
0.49486771 2.3552287 0.45343751
0.39727584 2.3132036 0.41799235
0.31014583 2.3114891 0.3924951
0.22391956 2.3081536 0.36795574
0.49614024 2.3602614 0.36294883
0.39775518 2.3089883 0.32912001
0.3114793 2.3122413 0.30517367
0.22742729 2.3227963 0.283012
0.49794087 2.3667755 0.27346832
0.40142998 2.3300776 0.24437913
0.31382421 2.3226013 0.21989481
0.22785842 2.315531 0.19652484
0.49695376 2.3602433 0.18398368
0.40103436 2.3234186 0.1570579
0.31324792 2.314075 0.13362338
0.23006484 2.3300247 0.11131655
0.49627826 2.3533678 0.094960131
0.4033922 2.3302839 0.070768207
0.31432843 2.3132484 0.048004169
0.23020265 2.3214755 0.025448579
0.49533993 2.347295 0.0068248743
0.40475962 2.3330951 -0.016159669
0.31595796 2.3182652 -0.037653506
0.23039724 2.3147976 -0.059655156
0.5022856 2.3740551 -0.082194895
0.40199304 2.3121161 -0.10160181
0.31643075 2.311182 -0.12331538
0.23138317 2.318954 -0.14539565
0.50372595 2.37309 -0.17125675
0.40349141 2.3135555 -0.18812892
0.31434667 2.2932796 -0.20743877
0.15032528 1.5020694 -0.14993037
0.41509238 1.9528456 -0.21484181
0.2384721 1.3638449 -0.16215573
0.1916793 1.3956584 -0.17831743
0.14291961 1.424558 -0.1955343
0.25200111 1.180802 -0.17493457
0.22062896 1.2576579 -0.19718973
0.17933404 1.3020606 -0.2161051
0.14261943 1.4193213 -0.24877907
0.25900385 1.2090652 -0.22611414
0.2238857 1.272698 -0.24893984
0.18536626 1.3398023 -0.27380592
0.14125594 1.4013265 -0.2998845
0.25676745 1.1930329 -0.27063471
0.21355848 1.2107719 -0.28472519
0.18183956 1.3132986 -0.32043305
0.10068478 1.0023474 -0.25432935
0.25187761 1.1649739 -0.3117978
0.16917661 0.9549582 -0.26355091
0 0 -0
0.076596916 0.76281315 -0.22505566
0.51118159 2.3508718 0.74324936
0.41251874 2.3218224 0.70040661
0.31961083 2.303422 0.66607684
0.23244405 2.3037148 0.63911867
0.51439571 2.372833 0.64825135
0.41155881 2.3129036 0.6014331
0.32217869 2.3091965 0.57324785
0.23658438 2.3172121 0.54863918
0.511922 2.3616211 0.54878634
0.41350856 2.3257439 0.51167911
0.32037589 2.2898502 0.477772
0.2369528 2.3044994 0.45547438
0.52303559 2.4155376 0.46565753
0.41405082 2.3252614 0.42062235
0.32404876 2.3075898 0.39216322
0.23746952 2.3008416 0.36701545
0.51521897 2.3784349 0.36622268
0.41226357 2.308454 0.32939819
0.32566106 2.3102865 0.30517367
0.24105863 2.3154325 0.28228971
0.513717 2.3695023 0.27414244
0.41554463 2.3265915 0.24427633
0.32639712 2.3088021 0.21877384
0.2413363 2.307152 0.19593568
0.5171349 2.3834593 0.18603724
0.41633752 2.3268073 0.1574567
0.32786086 2.3150747 0.13379474
0.24425304 2.3275759 0.11126906
0.51643765 2.376642 0.096025325
0.4189187 2.3346517 0.070977576
0.32668734 2.2984083 0.047736909
0.24496649 2.3249915 0.025503119
0.51483279 2.3676631 0.0068931514
0.42119128 2.3423779 -0.01624156
0.33186981 2.328161 -0.037846599
0.24459623 2.3133404 -0.059655156
0.51748168 2.373858 -0.082296453
0.42024726 2.3322203 -0.10259663
0.33074743 2.3101852 -0.12336817
0.24581803 2.3194757 -0.1455202
0.52147406 2.3845718 -0.17231302
0.42175704 2.3335972 -0.18996549
0.32558581 2.271589 -0.20565358
0.16048548 1.5100244 -0.15081987
0.49065915 2.2406645 -0.24683271
0.22806656 1.2587622 -0.14982538
0.19459875 1.3551755 -0.17329441
0.15396683 1.4453293 -0.1985113
0.25392932 1.155069 -0.17134984
0.2285184 1.2572528 -0.19734235
0.18563239 1.2892157 -0.21415822
0.14693625 1.3772774 -0.2415631
0.27086857 1.2276255 -0.2298917
0.23327512 1.2799946 -0.2506423
0.19610864 1.3561001 -0.27737731
0.15026793 1.4043237 -0.30071753
0.25859004 1.1666532 -0.26500553
0.22378531 1.2247723 -0.28833503
0.17945297 1.2400086 -0.30281392
0 0 -0
0.25481609 1.1445199 -0.30673611
0.17503294 0.95390218 -0.26355091
0 0 -0
0.090939611 0.85296869 -0.25181448
0.5281015 2.3588796 0.74679148
0.43092093 2.3418744 0.70723987
0.33415225 2.3042717 0.6669029
0.24832012 2.3185391 0.64364201
0.53041893 2.3762329 0.65005714
0.42767397 2.3208146 0.6041612
0.33676183 2.3100591 0.57396412
0.25069329 2.3147492 0.54840994
0.52576572 2.3555803 0.54812193
0.42883322 2.3289299 0.51294935
0.33541164 2.2946246 0.4791885
0.25076944 2.3000758 0.45489562
0.53185928 2.3854265 0.4604733
0.42938179 2.3284862 0.42167437
0.33877426 2.3094606 0.39282703
0.25265697 2.309159 0.36858258
0.53669202 2.4061134 0.37098458
0.42750067 2.3117235 0.33023283
0.33983061 2.3082447 0.30517367
0.25624099 2.3227906 0.28337315
0.5312773 2.3798828 0.27571541
0.43162149 2.3337791 0.24530444
0.3412846 2.3116808 0.21924092
0.25515893 2.3026567 0.1956832
0.53283685 2.385107 0.18641753
0.43605971 2.3536417 0.15945065
0.34249789 2.3159821 0.13396613
0.25786811 2.3200767 0.11098412
0.53297424 2.3822045 0.09638039
0.43214053 2.3261409 0.070798114
0.3418113 2.3032832 0.047880817
0.25933865 2.3244386 0.025514029
0.53590488 2.3937349 0.0069784978
0.43482387 2.3358173 -0.016214263
0.34526587 2.3201473 -0.037750054
0.25989813 2.3217306 -0.059911516
0.53641474 2.3901415 -0.08297351
0.43729755 2.3443294 -0.10324542
0.34713006 2.3229268 -0.12416
0.25937778 2.3119726 -0.14514659
0.53609574 2.3813272 -0.17231302
0.43808407 2.3417432 -0.19084385
0.34231773 2.2882645 -0.20734951
0.16507584 1.467479 -0.14666887
0.5247317 2.3278143 -0.25678304
0.2432915 1.2973632 -0.15459467
0.20114584 1.3421824 -0.17178749
0.15384156 1.3646076 -0.18755054
0.25751719 1.1380448 -0.16905561
0.24225748 1.2878783 -0.20237894
0.19207317 1.2782944 -0.21253581
0.1538371 1.3626451 -0.23915778
0.26815766 1.1808549 -0.22143714
0.2338454 1.2399418 -0.24307576
0.19872296 1.3170744 -0.26963931
0.15239015 1.346035 -0.2884306
0.26292118 1.1526706 -0.26219094
0.22695257 1.2004019 -0.28292027
0.18778373 1.2436898 -0.30398852
0.11102028 0.98369402 -0.24992327
0.26680273 1.1646242 -0.31255701
0.18052272 0.95091414 -0.26302642
0 0 -0
0.086059608 0.76276922 -0.22533733
0.55178684 2.3956304 0.75948399
0.44617856 2.3438947 0.7086634
0.34900367 2.3069305 0.66827965
0.26275876 2.3188872 0.6441741
0.55169344 2.4021244 0.65805382
0.44335738 2.3257596 0.60614532
0.35063782 2.3060293 0.57348669
0.26455936 2.3102663 0.5477221
0.54544777 2.3751202 0.55343705
0.44238368 2.3224146 0.51210254
0.35051796 2.2993002 0.48060504
0.26543939 2.3033679 0.45586023
0.5515399 2.4041483 0.46473181
0.44402996 2.3277416 0.422025
0.35338578 2.3102629 0.39332491
0.26772854 2.3154142 0.36983627
0.55387872 2.413377 0.37262154
0.44577014 2.3304553 0.33329314
0.35443863 2.3090565 0.30556276
0.27071837 2.3231468 0.28361392
0.55365539 2.4104738 0.27964777
0.44817588 2.3428106 0.24653813
0.35682547 2.3183997 0.22008166
0.26916716 2.3000579 0.19559903
0.5492484 2.3895667 0.18702599
0.44823974 2.3391621 0.15865307
0.35807106 2.3227174 0.13448028
0.27233186 2.320435 0.1110791
0.55318469 2.4032335 0.097366691
0.44980007 2.3411145 0.071336508
0.35899413 2.3209035 0.048291992
0.27441505 2.3297551 0.025590384
0.54811352 2.3796823 0.0069472045
0.4514164 2.3448884 -0.016296152
0.36179408 2.3328059 -0.037991423
0.27449101 2.3230705 -0.059988428
0.55399317 2.3994646 -0.083413601
0.45167387 2.3416021 -0.10324542
0.36229864 2.3266735 -0.12447673
0.27496719 2.3222313 -0.14589381
0.55182242 2.3828518 -0.17266512
0.45623061 2.3585844 -0.19244087
0.3543576 2.2733274 -0.20618914
0.23155527 1.9506398 -0.19509727
0.54753929 2.3613563 -0.26084879
0.2357453 1.2158915 -0.1450561
0.20218402 1.2948532 -0.16588545
0.17017019 1.4305408 -0.19675218
0.26090583 1.121021 -0.1667614
0.2348742 1.2077885 -0.1900164
0.20357555 1.3004889 -0.21642961
0.15893269 1.3342856 -0.23434715
0.27226612 1.1657765 -0.21891876
0.24257651 1.2442664 -0.24421072
0.20360503 1.2954973 -0.26547268
0.16331418 1.3674116 -0.2932204
0.26775941 1.1415309 -0.26002586
0.23861144 1.2209778 -0.28810939
0.19707249 1.2530766 -0.30657268
0.13941008 1.1707356 -0.29765594
0.27305645 1.1591985 -0.31154469
0.20307572 1.0350139 -0.28662801
0 0 -0
0 0 -0
0.57418138 2.4247401 0.76981503
0.46221736 2.3495781 0.71122593
0.36195514 2.2971487 0.66607684
0.27743992 2.3210602 0.64523846
0.57885641 2.4513505 0.67249954
0.4600538 2.3353519 0.60936952
0.36538821 2.3076708 0.57444167
0.27919659 2.312465 0.54863918
0.56359649 2.3869138 0.55698049
0.46058947 2.3397939 0.51654822
0.36554074 2.3029094 0.48181918
0.2795676 2.3016958 0.45586023
0.57778716 2.4494984 0.47417453
0.45982763 2.332701 0.42342767
0.36801991 2.3109727 0.39382279
0.2819306 2.3137279 0.36983627
0.57026625 2.4166701 0.37366322
0.46217328 2.3383625 0.33482325
0.36985168 2.314671 0.3066003
0.284484 2.3175006 0.28313237
0.57597184 2.4389446 0.28335544
0.4637 2.3458714 0.247155
0.37419397 2.3358283 0.22194992
0.28485957 2.3112197 0.19669318
0.56573474 2.3939145 0.18763445
0.46258414 2.3363678 0.15865307
0.37358156 2.3283629 0.13493733
0.28570703 2.3117809 0.11074667
0.57275265 2.4202135 0.098195165
0.46474022 2.3412516 0.071426228
0.3727515 2.3156958 0.048230316
0.2889511 2.3300118 0.0256122
0.57284343 2.41909 0.0070723789
0.4640404 2.3332477 -0.016234737
0.37657899 2.3335032 -0.038039695
0.28873992 2.3213425 -0.059988428
0.57632214 2.4281099 -0.084530741
0.46544743 2.3358471 -0.10311566
0.37816498 2.3342643 -0.12500462
0.28810003 2.3115866 -0.14533339
0.56666392 2.3803916 -0.17273553
0.47088933 2.3567181 -0.19252071
0.370213 2.2829082 -0.20726024
0.24364318 1.9501698 -0.19519611
0.55948222 2.3473132 -0.25967184
0.23754556 1.1861796 -0.1416827
0.22173704 1.3650734 -0.17505246
0.17512943 1.3989928 -0.19255732
0.26985162 1.1280615 -0.1680519
0.24889714 1.2392684 -0.19520561
0.21155138 1.2992153 -0.21642961
0.16515641 1.3176455 -0.2315982
0.2782661 1.1593013 -0.21801934
0.24749331 1.2292777 -0.24156244
0.21155022 1.2942237 -0.26547268
0.17084774 1.3595906 -0.29176262
0.27590254 1.144612 -0.2611084
0.24224441 1.2003914 -0.28359711
0.20726795 1.267192 -0.31033143
0.12344501 0.98514372 -0.25065762
0.27470183 1.1349342 -0.30547071
0.23126541 1.1415684 -0.31652334
0 0 -0
0.095413484 0.76165569 -0.22533733
0.58791924 2.4165297 0.76833922
0.4731909 2.329788 0.70610094
0.37744248 2.3034227 0.66855502
0.2911953 2.3154883 0.6441741
0.5986706 2.4674697 0.67791665
0.47997364 2.3600154 0.61656189
0.3792254 2.3034689 0.57396412
0.29509676 2.3242269 0.55184895
0.58742821 2.4213178 0.56583899
0.47630003 2.3436279 0.51803011
0.3803021 2.3044882 0.48262867
0.29405811 2.3028569 0.45643899
0.59558386 2.4573677 0.47639638
0.48002198 2.3587775 0.42868766
0.38267601 2.3115897 0.3943207
0.29524374 2.3050971 0.36873931
0.58531696 2.4140863 0.37381202
0.47809628 2.343245 0.3359361
0.38420972 2.3133364 0.30673
0.29882559 2.3166962 0.28325278
0.59631515 2.4575744 0.28593957
0.48086947 2.356627 0.24859436
0.38655704 2.321703 0.22082895
0.29967535 2.3143692 0.19711399
0.59758765 2.4611316 0.19318667
0.48190603 2.3579252 0.16031471
0.38818949 2.3279963 0.13505158
0.30014366 2.3119655 0.11084165
0.58948064 2.4244213 0.098510787
0.48010027 2.3432522 0.071575783
0.38992226 2.3311145 0.048600368
0.30324236 2.3281951 0.0256122
0.60067761 2.4689705 0.0072288476
0.48055995 2.3411314 -0.016309801
0.39055935 2.3291767 -0.038007516
0.30336642 2.3225009 -0.060065337
0.60375863 2.4759896 -0.086324945
0.48359486 2.3515406 -0.10393748
0.3926464 2.3328848 -0.12505743
0.30305532 2.3157132 -0.145707
0.58552438 2.3943112 -0.17400306
0.48695147 2.3615947 -0.19315952
0.38586837 2.2904153 -0.20815283
0.28795964 2.1953011 -0.21990447
0.57387447 2.3438361 -0.25967184
0.24823637 1.2012349 -0.1436602
0.21789356 1.2912964 -0.16575986
0.18383928 1.398874 -0.19269262
0.27133673 1.1042796 -0.16475394
0.24546652 1.1844931 -0.18681133
0.21129136 1.2492461 -0.20831755
0.17028236 1.294143 -0.22764659
0.2832551 1.1489763 -0.2164004
0.25103715 1.2085077 -0.23777916
0.21505833 1.2668114 -0.26011562
0.17394295 1.31876 -0.28322425
0.28385893 1.1466881 -0.26197442
0.23888241 1.1473792 -0.27141395
0.20348161 1.197858 -0.29365197
0.14440882 1.0978007 -0.279542
0.27092612 1.0900388 -0.2938289
0.23925261 1.1448509 -0.31783453
0 0 -0
0 0 -0
0.6231125 2.4944494 0.79431456
0.49258795 2.3512349 0.7135036
0.39350414 2.3124359 0.6718592
0.30640656 2.3213034 0.64630276
0.61496729 2.4684374 0.67920649
0.49364984 2.3532336 0.61556983
0.39449745 2.3077991 0.57563537
0.31063759 2.3320208 0.55414158
0.59826678 2.4015815 0.56207412
0.49087185 2.3416181 0.51824182
0.39559269 2.3088679 0.48404518
0.30779189 2.2980917 0.45586023
0.61468536 2.4698787 0.47954395
0.49448612 2.3557878 0.42868766
0.39935783 2.3237762 0.39681005
0.30911902 2.3012843 0.36842588
0.61851388 2.4843369 0.38527045
0.49511611 2.352865 0.33774447
0.40058675 2.323638 0.30841604
0.31356707 2.318754 0.28373429
0.61618793 2.4731531 0.28818664
0.49880281 2.3701794 0.25034213
0.40418631 2.3389091 0.22269721
0.31360239 2.3105123 0.19694567
0.61291885 2.4583859 0.19326273
0.50212699 2.382261 0.16217573
0.4038285 2.3334405 0.13550861
0.31391996 2.307111 0.11069918
0.61717302 2.4721403 0.10060173
0.49984157 2.365689 0.07235346
0.40524432 2.3345885 0.04872372
0.31738696 2.3253 0.025601292
0.61993557 2.4817314 0.0072772107
0.49781489 2.351835 -0.01640534
0.40638611 2.3356018 -0.038152333
0.3189669 2.3305001 -0.060321696
0.62476492 2.4955065 -0.087137416
0.50029421 2.3592794 -0.10441326
0.40746868 2.3333828 -0.1252158
0.31834319 2.3217204 -0.14620514
0.35196131 1.4018964 -0.10203579
0.5032984 2.3673375 -0.19387819
0.39991483 2.2880044 -0.20815283
0.31131375 2.2654591 -0.22711931
0.29860657 1.1879743 -0.1318153
0.25084212 1.1773468 -0.14098474
0.22410199 1.2801628 -0.16450411
0.18836537 1.3682734 -0.18863308
0.27786529 1.1016344 -0.16461055
0.23992814 1.1230432 -0.17734866
0.21298428 1.2139095 -0.2026391
0.17700933 1.2842907 -0.22610033
0.28281906 1.1176541 -0.210824
0.25495234 1.1906214 -0.23456335
0.22452697 1.2751206 -0.26209974
0.1856453 1.3438275 -0.28884709
0.29016832 1.1420861 -0.26132488
0.24612252 1.1468444 -0.27163956
0.21234567 1.2052023 -0.29576626
0.14862746 1.0786444 -0.27489114
0.28813031 1.1296029 -0.30496454
0.24728875 1.1480781 -0.31914574
0.16188604 0.91740495 -0.2630308
0.10488393 0.76137805 -0.22561902
0.63532233 2.4785471 0.79047734
0.51408672 2.380964 0.72346878
0.40885517 2.3166049 0.6737867
0.32130408 2.3241539 0.64763314
0.62986243 2.4636817 0.67894852
0.51237851 2.3700447 0.62077814
0.40915892 2.3082037 0.57635164
0.32399967 2.3233225 0.55253673
0.64414811 2.5197427 0.59064287
0.50997734 2.360534 0.52311093
0.41386342 2.3295383 0.48890179
0.3239302 2.3107355 0.45875394
0.63444906 2.4841514 0.48306185
0.51142943 2.3642561 0.43079162
0.41291678 2.3173988 0.39614624
0.32460847 2.3091245 0.36999297
0.6440267 2.5207345 0.39152044
0.5150001 2.3749452 0.34136117
0.41570905 2.3260169 0.30906454
0.328206 2.3197351 0.28409544
0.6456275 2.5251625 0.29470313
0.52008265 2.3981814 0.25363201
0.41782776 2.3324649 0.22232357
0.32679302 2.3016386 0.19635652
0.64455026 2.5193002 0.1983586
0.51948792 2.3918109 0.16303979
0.41919628 2.3368146 0.13585137
0.32975912 2.3170085 0.11126906
0.65043217 2.5389681 0.1034817
0.51838773 2.3811345 0.07292176
0.42186284 2.3448501 0.04899098
0.33164874 2.3233087 0.025601292
0.64334542 2.5098474 0.0073710917
0.51372766 2.3555751 -0.016453108
0.42248383 2.3429043 -0.038313247
0.33411035 2.3344367 -0.060475513
0.65423924 2.5468018 -0.089067027
0.5205186 2.3825185 -0.1055811
0.42195618 2.3318212 -0.12526858
0.33272466 2.3207116 -0.14626741
0.35085213 1.3620369 -0.099289484
0.51845443 2.367126 -0.19411774
0.42015898 2.3198099 -0.21127692
0.3222366 2.2428217 -0.22504382
0.30762821 1.1928591 -0.13256425
0.25678396 1.1699649 -0.14028682
0.23620224 1.3021915 -0.16751793
0.19506365 1.3553236 -0.18700927
0.28536335 1.102783 -0.16504073
0.26656815 1.2113125 -0.19154266
0.22995883 1.2650052 -0.21140014
0.19120835 1.3270581 -0.23383172
0.29337892 1.1301796 -0.21352226
0.25908065 1.1746511 -0.2317259
0.217924 1.1946539 -0.2458301
0.18871517 1.3068458 -0.2811417
0.28781474 1.1043847 -0.25309759
0.25462663 1.1519713 -0.27321887
0.21694414 1.1885773 -0.29200754
0.17307602 1.20151 -0.30646813
0.28673077 1.0959915 -0.29635972
0.25474656 1.1484234 -0.31967023
0 0 -0
0.1090066 0.75692129 -0.22449233
0.64833224 2.4662857 0.7878207
0.53388792 2.4011588 0.73058677
0.42392635 2.3187811 0.67516345
0.33445588 2.3145063 0.64550453
0 0 0
0.53385806 2.3980613 0.62896258
0.42541838 2.317111 0.57921672
0.34049487 2.3367019 0.55620503
0.65588713 2.5015938 0.58732098
0.52636188 2.3659461 0.52501619
0.4281494 2.3269551 0.48890179
0.33796033 2.3077335 0.45856103
0.65341479 2.4944711 0.4858391
0.52870929 2.3735662 0.43307093
0.4307071 2.3342168 0.39946541
0.33733603 2.2973175 0.36842588
0.6614868 2.5243881 0.39271095
0.53236812 2.3843045 0.34316948
0.42889079 2.3175724 0.30828634
0.34243345 2.3176777 0.28409544
0.65657264 2.5038521 0.29268077
0.53543812 2.3978574 0.25394046
0.43467355 2.3435624 0.22363134
0.34090945 2.2995901 0.19635652
0.65620029 2.5008311 0.19721773
0.53458953 2.3905261 0.16317272
0.43407375 2.3371434 0.13602275
0.34749317 2.338654 0.11240882
0.66879171 2.5455599 0.10391565
0.53539312 2.3886378 0.073250771
0.43880552 2.3559775 0.049278799
0.34781399 2.3340874 0.025743097
0.66407251 2.5261626 0.0074308347
0.5351817 2.3836007 -0.016671482
0.4386864 2.3500969 -0.038474157
0.34754169 2.3264105 -0.060321696
0.66832626 2.5369411 -0.088863917
0.54016984 2.4016984 -0.10657593
0.43901363 2.3439112 -0.12606041
0.34799194 2.3255358 -0.14670329
0.35996711 1.3627518 -0.099500738
0.53165364 2.3580658 -0.19363864
0.43878958 2.340683 -0.21341912
0.34159946 2.278198 -0.22879948
0.30884111 1.1678798 -0.12999642
0.26942965 1.1925871 -0.14319491
0.24418789 1.3007176 -0.16751793
0.20116869 1.339404 -0.18497951
0.27841929 1.0493566 -0.15729772
0.25478315 1.1248337 -0.17811178
0.23370278 1.242236 -0.20783082
0.18821561 1.2518222 -0.22077425
0.29828405 1.1207535 -0.21208318
0.25519723 1.1242026 -0.22207853
0.23034056 1.2202613 -0.25138557
0.19979054 1.3259736 -0.28551504
0.29685369 1.1110866 -0.25504619
0.26082581 1.1465874 -0.2723164
0.2258566 1.19582 -0.29412183
0.18087746 1.2033018 -0.30720249
0.28242397 1.0530969 -0.28522411
0.26329163 1.1534243 -0.3215059
0 0 -0
0 0 -0
0.63511503 2.3570917 0.75417084
0.5550251 2.4258716 0.73912829
0.44279206 2.3406956 0.68232262
0.34865111 2.3124106 0.64550453
0 0 0
0.55526787 2.4240139 0.63665104
0.44234616 2.3287675 0.58279806
0.35394862 2.3287947 0.55482942
0.68539792 2.5502603 0.59972292
0.5434863 2.3741043 0.5275566
0.44608167 2.3435249 0.49294901
0.35285464 2.3104663 0.45952564
0.66106296 2.4619422 0.48028454
0.54590267 2.381793 0.43517494
0.44483659 2.3305614 0.39929947
0.35411641 2.3127775 0.37124667
0.66593325 2.4792161 0.3863121
0.55075723 2.3974006 0.34553429
0.44142535 2.3061321 0.30711907
0.35695025 2.3174953 0.28433621
0.67785615 2.5218472 0.2952649
0.55103201 2.3984048 0.25435171
0.45035818 2.3476956 0.22428523
0.35866511 2.3210893 0.19837648
0.67334563 2.5034978 0.19775014
0.55215591 2.3998418 0.16403678
0.44915935 2.3383579 0.13625127
0.36091915 2.330555 0.11212388
0.67218626 2.4960606 0.10206144
0.55363297 2.4008915 0.073729344
0.45438784 2.3591313 0.049402151
0.36090156 2.3240042 0.02565583
0.68554413 2.5442483 0.0074962671
0.5486719 2.3754005 -0.016637363
0.45309806 2.3473608 -0.038474157
0.36365488 2.3360875 -0.060629323
0.6849221 2.5366518 -0.088999331
0.55534655 2.4002852 -0.10666243
0.45376706 2.3431342 -0.12616599
0.36317718 2.3292737 -0.1470769
0.35580999 1.3143002 -0.096120663
0.55309367 2.3848612 -0.196114
0.45257491 2.3350132 -0.21315135
0.35818291 2.292773 -0.23047963
0.31678152 1.1688417 -0.13031739
0.27584293 1.1870418 -0.14272963
0.22286487 1.1482388 -0.14805369
0.21719499 1.3880678 -0.19188072
0.30121171 1.1077931 -0.16633123
0.26078328 1.1193992 -0.17750129
0.23924838 1.2301241 -0.20604618
0.20244828 1.2924941 -0.22816202
0.29195517 1.0705018 -0.2029091
0.26052767 1.115922 -0.2207544
0.23557113 1.2072814 -0.24900466
0.20291808 1.2928367 -0.27864268
0.30366561 1.1092442 -0.25504619
0.2676343 1.1440169 -0.27209079
0.22834717 1.1696075 -0.28801388
0.17520687 1.1188316 -0.28590637
0.29144359 1.0606729 -0.28775495
0.26220453 1.1170267 -0.31180301
0 0 -0
0.12615299 0.80576861 -0.23942092
0.66100645 2.3945951 0.76745367
0.57516825 2.4448156 0.74596149
0.46249595 2.3652954 0.69030786
0.36432883 2.3197505 0.64816535
0 0 0
0.57368451 2.4356484 0.64061922
0.45662686 2.3260095 0.58279806
0.36853552 2.3285019 0.55528796
0.69300795 2.516861 0.59285754
0.56700063 2.4087782 0.53602463
0.46291015 2.3532352 0.49557969
0.36964417 2.3247313 0.46280521
0.70274425 2.5544856 0.49917006
0.57224989 2.4282279 0.44429222
0.46256313 2.3452029 0.40228674
0.37016624 2.3222649 0.37312716
0.68716758 2.4970121 0.38973475
0.56727809 2.401686 0.34664711
0.4648017 2.3500705 0.31334448
0.37179199 2.3191822 0.2848177
0.69806594 2.5348849 0.29728726
0.56893939 2.4085314 0.25579104
0.4655292 2.3487947 0.22465891
0.3743242 2.3276992 0.19913396
0.68869412 2.4993191 0.19775014
0.57582855 2.4342773 0.16662893
0.46641386 2.3502467 0.13710819
0.37505347 2.3273106 0.11207639
0.69493002 2.5188596 0.10316607
0.57642406 2.4314899 0.074776202
0.471196 2.3680658 0.049648855
0.37579262 2.3256948 0.025699466
0.70300508 2.5467415 0.0075161811
0.56855029 2.3943665 -0.016794318
0.47218522 2.3680704 -0.038860351
0.37766239 2.3318386 -0.060578056
0.70580268 2.5516667 -0.089676388
0.57445621 2.4152997 -0.10748424
0.4702903 2.3510771 -0.12674667
0.37906057 2.3368533 -0.14769958
0.37692961 1.3591931 -0.099571154
0.5589326 2.3445766 -0.19307968
0.46787137 2.3370755 -0.21359766
0.37192512 2.2885678 -0.23028198
0.32447937 1.168792 -0.13053139
0.27366084 1.1457194 -0.13796033
0.23400116 1.1672771 -0.15069078
0.22093271 1.357371 -0.18782118
0.28118581 1.0096323 -0.15184894
0.26787698 1.118739 -0.17765389
0.23357771 1.1628479 -0.19501378
0.20578103 1.2630305 -0.22317956
0.29348993 1.0506893 -0.19949131
0.27011925 1.1257606 -0.22302435
0.23929593 1.1875578 -0.24523486
0.21163487 1.2963938 -0.27968395
0.30862117 1.1007798 -0.25353059
0.27419338 1.1404588 -0.27163956
0.23609576 1.1710429 -0.28871864
0.20638597 1.2670221 -0.32409251
0.29375353 1.0439641 -0.28370562
0.2602284 1.0788112 -0.30157569
0 0 -0
0.12631361 0.77562135 -0.23068911
0 0 0
0.5946635 2.4598758 0.75165588
0.47795174 2.3671246 0.6916846
0.37840033 2.3165202 0.64789927
0.71006238 2.5181539 0.69855344
0.59727806 2.4678621 0.65004373
0.47783512 2.3574262 0.59139323
0.38439658 2.3358014 0.55758065
0.71558338 2.5379031 0.59883708
0.58383787 2.4138033 0.53792995
0.47675586 2.3474715 0.49497262
0.38486165 2.328228 0.4639627
0.70961148 2.5189111 0.49306005
0.59223592 2.4457219 0.44814956
0.47871515 2.3510175 0.4037804
0.38586146 2.3287191 0.37453756
0.73144412 2.5955424 0.40580627
0.58667487 2.417407 0.34942919
0.48298135 2.365633 0.31580871
0.38666782 2.3207743 0.28529921
0.70848238 2.5123827 0.29515254
0.60505658 2.4929593 0.26514676
0.48352438 2.3634517 0.22634032
0.38794267 2.3214273 0.1987973
0.71484768 2.5334315 0.20079245
0.59452432 2.4462111 0.16769236
0.48302969 2.3580992 0.1377366
0.38998637 2.3289061 0.11226635
0.72232515 2.5568583 0.10490195
0.60055733 2.4657829 0.075942717
0.48692402 2.3710058 0.049772203
0.39104912 2.329262 0.025764914
0.71916229 2.5443044 0.0075218705
0.59887242 2.454951 -0.017244715
0.48328042 2.3484793 -0.038586795
0.39262667 2.3334205 -0.060680598
0.72634828 2.5645967 -0.090285733
0.59803915 2.4476385 -0.10908461
0.4849093 2.3491254 -0.12679946
0.39206529 2.3266098 -0.14720143
0.35747117 1.2589769 -0.092388511
0.54793841 2.2375057 -0.18453562
0.48562816 2.3507426 -0.21511506
0.38645744 2.2891862 -0.23057848
0.32783908 1.1533898 -0.12903349
0.27382237 1.1160451 -0.13458693
0.2477909 1.1978793 -0.15483478
0.21885146 1.2944428 -0.17929615
0.30501422 1.0697509 -0.16116923
0.27355626 1.112276 -0.17689079
0.25592795 1.2348254 -0.20734411
0.21467762 1.2685435 -0.22438224
0.31751069 1.1103443 -0.21118376
0.27937132 1.1336161 -0.224916
0.2310174 1.1112183 -0.22975889
0.21647885 1.2767489 -0.27572715
0.29947999 1.0434999 -0.24075666
0.27604797 1.117947 -0.26667604
0.23852597 1.1467327 -0.28308052
0.20881863 1.2341841 -0.31601465
0.29774386 1.0337752 -0.28142789
0.2844778 1.1483825 -0.3215059
0.20741558 0.99585932 -0.2872144
0.13027017 0.77010131 -0.22928074
0 0 0
0.62037021 2.4989779 0.76475292
0.49344739 2.3688533 0.69306135
0.39276832 2.315105 0.64816535
0 0 0
0.61708242 2.482954 0.65500402
0.49388096 2.3620539 0.5933032
0.39904943 2.3353176 0.55803913
0 0 0
0.63562554 2.5590923 0.57116687
0.49596983 2.367506 0.49982923
0.40113166 2.3374276 0.46627766
0.71879166 2.4927921 0.48880154
0.61815971 2.485991 0.45621485
0.49333438 2.3490007 0.40394634
0.39980811 2.3243608 0.37422413
0.72817218 2.5244963 0.39538953
0.61346924 2.4618063 0.35638437
0.49789611 2.3645654 0.31606808
0.40377617 2.3349874 0.28734568
0.73022252 2.5299463 0.29773667
0.6152904 2.468931 0.26298773
0.49925035 2.3662853 0.22690082
0.40251991 2.3209667 0.19896562
0.72622925 2.5146284 0.19965158
0.62015265 2.4851139 0.17061685
0.50223547 2.3775578 0.13905056
0.40632108 2.3382788 0.11283623
0.72800839 2.5178216 0.1034817
0.6181007 2.4717484 0.076241821
0.50042742 2.3630831 0.049669411
0.4072215 2.3376548 0.025884902
0.73142558 2.5283167 0.0074877325
0.61538213 2.4570503 -0.01728566
0.4999643 2.3562288 -0.038763802
0.40710878 2.3319523 -0.060706232
0.73928827 2.5504925 -0.089947209
0.61693561 2.4594276 -0.10977666
0.50575823 2.3763843 -0.12843592
0.40891197 2.3389077 -0.14813545
0.37966335 1.3065704 -0.096050248
0.333689 1.3273134 -0.1096354
0.50045788 2.3496671 -0.21529359
0.40478799 2.3112764 -0.2330493
0.34046403 1.1704503 -0.13117334
0.27993739 1.1114546 -0.13423796
0.26196477 1.2283552 -0.15897878
0.23072663 1.3155214 -0.18240847
0.31074074 1.065009 -0.16073906
0.27868253 1.103869 -0.17582242
0.25380933 1.1878781 -0.19971877
0.21870984 1.2458558 -0.22060244
0.3118864 1.0658907 -0.20308898
0.27476299 1.0861865 -0.21583612
0.25426182 1.1864486 -0.24563168
0.21634614 1.2301219 -0.26593924
0.31247878 1.0641242 -0.24595283
0.27883357 1.1001781 -0.2628406
0.24861443 1.1595037 -0.28660432
0.21940453 1.2500693 -0.32042074
0.30244064 1.0263609 -0.27990937
0.2770142 1.0895653 -0.30550927
0 0 -0
0.13532466 0.77117765 -0.22984409
0 0 0
0.61936182 2.4310277 0.74510735
0.50978941 2.3742399 0.69553947
0.40897092 2.324044 0.65135825
0 0 0
0.63446069 2.4875693 0.65723616
0.51266098 2.3789139 0.59831703
0.41303152 2.3309083 0.55758065
0 0 0
0.6368314 2.4983208 0.55846483
0.5158608 2.3893068 0.50509059
0.41701335 2.3436167 0.46801391
0 0 0
0.63729668 2.4974141 0.45902014
0.51191038 2.365206 0.40726557
0.41596994 2.3325596 0.37594798
0 0 0
0.63935804 2.5002096 0.36250496
0.51407748 2.3692181 0.31710565
0.41967219 2.3412604 0.28842908
0 0 0
0.63831443 2.4959471 0.26627764
0.51566386 2.3719337 0.22774154
0.41763499 2.3233571 0.19938646
0 0 0
0.64380509 2.5141261 0.17287667
0.51999944 2.3890643 0.13990749
0.42367059 2.3524537 0.11364356
0 0 0
0.64294428 2.5056686 0.077408329
0.51918018 2.3795042 0.050080582
0.42404446 2.3488886 0.026037615
0.76139838 2.572684 0.0076328209
0.64363807 2.504559 -0.017647343
0.51911026 2.3746066 -0.039117809
0.42354524 2.3412149 -0.06101387
0 0 -0
0.64546186 2.5078425 -0.11211233
0.52289629 2.3849416 -0.12906939
0.42432302 2.342247 -0.14850907
0.38682052 1.3013477 -0.095838994
0.34854901 1.3513018 -0.11179138
0.51358497 2.3407149 -0.21475802
