# .PCD v0.7 - Point Cloud Data file format
VERSION 0.7
FIELDS x y z
SIZE 4 4 4
TYPE F F F
COUNT 1 1 1
WIDTH 1613
HEIGHT 1
VIEWPOINT 0 0 0 1 0 0 0
POINTS 1613
DATA ascii
-1.0175891 1.6068442 -0.0129796
-1.3560935 1.9785656 -0.038602889
-1.5271268 2.0635345 -0.065833449
-0.94681305 1.6240848 -0.063677341
-1.0246195 1.6192582 -0.082959667
-1.4005513 2.0461097 -0.13107537
-0 0 -0
-0.94693995 1.6267812 -0.1328789
-0.98151594 1.5529385 -0.14716536
-1.1288573 1.649739 -0.17914355
-0 0 -0
-0.86940277 1.4945372 -0.18606071
-0.82829255 1.3117779 -0.18169817
-0 0 -0
-0 0 -0
-0.71508586 1.2315837 -0.20633675
-0.73436123 1.1644578 -0.2126047
-0.6223976 0.91084826 -0.18138552
-0.68302053 0.92475486 -0.20050082
-0 0 -0
-0.62965846 0.99947679 -0.22756431
-0.58948565 0.86381555 -0.21170355
-0.59245688 0.80266654 -0.2124182
-0 0 -0
-0.60609049 0.96303535 -0.26351744
-0 0 -0
-0 0 -0
-0.60732454 1.0524498 -0.31787175
-0 0 -0
-0 0 -0
-0 0 -0
-0 0 0
-0.51009673 0.81275815 0.28500286
-0.54374033 0.79745597 0.27645355
-0.62732565 0.85007983 0.29162118
-0 0 0
-0.61874801 0.98645014 0.29811239
-0.67104906 0.98575711 0.29318967
-0.72648835 0.98690307 0.28864887
-0.60917264 1.0569544 0.27705073
-0.71215111 1.1350076 0.29024082
-0.91098666 1.3393257 0.33470348
-1.3993498 1.9038085 0.46454147
-0.64112514 1.1118109 0.24180865
-1.0256697 1.6356363 0.34382677
-1.3483723 1.9845259 0.4037804
-1.4393528 1.9598088 0.38582072
-0.64306796 1.115405 0.19375129
-1.3078767 2.0880194 0.3460907
-1.4210016 2.0937786 0.33098307
-1.4344423 1.9567711 0.29420727
-0.91937757 1.5953089 0.20819096
-1.2878096 2.056062 0.25075334
-1.4030856 2.0691674 0.2345607
-0 0 0
-0.92728174 1.6096087 0.14169557
-1.3006879 2.078074 0.16330564
-1.3694717 2.020659 0.13967898
-0 0 0
-0.95267373 1.6548868 0.075392112
-1.0396682 1.6628562 0.058684368
-1.3956196 2.0614862 0.051190741
-1.5232764 2.0833621 0.028153785
-0.94819301 1.6476353 0.0054081227
-1.0167176 1.6274753 -0.013095611
-1.3276819 1.9628314 -0.038136244
-0 0 -0
-0.93533593 1.6272644 -0.063575782
-1.0183678 1.6314472 -0.083262444
-1.3700827 2.0281851 -0.12938613
-0 0 -0
-0.94389176 1.6446732 -0.13386476
-0.9640581 1.5462438 -0.14596759
-1.075793 1.5930763 -0.17227057
-0 0 -0
-0.90473568 1.5774664 -0.19569008
-0.86906368 1.3952388 -0.19251631
-0 0 -0
-0 0 -0
-0.82551682 1.4420828 -0.24075012
-0.73451102 1.1806901 -0.21474144
-0.62783092 0.93101233 -0.18463033
-0.66514492 0.91221243 -0.19689283
-0.71157074 1.2452492 -0.26227081
-0.63336158 1.0191678 -0.23115841
-0.59950405 0.89017892 -0.21725903
-0.60768068 0.83395332 -0.21970706
-0.66392374 1.1644603 -0.29726517
-0.54056406 0.87072462 -0.23734619
-0 0 -0
-0 0 -0
-0.60372573 1.0612018 -0.31939027
-0 0 -0
-0 0 -0
-0 0 -0
-0.90192974 1.5897299 0.56466877
-0.53890806 0.87048161 0.30407897
-0 0 0
-0.60563725 0.83131862 0.28390491
-0 0 0
-0.61574197 0.99517107 0.29960048
-0.65253299 0.9713164 0.28769833
-0.70783043 0.97401929 0.28360498
-0.55257332 0.97249496 0.25401855
-0 0 0
-0.75047368 1.1180315 0.27824503
-1.4498782 1.9981289 0.48537633
-0.5779528 1.0166243 0.220331
-0.82347107 1.3312694 0.27877846
-1.3636293 2.0337148 0.41207838
-0 0 0
-0.63767779 1.1219089 0.19419771
-1.3424071 2.1726675 0.35874915
-1.3860567 2.0695045 0.32579523
-1.4433608 1.9944881 0.29854095
-0.91006249 1.6017841 0.20830332
-1.2746468 2.0630789 0.25065055
-1.3554794 2.0256081 0.22867568
-0 0 0
-0.92969859 1.6369438 0.14359702
-1.1888425 1.925553 0.15074368
-1.3481669 2.0157461 0.13876492
-1.4810636 2.0501258 0.12024467
-0.95532471 1.6832956 0.076417856
-1.0053097 1.6300689 0.057308488
-1.374058 2.0567098 0.050861809
-1.5011009 2.0796967 0.027979255
-0.93707854 1.6516827 0.0054024328
-1.0067123 1.6336831 -0.013095611
-1.3022906 1.9509821 -0.037750054
-1.405202 1.9483383 -0.061603498
-0.93715894 1.6538415 -0.064388253
-0.99733812 1.6197996 -0.082354121
-1.3769987 2.0656352 -0.13123374
-0 0 -0
-0.9234671 1.6322018 -0.13238597
-0.9597742 1.5606209 -0.1467661
-0 0 -0
-0.82595915 1.1465144 -0.14034352
-0.92195427 1.6305902 -0.20157468
-0.78041685 1.2702223 -0.1746024
-0 0 -0
-0 0 -0
-0 0 -0
-0.74327594 1.2112873 -0.21947278
-0.68442661 1.0284961 -0.20312583
-0.66759235 0.92747015 -0.19929816
-0.70391661 1.2495918 -0.26227081
-0.64710987 1.0556849 -0.23853581
-0.62332541 0.93792045 -0.22797319
-0.58884478 0.81861037 -0.21470897
-0.71273249 1.2680868 -0.32259661
-0.59015685 0.96375394 -0.26171252
-0.54491609 0.82012385 -0.23797555
-0 0 -0
-0.77939242 1.3897525 -0.41682705
-0 0 -0
-0 0 -0
-0 0 -0
-0.92713577 1.657776 0.58680689
-0.52556336 0.86068165 0.29952347
-0 0 0
-0.60390186 0.83971459 0.28550139
-0 0 0
-0.59599847 0.97660345 0.29290411
-0.61704975 0.93078613 0.27456689
-0.69900376 0.97438961 0.28245863
-0.55755633 0.9954356 0.25911218
-0.81580383 1.336357 0.33914354
-0.7403546 1.1177166 0.27703086
-0 0 0
-0.6231094 1.1118792 0.24014227
-0 0 0
-1.3277266 2.00668 0.4049421
-1.4933693 2.086551 0.40713331
-0.83427548 1.4889897 0.25684693
-1.216192 1.9956719 0.32828537
-1.308274 1.9795314 0.31036147
-0 0 0
-0.90652925 1.6186085 0.20976391
-1.2598934 2.0674634 0.25023928
-1.3408303 2.0305636 0.228302
-1.5194106 2.1291327 0.22093265
-0.91574019 1.6356572 0.14298856
-1.0259873 1.6848184 0.13140222
-1.3462218 2.0398121 0.13985036
-1.4423583 2.0225785 0.11810762
-0.94595397 1.6908698 0.076496758
-0 0 0
-1.3438032 2.0383909 0.050203934
-0 0 0
-0.91911656 1.6434371 0.0053569148
-0.98420441 1.6193208 -0.01293183
-1.3150449 1.9965115 -0.038474157
-0 0 -0
-0.91383433 1.6360022 -0.063474223
-0.98686188 1.6250348 -0.08231087
-1.3478345 2.0490167 -0.12965007
-0 0 -0
-0.90177387 1.6169288 -0.13069594
-0 0 -0
-0 0 -0
-0 0 -0
-0.9351657 1.6779035 -0.20671035
-0.75356328 1.2435583 -0.17029841
-0.71158892 1.0827655 -0.16400181
-0.67330903 0.94730651 -0.15872785
-0 0 -0
-0.71126789 1.1752412 -0.21214685
-0.78859258 1.2009399 -0.23622301
-0.63564163 0.89460826 -0.19139495
-0.6852529 1.2341073 -0.25813347
-0.6853264 1.1335833 -0.25518224
-0.59498471 0.90730393 -0.21963996
-0.58437711 0.82300556 -0.21491723
-0.7479915 1.3501487 -0.34229881
-0.61294019 1.0148908 -0.27457252
-0.54040658 0.82426488 -0.23821048
-0.60766572 0.85517144 -0.26485503
-0 0 -0
-0.50723374 0.84129083 -0.26696002
-0 0 -0
-0.46854743 0.65934074 -0.23744923
-0.9049542 1.6416785 0.57913238
-0.55686957 0.92465818 0.32059261
-0 0 0
-0.59483212 0.83790213 0.28363886
-0 0 0
-0.58599836 0.97360194 0.29092002
-0.65491724 1.0011926 0.29414469
-0.69638687 0.98342645 0.28383422
-0.55002397 0.9962768 0.2584478
-0.74810344 1.2425374 0.31416294
-0 0 0
-1.303457 1.8435169 0.44389942
-0.60819769 1.1010582 0.2369947
-0.8223002 1.3665814 0.28403845
-1.3223971 2.0255234 0.40709957
-1.385939 1.9617711 0.3811194
-0.85858738 1.554675 0.26726368
-1.0080312 1.6771691 0.27486944
-1.381138 2.117919 0.3307237
-0 0 0
-0.89802122 1.6267501 0.21010098
-1.1549519 1.9216926 0.23173353
-1.3897629 2.1330156 0.23885772
-1.4403268 2.0447326 0.2112537
-0.91435826 1.6569594 0.14435761
-0.97966951 1.6312056 0.12674965
-1.3173363 2.0229356 0.13813652
-1.428196 2.02894 0.11796515
-0.91384882 1.6572669 0.074721433
-0.97186106 1.6199971 0.056530815
-1.2931097 1.9879322 0.04876484
-1.4426787 2.0513396 0.027357494
-0.90467054 1.6411639 0.0053313104
-0.97733468 1.6304754 -0.012972776
-1.3261988 2.0405927 -0.039166082
-1.4323422 2.0382295 -0.063885108
-0.91149098 1.6555867 -0.064015873
-0.96814561 1.6164887 -0.081575565
-1.1889912 1.8319227 -0.11544979
-0 0 -0
-0.91105622 1.6573979 -0.13351266
-0.94157416 1.5739921 -0.14692581
-0.9628014 1.4839339 -0.15852463
-0 0 -0
-0.90474719 1.6470098 -0.20221666
-0.91303712 1.5278007 -0.2084527
-0 0 -0
-0 0 -0
-0.86068416 1.5698473 -0.25939068
-0.75621343 1.2669913 -0.22786707
-0.77477038 1.1958185 -0.23427613
-0.65276664 0.93075341 -0.1982673
-0.83445209 1.5247778 -0.31785494
-0.846816 1.4203111 -0.3185522
-0.60378224 0.93315566 -0.22499704
-0.59391141 0.84740031 -0.22033182
-0.74203241 1.3589972 -0.34338135
-0.63860685 1.0722008 -0.28901184
-0.53639472 0.82919747 -0.23868033
-0 0 -0
-0.80347115 1.4748223 -0.43935141
-0.61352193 1.0318447 -0.3262262
-0 0 -0
-0.46228898 0.65906119 -0.23632254
-0.91356397 1.6816218 0.59123451
-0 0 0
-0 0 0
-0.61844444 0.88258666 0.29747489
-0 0 0
-0.58841938 0.99134123 0.29513624
-0.64086276 0.9929536 0.29056337
-0.71375984 1.0211886 0.2934635
-0 0 0
-0.64616072 1.088275 0.27415162
-0.79345602 1.2304184 0.30252823
-1.3583835 1.9464278 0.46666351
-0 0 0
-0.76416117 1.2877811 0.26668054
-1.2896513 2.0020964 0.40079314
-1.3942127 1.9994029 0.38676098
-0.90056002 1.6545857 0.28348404
-1.0280164 1.7344357 0.28321567
-1.3203667 2.0521398 0.31918079
-1.4347594 2.0614581 0.30455995
-0.88374883 1.6243739 0.20908979
-0.95346099 1.6087121 0.19328262
-1.3373467 2.0803652 0.23203854
-1.4044316 2.0199881 0.20780292
-0.8908354 1.6380122 0.14222798
-0.95133746 1.6062795 0.12435689
-1.2865504 2.0024223 0.13619414
-1.395202 2.0081336 0.11625551
-0.89507467 1.6470398 0.074011303
-0.96495634 1.6310916 0.056710277
-1.2943876 2.0168643 0.049278799
-1.4351966 2.0675461 0.027455669
-0.89887989 1.6545924 0.0053569148
-0.96578532 1.633859 -0.012952303
-1.2343159 1.9249623 -0.036800671
-1.4699466 2.1192648 -0.066141084
-0.89940882 1.6576346 -0.063880458
-0.95668465 1.6198181 -0.081445806
-1.0436386 1.6297841 -0.10230531
-1.3402554 1.9332938 -0.14676556
-0.89611799 1.6541858 -0.13280848
-0.94861203 1.6080723 -0.1495609
-0.98535985 1.5393063 -0.16379093
-0 0 -0
-0.90314454 1.6682686 -0.20414253
-0.89406449 1.5171164 -0.20624255
-0.78967261 1.2343198 -0.18547525
-0 0 -0
-0.85997403 1.5916421 -0.26211506
-0.77800119 1.3218585 -0.23687187
-0.68557459 1.0725133 -0.209291
-0.640315 0.92502117 -0.1962056
-0.75177115 1.3939385 -0.28961319
-0 0 -0
-0.65500182 1.0260659 -0.24642533
-0.58257997 0.84218037 -0.21804102
-0.74663252 1.387597 -0.34944355
-0.78446943 1.3356732 -0.35872665
-0.54907638 0.86033154 -0.24666767
-0 0 -0
-0.66490376 1.2385021 -0.36772904
-0.60913146 1.0389196 -0.32727516
-0 0 -0
-0 0 -0
-0.89646447 1.6745607 0.58680689
-0 0 0
-0 0 0
-0 0 0
-0.8820138 1.6450824 0.49837708
-0.59504861 1.0166711 0.3015846
-0.61233026 0.96164513 0.28029695
-0.69366252 1.0055188 0.2877318
-0 0 0
-0 0 0
-0.77695477 1.2212173 0.29908809
-0 0 0
-0 0 0
-0.82833952 1.4156573 0.29210374
-1.2662349 1.9924939 0.39730793
-0 0 0
-0.87964058 1.6400373 0.28006139
-0.92141575 1.5765574 0.25650772
-1.3114699 2.0660627 0.32008865
-0 0 0
-0.87376523 1.6297659 0.20908979
-0.94658351 1.6196848 0.19389947
-1.3005611 2.0506959 0.22783494
-1.4230194 2.0737562 0.212432
-0.89112991 1.6627821 0.14390126
-0.93945086 1.6086401 0.12409103
-1.2817225 2.022084 0.13699393
-1.361953 1.986176 0.11449838
-0.89155591 1.6648329 0.07456363
-0.95895916 1.6438887 0.05694956
-1.2659431 1.9994273 0.048662044
-1.3789667 2.0127947 0.026615744
-0.89154232 1.6653662 0.0053739836
-0.95423126 1.6371624 -0.01293183
-1.0145471 1.6037973 -0.030541178
-1.4038339 2.0507035 -0.06373129
-0.8873359 1.6595967 -0.063745052
-0.94471645 1.6222043 -0.081272796
-1.0330855 1.6353128 -0.10225251
-1.3080786 1.9118276 -0.1445239
-0.89299756 1.672853 -0.13386476
-0.93772483 1.6121391 -0.14940119
-0.98227817 1.5554291 -0.16486205
-0.97618502 1.4276558 -0.17177255
-0.91254604 1.7106229 -0.20863622
-0.85479838 1.4710484 -0.1992631
-0.76355129 1.2097783 -0.18108009
-0 0 -0
-0.76693988 1.4405196 -0.23644844
-0.87900764 1.5146575 -0.27044907
-0.77266967 1.2252676 -0.23816989
-0.6479643 0.94845486 -0.20032901
-0.81752431 1.5383775 -0.31857446
-0.65055549 1.1222192 -0.24988566
-0.61892271 0.98279214 -0.23511595
-0.61821115 0.90551442 -0.23345175
-0.73856169 1.3930147 -0.34966007
-0.74745452 1.2907212 -0.34541538
-0.58262902 0.92537606 -0.26428679
-0.62737495 0.91824853 -0.28076592
-0.76586044 1.4477988 -0.42846885
-0.53368074 0.92316872 -0.28977489
-0 0 -0
-0.47094736 0.68924379 -0.24505436
-0.88260663 1.6732692 0.58444548
-0 0 0
-0 0 0
-0 0 0
-0.88408816 1.6735289 0.50534201
-0.58637822 1.0161078 0.30034453
-0.63689411 1.0139002 0.29438344
-0.73458987 1.0789505 0.30744886
-0 0 0
-0.58096397 1.0064012 0.2517114
-0.79912108 1.2732416 0.31062263
-0 0 0
-0 0 0
-0.70402247 1.2203125 0.25090063
-1.2712709 2.0277979 0.40278462
-1.3740114 2.0228972 0.38801464
-0.84137648 1.5920725 0.27098393
-0.90183628 1.5650212 0.25372565
-1.3187653 2.1060052 0.32501706
-1.3943133 2.0567236 0.30130967
-0.87024659 1.6473972 0.21066275
-0.93315119 1.6194295 0.1931798
-1.2409558 1.9835171 0.21952116
-1.391271 2.0543966 0.20957038
-0.86973614 1.6470573 0.14207587
-0.92856699 1.6126448 0.1239581
-1.1999513 1.919019 0.12951012
-1.3754925 2.0325489 0.11668292
-0.88318914 1.673807 0.074721433
-0.95931971 1.6679376 0.057577681
-1.0211403 1.6348963 0.039636847
-1.3217843 1.9549487 0.025743097
-0.88830525 1.6840726 0.0054166568
-0.94117844 1.6377846 -0.012890885
-1.0179209 1.6311986 -0.030943459
-1.3917843 2.0601072 -0.063756928
-0.89437139 1.6977266 -0.064997606
-0.93971968 1.6366345 -0.081705324
-1.026729 1.6475536 -0.10262205
-1.3962982 2.0678778 -0.15566987
-0.90082562 1.712732 -0.13661106
-0.9362455 1.6325626 -0.15075865
-0.9653427 1.5495914 -0.16361241
-0 0 -0
-0.89324367 1.6994683 -0.20660336
-0.89661014 1.5650312 -0.21124448
-0.88195807 1.4165666 -0.21121825
-0.85816729 1.2724051 -0.20960735
-0.83256203 1.5871766 -0.25967747
-0.84221256 1.4719856 -0.26190215
-0.72448266 1.1646322 -0.22551511
-0.61790109 0.91647279 -0.19276942
-0.8313399 1.5878096 -0.32774857
-0.70115292 1.226788 -0.27220699
-0.6827026 1.0989654 -0.26190132
-0.57711983 0.85656637 -0.21991529
-0.77158552 1.4771312 -0.36957881
-0.73662257 1.2902069 -0.34406173
-0.65283978 1.05114 -0.29905516
-0.59408444 0.88108152 -0.268282
-0.74041933 1.4207276 -0.41910481
-0.60828227 1.0672762 -0.33383116
-0.59280175 0.95503026 -0.31737599
-0.44847015 0.66507208 -0.23547752
-0.88245606 1.6981525 0.59123451
-0 0 0
-0.59061956 0.95157266 0.32078525
-0 0 0
-0.87201875 1.6754938 0.50431013
-0.58779728 1.0331589 0.30431274
-0.62605757 1.0103599 0.29223466
-0.68018532 1.0123394 0.28727323
-0 0 0
-0.5617258 0.98701292 0.24599551
-0.77737504 1.2556393 0.30515888
-1.3529379 2.0167325 0.47746679
-0 0 0
-0.59625351 1.0483203 0.21478215
-1.2432446 2.0103986 0.39780584
-1.3516749 2.0165231 0.38519388
-0.8557952 1.6436915 0.27887091
-0.90640193 1.5954951 0.25775966
-1.2656953 2.0491004 0.31503052
-1.3838755 2.0685408 0.30179122
-0.86516798 1.6624017 0.21189862
-0.91386187 1.6086918 0.19122642
-1.2617031 2.0444722 0.2254062
-1.3852834 2.0728364 0.21058036
-0 0 0
-0.92308766 1.6261215 0.12455628
-0 0 0
-1.3530098 2.0259986 0.1158281
-0 0 0
-0.9451232 1.6668364 0.057338394
-0 0 0
-1.3591577 2.0370514 0.026713917
-0.90147191 1.7347457 0.0055617462
-0.93899804 1.6574496 -0.013000072
-0 0 -0
-1.3885446 2.0827482 -0.064192742
-0.88163555 1.698747 -0.064828344
-0.9237541 1.6319364 -0.081186287
-1.0040498 1.6334049 -0.10135511
-1.359786 2.0406921 -0.15299234
-0.89534765 1.7279696 -0.13738565
-0.91934252 1.6261283 -0.14964074
-0 0 -0
-0.8637256 1.2970657 -0.15477321
-0.88279915 1.7049171 -0.20660336
-0.91629624 1.6223919 -0.21822391
-0.83223486 1.3551655 -0.20129777
-0.81301433 1.221559 -0.20040575
-0.79781896 1.5438985 -0.25179106
-0 0 -0
-0.71783894 1.1698966 -0.22567734
-0.62099713 0.93336982 -0.19551836
-0.77333283 1.499336 -0.30850098
-0.83628732 1.4842958 -0.32819957
-0.66365665 1.0830767 -0.25713947
-0.57131171 0.85927695 -0.21970706
-0.76608104 1.4887825 -0.37131083
-0.71149021 1.2641391 -0.33593962
-0.64739335 1.0567837 -0.29952502
-0 0 -0
-0.77763939 1.514752 -0.44542542
-0.69909436 1.2442985 -0.38785255
-0 0 -0
-0.44650713 0.67100662 -0.2366042
-0.87158442 1.7026849 0.59093934
-0.87352574 1.5565807 0.53014517
-0 0 0
-0 0 0
-0.86172169 1.680813 0.50431013
-0 0 0
-0 0 0
-0.67234725 1.0140601 0.28658542
-0 0 0
-0.56426644 1.0057834 0.24980611
-0.82171494 1.3456372 0.32579964
-0 0 0
-0 0 0
-0.72221631 1.2881132 0.26299855
-0 0 0
-1.3501736 2.0412538 0.38832808
-0 0 0
-0.88595015 1.5820183 0.25469938
-1.2479396 2.0483603 0.31373358
-1.3678755 2.0720222 0.30106893
-0 0 0
-0.90883398 1.6229478 0.19225453
-1.2506877 2.0547268 0.22568645
-1.3489498 2.0455275 0.20696127
-0.86173683 1.6815653 0.14412943
-0.91747779 1.6395916 0.12515448
-0 0 0
-1.3290108 2.0167472 0.11483081
-0.87123561 1.7014177 0.075471014
-0.94853288 1.6970345 0.058175888
-0.99217451 1.6327791 0.039287355
-1.3801751 2.0962987 0.027379312
-0.877141 1.7135398 0.0054763998
-0.91467106 1.6378611 -0.012802171
-0.99056238 1.6316016 -0.030718179
-1.3510151 2.053647 -0.063039117
-0.87756473 1.716583 -0.065302283
-0.9195649 1.648043 -0.081705324
-0.9888314 1.6309956 -0.10082721
-1.3055662 1.9856176 -0.14825998
-0.87339133 1.7112188 -0.13562521
-0.91905236 1.6491531 -0.15123776
-0.93954313 1.5502478 -0.16245204
-0.97433174 1.482806 -0.17622007
-0.8768388 1.7191588 -0.2076733
-0.94255781 1.6930684 -0.22694823
-0.80488694 1.3288497 -0.19665147
-0.72065657 1.0973295 -0.17929615
-0.84354985 1.6572487 -0.26942793
-0.89227915 1.6048638 -0.2835747
-0.71984309 1.1894747 -0.22859767
-0.65742904 1.001397 -0.20891945
-0.75654417 1.489144 -0.30544296
-0.84861791 1.5280291 -0.33671194
-0.63722777 1.054414 -0.24940148
-0 0 -0
-0.7503112 1.4803927 -0.36806321
-0.7316044 1.318743 -0.34925085
-0.64542085 1.0682237 -0.30163932
-0 0 -0
-0.59414637 1.1750185 -0.34444544
-0.59373689 1.0721278 -0.33304444
-0 0 -0
-0.45080784 0.68656677 -0.24111097
-0.85853976 1.7028818 0.58916825
-0.91221374 1.64915 0.55975586
-0.65641552 1.0871307 0.36374021
-0 0 0
-0.85182774 1.6869313 0.50456816
-0 0 0
-0.60308409 1.0005013 0.28722084
-0.66824406 1.0214247 0.28750253
-0.85716635 1.69743 0.43185365
-0.56848943 1.0280429 0.25446349
-0.85739899 1.4236394 0.34340495
-0 0 0
-0 0 0
-0.83287257 1.5070788 0.3066563
-0.85197043 1.4162471 0.27814877
-1.3300662 2.037921 0.38613415
-0.85829949 1.6990844 0.28646025
-0.8987183 1.6281723 0.26123726
-1.1965356 1.9913843 0.3038767
-1.3497176 2.0720582 0.29986513
-0.85769117 1.6986167 0.21515688
-0.902704 1.6354606 0.193077
-0.97978646 1.6321343 0.17860615
-1.3233303 2.0337212 0.20494133
-0.85679418 1.6975029 0.14504212
-0.89968991 1.6312108 0.12409103
-0.976946 1.6283041 0.10865825
-1.3236898 2.0357502 0.11544818
-0.85852969 1.7022705 0.07527376
-0.91543341 1.6616749 0.056770097
-0.96980274 1.6182543 0.038793948
-1.3324233 2.0510614 0.026681192
-0.86165833 1.7090675 0.005445106
-0.90412194 1.6425667 -0.012795347
-0.97436881 1.6273546 -0.030525086
-1.3068204 2.0132642 -0.061552223
-0.866566 1.7210426 -0.065268427
-0.90943539 1.6536543 -0.081705324
-0.97214317 1.6258901 -0.10014095
-1.0706463 1.6503016 -0.12273013
-0.87317938 1.7370443 -0.13724482
-0.90459704 1.6468982 -0.1505191
-0.9330793 1.5611132 -0.1629876
-0.9738766 1.502116 -0.17780142
-0.8609181 1.7138451 -0.20638938
-0.89775133 1.6361264 -0.2185729
-0.91729426 1.5356164 -0.22641291
-0.73115158 1.1283387 -0.18362634
-0.83070421 1.6570852 -0.26856759
-0.86246812 1.5739075 -0.27716452
-0.85867834 1.4387437 -0.27548534
-0.73482358 1.1343958 -0.23572162
-0.75487542 1.5087131 -0.30850098
-0.8477127 1.5487118 -0.34011689
-0.65784252 1.1037682 -0.26011562
-0.53627539 0.82845414 -0.21012741
-0.77478617 1.552229 -0.38473433
-0.71508616 1.3078212 -0.34518981
-0.74632502 1.2525278 -0.35238239
-0.52821308 0.81537515 -0.24527241
-0.64816231 1.3016157 -0.38038316
-0.58021241 1.0630451 -0.32911086
-0.53277594 0.89466941 -0.29400754
-0.4533689 0.69978857 -0.24477267
-0.85189891 1.7158196 0.59182483
-0.90345407 1.6572412 0.56061
-0 0 0
-0 0 0
-0.85651767 1.7224045 0.51359671
-0 0 0
-0.59048313 0.99333143 0.28411704
-0.68413514 1.0598527 0.29713178
-0.84543234 1.7000381 0.43118927
-0 0 0
-0.8561489 1.4415035 0.34644037
-0.88343674 1.3707598 0.32062617
-0.94429284 1.8977517 0.39937308
-0.860811 1.5804631 0.32050756
-0.91621989 1.5444254 0.30221295
-1.3940008 2.1647871 0.40854371
-0.83112103 1.6706752 0.28080544
-0.89817554 1.6510539 0.26401934
-1.012943 1.7095058 0.25990993
-1.3439558 2.0911574 0.30143008
-0.83840394 1.6860527 0.21290982
-0.87886775 1.6156288 0.19009551
-0.94845134 1.6021318 0.1746828
-1.3102882 2.0409641 0.20485716
-0.87210387 1.7545153 0.14945348
-0.88728142 1.6323173 0.1237587
-0.96032757 1.6230978 0.10791557
-1.2566988 1.9589194 0.11065169
-0.84984648 1.711086 0.075431563
-0.89806634 1.6540841 0.056321442
-0.96443307 1.6319209 0.038978975
-1.0710667 1.6710993 0.021652563
-0.87739277 1.7671671 0.005612954
-0.89927125 1.657752 -0.012870412
-0.96080667 1.6272757 -0.030412447
-1.0550705 1.6474704 -0.050169807
-0.86486912 1.7442354 -0.065945484
-0.9026041 1.665352 -0.082008101
-0.96569896 1.637846 -0.10051048
-1.0551195 1.6484338 -0.12210745
-0.8647173 1.7468393 -0.13759692
-0.8958984 1.6550475 -0.15075865
-0.94573551 1.6045636 -0.16691501
-0.96035177 1.5013571 -0.17701074
-0.8490634 1.7164217 -0.2060684
-0.88769537 1.6416041 -0.2185729
-0.89728057 1.523265 -0.22377582
-0.81547505 1.2755519 -0.2067657
-0.81964469 1.6603762 -0.2682808
-0.83448017 1.545256 -0.27121219
-0.87335736 1.4839544 -0.28311068
-0.72095269 1.1280921 -0.2334881
-0.75647283 1.5353767 -0.31299809
-0.83959258 1.5564767 -0.34068438
-0.6704253 1.1407385 -0.26785362
-0.56224221 0.8803634 -0.22241434
-0.7553426 1.5368019 -0.37975463
-0.74494213 1.3825104 -0.36369017
-0.76620096 1.3040147 -0.365538
-0 0 -0
-0.65464497 1.3351021 -0.38898799
-0.63813192 1.1864166 -0.36608663
-0.51558077 0.87800479 -0.28748614
-0.44183189 0.69123864 -0.24082927
-0 0 0
-0.88782448 1.65262 0.5571934
-0 0 0
-0 0 0
-1.06687 2.1788411 0.64773548
-0 0 0
-0.62562716 1.0673078 0.30417234
-0 0 0
-1.0331173 2.1098158 0.53350538
-0.81108773 1.5102228 0.37132195
-0.8928197 1.5244745 0.3650575
-0.83710277 1.3165379 0.30673623
-0.95727593 1.9538113 0.40992674
-0.9269883 1.727111 0.34908673
-0.87336504 1.4929883 0.29109362
-1.3076055 2.0582576 0.38691768
-0 0 0
-0.88522065 1.6512972 0.26318473
-0.93540549 1.6009672 0.2425307
-1.2960144 2.04403 0.29348502
-0.87829328 1.7937952 0.22583045
-0.87880683 1.6394014 0.19225453
-0.9496454 1.626838 0.17673789
-1.2630844 1.9942479 0.19938646
-0.8332687 1.7025157 0.14458577
-0.88384485 1.6500446 0.12468921
-0.95085347 1.629822 0.1079727
-1.0721132 1.6939713 0.095312424
-0.84591615 1.7297328 0.07602334
-0.88931471 1.6622074 0.056411169
-0.95893204 1.6455822 0.039164003
-1.0650681 1.684401 0.021739827
-0.88761455 1.8156401 0.0057495087
-0.87871152 1.6438371 -0.01272028
-0.94677919 1.6262276 -0.030283717
-1.0433401 1.6513778 -0.050092898
-0.93789929 1.9210474 -0.072411396
-0.88672078 1.6602837 -0.081489056
-0.956635 1.6454673 -0.10061606
-1.0359261 1.6405306 -0.12104889
-0.87758297 1.8005329 -0.14139949
-0.90496087 1.6965734 -0.15403254
-0.93286949 1.6051694 -0.16637945
-0.96811533 1.5341511 -0.18017341
-0.8485291 1.7421583 -0.20852923
-0.88274366 1.656662 -0.21985246
-0.89140499 1.534747 -0.22465484
-0.78384805 1.2428195 -0.20067638
-0.82674646 1.7009782 -0.27401638
-0.7971276 1.4980001 -0.26205477
-0.90336138 1.5567086 -0.29592773
-0.64781696 1.027495 -0.21184018
-0.738451 1.5222883 -0.30940038
-0.79453939 1.4948344 -0.32611874
-0.71058935 1.226241 -0.286901
-0.53023964 0.84159291 -0.21179344
-0.62214929 1.2856781 -0.31675088
-0.68436408 1.2889632 -0.33797014
-0.73918188 1.2758901 -0.35637605
-0.69399256 1.1006484 -0.32849857
-0.75789589 1.5699719 -0.45605487
-0.63942611 1.2065103 -0.37106919
-0 0 -0
-0.47289586 0.74993861 -0.26026464
-1.1481739 2.3856091 0.81792849
-0.87856442 1.6597309 0.5577628
-0 0 0
-0.61600828 0.97793478 0.31902716
-1.0434116 2.164459 0.64154446
-0.86794442 1.640707 0.47519416
-0.63024276 1.0904639 0.30966368
-0 0 0
-1.0510659 2.1802397 0.54967219
-0 0 0
-0.62487847 1.0821413 0.25821137
-0.77947694 1.2426831 0.28840923
-1.0302329 2.1357865 0.44677204
-0.93892622 1.7754111 0.35767806
-0.70061296 1.2147148 0.23599495
-1.2587622 2.0084977 0.37610468
-0 0 0
-0.8681342 1.6435633 0.26109815
-0.92061502 1.5980847 0.24123375
-1.2829217 2.0511017 0.29336464
-1.0592779 2.1974702 0.27582777
-0.86454999 1.6368469 0.19132923
-0.9202764 1.5989805 0.17309476
-1.2724719 2.0366082 0.2028372
-0.98122174 2.0363605 0.17242292
-0.86811501 1.6448475 0.12389163
-0.93685281 1.6287024 0.10751568
-1.0807427 1.7310202 0.097022057
-1.0039047 2.0851099 0.091370039
-0.87816668 1.6658643 0.056351349
-0.95329946 1.6592371 0.039349027
-1.0192559 1.6340601 0.021008985
-1.0399528 2.1607535 0.0068220291
-0.87746245 1.6660085 -0.01284994
-0.94076514 1.6389437 -0.030412447
-1.0204977 1.6373872 -0.049477633
-0.98670816 2.052875 -0.077150799
-0.89698744 1.7045949 -0.083392203
-0.94801033 1.653905 -0.10077442
-1.0137035 1.6273717 -0.11961673
-0.94376302 1.9668664 -0.15400432
-0.89499754 1.7029765 -0.1541124
-0.93191588 1.6264187 -0.16798612
-0.94448489 1.517253 -0.17750491
-0.91434091 1.9069138 -0.22757398
-0.88225704 1.6805145 -0.22229527
-0.88542223 1.5462142 -0.22553389
-0.88350523 1.4200665 -0.22841655
-0.78383005 1.638171 -0.2631188
-0.81224239 1.549253 -0.27014384
-0.88987243 1.5553703 -0.29462981
-0.82151568 1.3208926 -0.27128604
-0.80666906 1.6892341 -0.34231916
-0.79765189 1.5231683 -0.33122617
-0.85912359 1.503756 -0.35059062
-0.5410707 0.87058252 -0.21824929
-0.71333474 1.4974791 -0.36784673
-0.69179541 1.3224884 -0.34564102
-0.70000297 1.2255392 -0.34110615
-0.68312937 1.0982996 -0.32654032
-0.53066677 1.1167202 -0.3234396
-0 0 -0
-0.59398437 1.0405582 -0.33829889
-0.46524459 0.74793762 -0.2585746
-1.0152951 2.1430733 0.7326231
-0.87545627 1.67869 0.56231833
-0 0 0
-0.59015483 0.94976449 0.30865017
-1.0673889 2.2493784 0.66476077
-0.87532252 1.6795058 0.48486665
-0.56873381 0.99812597 0.28244576
-0 0 0
-1.0610807 2.2359841 0.56207412
-0 0 0
-0.5993312 1.0527638 0.25031936
-0.81210703 1.3125263 0.30345666
-1.0234313 2.1553836 0.44954932
-0 0 0
-0.77991152 1.3715789 0.2655358
-1.2562822 2.032145 0.37908217
-0 0 0
-0.86946136 1.6708205 0.26457575
-0.91568875 1.6123254 0.2425307
-1.2572807 2.0378134 0.29035518
-1.0496083 2.212008 0.27683896
-0.86229593 1.6571214 0.193077
-0.91634399 1.6149886 0.17421573
-1.2291063 1.9943285 0.19787148
-1.0016111 2.1117122 0.17827936
-0.84419698 1.6235852 0.12189767
-0.929304 1.6387625 0.10780132
-1.0947192 1.7775936 0.099254094
-1.0535699 2.2230611 0.097129978
-0.87483883 1.6845273 0.056800008
-0.94852072 1.6746246 0.039575171
-1.0013504 1.6275086 0.020845365
-1.0121183 2.1363678 0.0067253034
-0.87505287 1.6864504 -0.012965951
-0.93512291 1.6525171 -0.030557267
-1.0067668 1.6376567 -0.049298178
-1.0211098 2.1582668 -0.080874629
-0.88651133 1.7100666 -0.083392203
-0.92851013 1.6431723 -0.099771433
-1.0021316 1.6310099 -0.11942992
-1.1276399 2.3875289 -0.18639663
-0.89186436 1.7225993 -0.15539001
-0.92338842 1.6347079 -0.1682539
-0.93411601 1.5213236 -0.17730723
-0.8831023 1.8711274 -0.2226523
-0.87877303 1.6991293 -0.22404014
-0.88079518 1.5602572 -0.22678964
-0.79600394 1.2971017 -0.20784822
-0.75605357 1.6053454 -0.25709647
-0.84126985 1.6288449 -0.28311685
-0.85655916 1.518687 -0.28667998
-0.73509508 1.1982719 -0.24517109
-0.72808343 1.5490407 -0.31299809
-0.79594427 1.5428693 -0.33444196
-0.85565221 1.5192471 -0.35297152
-0.53060693 0.86554748 -0.21616675
-0.60632521 1.2932161 -0.31675088
-0.66001606 1.2808105 -0.33368346
-0.77211368 1.3712566 -0.38033804
-0 0 -0
-0.51929623 1.1103156 -0.32065567
-0.57248777 1.1130058 -0.34012491
-0.5908922 1.0500543 -0.34020099
-0.46616632 0.75977451 -0.26167297
-1.002934 2.1509948 0.73321348
-0.86645365 1.686588 0.56317246
-0.69300216 1.231589 0.40476763
-0.59388673 0.96898317 0.31370562
-1.0184071 2.1806018 0.64257628
-0.84686011 1.6495107 0.4746981
-0.61396021 1.0930359 0.30823115
-0.71223801 1.1651863 0.32166353
-1.0316597 2.2088776 0.55365849
-0.88316691 1.719638 0.41874278
-0.56266606 1.0026182 0.23757066
-0.7355442 1.2052513 0.27760592
-1.0276611 2.1990147 0.45732567
-0 0 0
-0.86695182 1.5466605 0.29839587
-1.2427611 2.0381286 0.37876874
-0 0 0
-0.83976859 1.6382304 0.25859427
-0.90868467 1.6231048 0.24330887
-1.2333997 2.0268326 0.28770679
-1.018777 2.181493 0.27223244
-0.86027902 1.6783146 0.19492759
-0.90981942 1.6266633 0.17486963
-1.0496657 1.7268041 0.17068624
-1.0130979 2.1702216 0.18269071
-0.86787885 1.6944523 0.12681611
-0.93871677 1.6792918 0.11008646
-0.99511766 1.6382909 0.091133304
-1.018368 2.1833003 0.095117934
-0.86312068 1.6871939 0.056710277
-0.92653024 1.6594626 0.039081767
-0.98460144 1.6225091 0.02070356
-0.99603271 2.1361938 0.0067053894
-0.86150289 1.685555 -0.012918182
-0.90743071 1.6267883 -0.029977983
-0.99151641 1.6352552 -0.049041819
-1.010379 2.1699278 -0.081077747
-0.87191272 1.707466 -0.083002925
-0.92375559 1.658435 -0.10035212
-0.99003595 1.6337138 -0.11918085
-1.0280353 2.2116795 -0.17217219
-0.87946647 1.7244873 -0.15507062
-0.92642295 1.6638385 -0.17066389
-0.95363045 1.5746931 -0.18284191
-0.89254659 1.9215975 -0.22800194
-0.86652744 1.7009493 -0.22357483
-0.86638111 1.5569633 -0.22553389
-0.87165576 1.4401255 -0.22990504
-0 0 -0
-0.8070612 1.5864102 -0.27487516
-0.87982857 1.5825593 -0.29771239
-0.82564324 1.3645887 -0.27815837
-0.73714852 1.5936551 -0.32109284
-0.80959362 1.5932454 -0.34427848
-0.80873191 1.4567716 -0.33729714
-0.62649715 1.0361832 -0.25781736
-0 0 -0
-0.76546538 1.5080969 -0.39166632
-0.73349631 1.3215755 -0.36530307
-0.66658843 1.1016227 -0.3250716
-0.51004678 1.1082079 -0.31913719
-0.55954206 1.1044461 -0.33645359
-0.61851472 1.1150955 -0.36003697
-0.45752153 0.75605333 -0.25941962
-1.0283651 2.241343 0.76184535
-0.84353727 1.6670678 0.55491567
-0.86075366 1.5519183 0.50830007
-0.59391403 0.98250836 0.31689858
-1.0029907 2.18242 0.64128649
-0.85726947 1.6953081 0.48635474
-0 0 0
-0.60356039 1.0011482 0.27535132
-1.0176797 2.2142801 0.55343705
-0.91318482 1.8052584 0.43821922
-0.55650353 1.0060518 0.23757066
-0.72914708 1.2114233 0.27799177
-1.0096325 2.1954579 0.45528904
-0.8594507 1.7001373 0.33926812
-0.86507559 1.5657614 0.30105123
-1.002713 1.6673812 0.30871925
-1.0141119 2.2057056 0.36532983
-0.84309024 1.6698723 0.2627674
-0.90014553 1.6312543 0.24369796
-1.1637245 1.9390283 0.27422431
-1.0120113 2.2021494 0.27403009
-0.85848242 1.7004327 0.19688097
-0.91279948 1.6557567 0.17739178
-1.0206058 1.7024451 0.16765632
-1.0018437 2.1809273 0.18307099
-0.8610608 1.7068723 0.12734784
-0.89900643 1.63168 0.10660162
-0.99377286 1.658933 0.091940634
-0.95576775 2.0823483 0.090462647
-0.85949844 1.7058479 0.057158936
-0.91102821 1.6554812 0.038855623
-0.98181641 1.6405321 0.020856272
-0.94829422 2.0668268 0.0064692642
-0.85114431 1.6908092 -0.012918182
-0.90706617 1.6498492 -0.030299809
-0.97325516 1.6275806 -0.048631642
-1.0257704 2.2387798 -0.083413601
-0.87309057 1.7359898 -0.084127501
-0.91260105 1.662321 -0.10024653
-0.98306513 1.6448982 -0.11955446
-1.0144453 2.2179458 -0.17217219
-0.87468493 1.7414309 -0.15610866
-0.92386335 1.6834623 -0.17209205
-0.95160401 1.5933298 -0.18432441
-0.88611197 1.9387937 -0.22939284
-0.86320084 1.7204381 -0.22543602
-0.87064636 1.5874755 -0.22917557
-0.89530402 1.4998956 -0.23856539
-0.80898172 1.7738817 -0.28247634
-0.78226 1.5612905 -0.26968595
-0.82126212 1.4987966 -0.28100157
-0.86218107 1.4449207 -0.29344934
-0.75302756 1.6545534 -0.33242553
-0.7431131 1.4849051 -0.31987634
-0.8247124 1.5072774 -0.34781289
-0.67322403 1.1290554 -0.27989221
-0.57467091 1.2658895 -0.30830708
-0.69739175 1.3951253 -0.36120841
-0.73097122 1.3362845 -0.36812213
-0.76862651 1.2880313 -0.37867904
-0.4992466 1.1025037 -0.31660634
-0.60790098 1.2183852 -0.37002024
-0.61258417 1.1205585 -0.36058041
-0 0 -0
-0 0 0
-0.8392781 1.684224 0.55890167
-0.90239865 1.6508033 0.53886414
-0.57405359 0.96295041 0.30944839
-0 0 0
-0.83389574 1.674521 0.47891435
-0 0 0
-0.63222575 1.0633991 0.29140007
-0.97554696 2.1573961 0.53771317
-0.85981888 1.7259724 0.41768426
-0.5840705 1.0713556 0.25214058
-0.84540594 1.4242859 0.32564199
-0 0 0
-0.85163528 1.7106668 0.34032014
-0.8804459 1.6169413 0.30984709
-0.96072447 1.6199841 0.29884651
-1.0070798 2.2263021 0.3677108
-0.84076411 1.6909748 0.26527128
-0.90006757 1.6550393 0.24642156
-1.0127591 1.7111952 0.24111997
-1.0074866 2.2282369 0.27650189
-0.86441761 1.7386237 0.20068493
-0.88741273 1.6333315 0.17440256
-0.95537388 1.6160364 0.1585665
-0.98638964 2.1824903 0.18269071
-0.86610895 1.7433994 0.12967412
-0.89707667 1.6520808 0.10757281
-0.95969701 1.6245785 0.089708604
-0.96312332 2.1327963 0.092395775
-0.85123676 1.7155664 0.057308488
-0.90800285 1.6742229 0.039164003
-0.96258366 1.6310248 0.020659925
-0.93148023 2.0634921 0.0064408151
-0.84430677 1.7031674 -0.012972776
-0.8869229 1.6369222 -0.029961893
-0.96375799 1.6343828 -0.048657279
-0.99887109 2.2158751 -0.082330301
-0.87705463 1.7708584 -0.085554861
-0.89905775 1.6617413 -0.099877007
-0.97194022 1.6491796 -0.11942992
-1.0016358 2.2259476 -0.17231302
-0.86044782 1.7396172 -0.15546986
-0.90546161 1.6742058 -0.17057465
-0.93524474 1.587992 -0.18303958
-0.93332171 2.0756812 -0.24490683
-0.84250927 1.7052218 -0.22276056
-0.88211685 1.6320622 -0.23482648
-0.89161253 1.5147532 -0.24005388
-0.84305024 1.8790395 -0.2983925
-0.78884459 1.5988535 -0.27533305
-0.80642396 1.4933884 -0.27905464
-0.8657887 1.4714099 -0.29774457
-0.7006532 1.5648732 -0.31353772
-0.73572415 1.49296 -0.32063299
-0.82056528 1.521799 -0.34999537
-0.80806714 1.3742998 -0.33945259
-0 0 -0
-0.75335467 1.5304878 -0.39505053
-0.69969636 1.297964 -0.35637605
-0.81725794 1.388821 -0.40682909
-0.51373017 1.1532677 -0.33027282
-0.51616001 1.050601 -0.31809679
-0.59063452 1.0963371 -0.35161346
-0 0 -0
-0 0 0
-1.0404886 2.1204987 0.70154554
-0.88131022 1.6359968 0.53225571
-0.63701373 1.0836257 0.34696534
-0 0 0
-1.0616021 2.1649609 0.61730593
-0 0 0
-0.72316056 1.233519 0.33679521
-0 0 0
-1.0803462 2.2024083 0.53136724
-0.80412352 1.4967777 0.35109463
-0.87927634 1.5022737 0.34223276
-0.99819916 2.2426965 0.46250996
-0.99842703 2.0367551 0.40396577
-0.86304778 1.6084101 0.30719173
-0.68802184 1.1765449 0.21626019
-0.99098837 2.2270188 0.36681792
-1.0215282 2.0865524 0.32633793
-0.88005978 1.6421776 0.24369796
-0.94369709 1.6170611 0.22703558
-0.99298769 2.2325609 0.27627715
-1.0299907 2.1039305 0.24211732
-0.89476174 1.6712222 0.17785884
-0.95597845 1.6399462 0.16033398
-0.98837221 2.223124 0.18558089
-1.0084108 2.0614896 0.15287058
-0.89163297 1.6663568 0.10814409
-0.96227962 1.6520145 0.090895846
-0.95488638 2.1496241 0.092869192
-0.84244931 1.7243496 0.057428129
-0.89205807 1.6691816 0.038917299
-0.95054609 1.6334435 0.020616295
-0.92448294 2.081964 0.0064806435
-0.90270573 1.8494024 -0.014044172
-0.88486797 1.6573279 -0.030235443
-0.94567174 1.6264383 -0.048247099
-0.97310233 2.1945534 -0.081314713
-1.0076151 2.0662546 -0.099525653
-0.89495188 1.6786821 -0.10056327
-0.96731883 1.6646045 -0.12011488
-0.98674756 2.2293153 -0.17210175
-0.93748277 1.9249964 -0.17151991
-0.91109842 1.7096153 -0.17360947
-0.94497246 1.6272612 -0.18689407
-0.93987221 2.125015 -0.2500425
-0.88112664 1.8112838 -0.23590519
-0.89074033 1.6724695 -0.23984951
-0.89025903 1.5339065 -0.24221896
-0.83350271 1.8887042 -0.29910946
-0.774701 1.594774 -0.27380678
-0.84915924 1.5958728 -0.29722565
-0.90123731 1.5533839 -0.31320736
-0 0 -0
-0.72612107 1.4965628 -0.32044384
-0.79971546 1.5051669 -0.34503514
-0.83101553 1.433386 -0.35278082
-0.81704563 1.8601075 -0.4505527
-0.75414652 1.5561221 -0.40046528
-0.74643642 1.4052439 -0.38456663
-0.74692339 1.287303 -0.37574166
-0.52411467 1.1962739 -0.34166151
-0 0 -0
-0 0 -0
-0.46905082 0.80833191 -0.2743482
-0.99381804 2.2756529 0.76715851
-1.086253 2.2485495 0.7416907
-0.86945248 1.6379771 0.53115427
-0 0 0
-0 0 0
-1.0664086 2.2089477 0.62797052
-0.89383841 1.6869743 0.46938998
-0.59866959 1.0356839 0.28177083
-1.0213072 2.3344862 0.57868391
-1.0663871 2.2081153 0.53115553
-0 0 0
-0.67533702 1.1702486 0.26564518
-0.98441947 2.2487791 0.46250996
-0.99404132 2.0596895 0.4072971
-0.85638893 1.6197779 0.30835345
-0.64921689 1.1259851 0.20623073
-0.9891991 2.2602346 0.37128222
-1.0263349 2.1293554 0.33204117
-0.88339388 1.6729745 0.24745913
-0.92930138 1.615077 0.22595216
-0.99002272 2.2631917 0.2793107
-1.0675911 2.2150493 0.25414607
-0.8663733 1.6423372 0.17421573
-0.9260366 1.6112241 0.15696739
-0.97311491 2.2254925 0.18527667
-0.99444395 2.0649414 0.15267117
-0.85857695 1.6285222 0.1053448
-0.94963771 1.6535569 0.090658396
-0.93847835 2.1481175 0.092553586
-1.0666782 2.217706 0.073639609
-0.88738918 1.6852394 0.039164003
-0.95045799 1.6565917 0.020834455
-0.98132837 2.2470539 0.0069756531
-1.0381653 2.1604524 -0.016357571
-0.8737511 1.6609564 -0.03020326
-0.93965167 1.6391484 -0.048452191
-0.98758399 2.2646103 -0.083684415
-1.0273467 2.1399472 -0.10276964
-0.89299357 1.700055 -0.10151348
-0.95609444 1.6687765 -0.11999033
-0.97305018 2.2353277 -0.17210175
-1.0372664 2.1635125 -0.19220132
-0.88901556 1.6931276 -0.17137797
-0.92508137 1.6157571 -0.18491741
-0.94426531 2.1708584 -0.25475016
-0.92447829 1.9304212 -0.25067836
-0.87585169 1.6691186 -0.23859374
-0.88083041 1.5393401 -0.24221896
-0.85420668 1.9682269 -0.31086734
-0.78366119 1.6387271 -0.28052223
-0.80453092 1.5346338 -0.28489533
-0.85353667 1.4921852 -0.29980627
-0.74824667 1.72771 -0.34429789
-0.8223049 1.7216196 -0.36754566
-0.81273794 1.5525942 -0.35475725
-0.80133414 1.4019445 -0.34382591
-0.48352498 1.11941 -0.27041823
-0.44758946 0.93819064 -0.24073039
-0.60664552 1.159186 -0.31620446
-0.82663268 1.4450337 -0.42029214
-0 0 -0
-0.51982313 1.0917069 -0.32858637
-0.44957757 0.85960627 -0.27389982
-0.49076456 0.85783428 -0.29012182
-0.97682011 2.2746844 0.76479709
-1.0600852 2.2292008 0.73314917
-0.87408739 1.6713933 0.54024094
-0 0 0
-0.97012782 2.2551911 0.65547425
-1.0374497 2.1830752 0.61879402
-0.85785615 1.6433586 0.45578101
-0.60097843 1.0545599 0.28589764
-0.97189552 2.2591918 0.55853069
-1.0469437 2.2022598 0.52819175
-0 0 0
-0.6162256 1.0831157 0.24500316
-0.97176832 2.2574849 0.46306542
-1.0240535 2.155565 0.42500564
-0 0 0
-0.80091739 1.4089998 0.25716156
-0.9745301 2.2644448 0.37098458
-0.99754405 2.1025095 0.32689434
-0.86579037 1.664289 0.24538401
-0.92329246 1.6276566 0.22691521
-0.96473068 2.2427526 0.27605245
-1.0441732 2.2008884 0.25178146
-0.86546242 1.6652912 0.176084
-0.92202753 1.6272793 0.15797736
-0.95077628 2.2112689 0.18360339
-0.98987573 2.088135 0.15393403
-0 0 0
-0.94783998 1.6741296 0.091465734
-0.92094153 2.1437364 0.092119612
-1.0470624 2.2115614 0.073220864
-0.88255668 1.7013024 0.039410703
-0.94765979 1.6754478 0.020998077
-0.96791679 2.2539515 0.0069784978
-1.0360065 2.1902847 -0.016534999
-0.86538351 1.6698372 -0.030267626
-0.93498659 1.6544566 -0.048734188
-0.97012508 2.2623603 -0.083379738
-1.0415152 2.204021 -0.10553785
-0.89356005 1.7267878 -0.10278042
-0.93552959 1.6563621 -0.11868271
-0.96520394 2.255012 -0.17315803
-1.0303531 2.1833584 -0.19339909
-0.87815243 1.697666 -0.17128873
-0.93618214 1.6586666 -0.18916725
-0.92819053 2.1702125 -0.25400123
-0.87916052 1.8650836 -0.24148875
-0.86377144 1.6709362 -0.23809145
-0.91079926 1.6146164 -0.2531797
-0.79744446 1.868752 -0.29437762
-0.79084784 1.6801661 -0.28677979
-0.78830755 1.5263904 -0.2824617
-0.69823396 1.2382464 -0.24792004
-0 0 -0
-0 0 -0
-0.7182945 1.3929113 -0.31725773
-0.79895872 1.4179125 -0.34653318
-0 0 -0
-0.49317047 1.0502671 -0.26870659
-0.58838624 1.1412876 -0.31033143
-0.58914238 1.0446985 -0.30279639
-0 0 -0
-0.50738168 1.0826427 -0.32491502
-0 0 -0
-0 0 -0
-0 0 0
-1.0512636 2.2460823 0.73656583
-0.85368919 1.6570693 0.53390783
-0.71868247 1.2757357 0.40417203
-0.98299193 2.3242805 0.67378938
-1.0150055 2.1700945 0.6133377
-0.84242755 1.6382284 0.45291597
-0.57542676 1.0242828 0.2767269
-0.9549762 2.2579277 0.556759
-1.0313401 2.204216 0.52713323
-0 0 0
-0.61052805 1.088588 0.245389
-0.96364343 2.2769799 0.46584266
-1.022067 2.1858878 0.42973965
-0 0 0
-0.89267701 1.5931007 0.28975731
-0.95368159 2.2539892 0.36830604
-1.0223335 2.1893454 0.33941367
-0.85872757 1.6757472 0.24629186
-0.9103809 1.6280923 0.22619292
-0.94979018 2.2458844 0.27571541
-1.0390661 2.2252796 0.25383765
-0.86566323 1.6909539 0.17823251
-0.91737026 1.6424756 0.15890318
-0.95776653 2.2657373 0.18763445
-0.99307543 2.1285295 0.1564597
-0.8753612 1.7109278 0.1099722
-0.94631207 1.695614 0.092320554
-0.91710091 2.1714387 0.093066461
-1.0326285 2.2161324 0.073161043
-0.86755174 1.6977828 0.039205119
-0.92080557 1.6515365 0.020627201
-0.97118199 2.3003838 0.0071036732
-0.96093315 2.0642421 -0.015538669
-0.85512125 1.6751157 -0.030267626
-0.91216868 1.6374563 -0.048067648
-0.96321356 2.2848473 -0.083989099
-1.0359768 2.227582 -0.10635966
-0.87251759 1.7117751 -0.10156626
-0.9238922 1.6594552 -0.1184959
-0.94554597 2.2471004 -0.17210175
-1.0202959 2.196872 -0.19403788
-0.8826409 1.7323083 -0.17423429
-0.94533902 1.6991631 -0.1931206
-0.89520329 2.1291234 -0.2485446
-0.93582863 2.0173032 -0.26044956
-0.87060857 1.7097996 -0.24286333
-0.91628283 1.6478847 -0.25750989
-0.77064949 1.8371048 -0.28864202
-0 0 -0
-0.80398148 1.5804503 -0.29154721
-0.75331998 1.3553061 -0.27042699
-0.66659623 1.5924857 -0.31569636
-0.53311533 1.1523079 -0.24458906
-0.74435538 1.465453 -0.33273372
-0.78549451 1.4142377 -0.34445065
-0 0 -0
-0.48957747 1.0594639 -0.27028587
-0.54352373 1.0703423 -0.29012814
-0.58601868 1.0542258 -0.30450985
-0 0 -0
-0 0 -0
-0 0 -0
-0 0 -0
-0 0 0
-1.008588 2.1898003 0.71606612
-0.84742069 1.6699917 0.53638595
-0.71832865 1.2936053 0.40842929
-0 0 0
-1.0231382 2.2229223 0.62648243
-0.85473734 1.6875478 0.46509242
-0.53235209 0.96137518 0.25884399
-0.9605698 2.3105683 0.56827515
-1.0112559 2.1962988 0.52374607
-1.0293497 2.0342305 0.4710941
-0.60526127 1.0948899 0.24596775
-0.94361484 2.2683327 0.46288022
-1.0061662 2.1867516 0.42868766
-0.95319563 1.8861016 0.35565203
-0.85137057 1.5414879 0.27941445
-0.94439018 2.2707553 0.37009177
-1.0154964 2.2099743 0.34163937
-0.85379058 1.6916071 0.24784823
-0.90995753 1.6510361 0.2286005
-0.93980598 2.2608454 0.27683896
-1.0199934 2.2198632 0.25250113
-0.85482317 1.6953446 0.17813909
-0.91832757 1.6681508 0.16083896
-0.93504667 2.2503934 0.18588512
-0.98665732 2.1490915 0.15752316
-0.86170179 1.7100258 0.1095723
-0.91711456 1.6672558 0.090468444
-0.89686394 2.1604135 0.092356324
-1.0006806 2.1824486 0.07184498
-0.85981476 1.7084324 0.039328471
-0.91498882 1.6650424 0.020725375
-0.94823337 2.2850561 0.0070382408
-0.93242407 2.0355523 -0.01527935
-0.8461743 1.6830111 -0.0303159
-0.90739661 1.6526614 -0.048349645
-0.95835769 2.3128736 -0.084801562
-1.0227048 2.2348051 -0.10640291
-0.87230241 1.7376231 -0.10278042
-0.90697074 1.652843 -0.11762415
-0.93364644 2.2574689 -0.17245385
-1.0084541 2.2067175 -0.19435728
-0.86484748 1.723448 -0.17280613
-0.91575724 1.6700301 -0.18916725
-0.84604764 2.0472817 -0.23838027
-0.93044442 2.0383673 -0.26242706
-0.83830941 1.6716552 -0.23671012
-0.86520356 1.5787523 -0.24587254
-0.71070015 1.7237701 -0.27014485
-0.78492582 1.7221186 -0.29227424
-0.79471087 1.586236 -0.29170945
-0.75587595 1.3797743 -0.2743786
-0 0 -0
-0.76159108 1.6730111 -0.35411501
-0.74850428 1.4962896 -0.33868602
-0.66314667 1.2114096 -0.29405341
-0 0 -0
-0.78952104 1.7364548 -0.44175267
-0.53955466 1.0788734 -0.2915377
-0.74585366 1.361367 -0.39189732
-0 0 -0
-0.49086773 1.0817574 -0.32281709
-0 0 -0
-0 0 -0
-0 0 0
-1.0414271 2.298105 0.74937814
-0.83844715 1.6777399 0.53721201
-0.90243423 1.6489105 0.51885152
-0 0 0
-0.96671838 2.1347327 0.59994501
-0.81749254 1.6388842 0.45028967
-0 0 0
-0.9238767 2.2613518 0.55476582
-1.0042133 2.2167063 0.52713323
-0.87751234 1.7609025 0.40654126
-0.85014981 1.5604188 0.34937066
-0 0 0
-0.98339105 2.1722558 0.42465502
-0.86339402 1.7347703 0.32611117
-0.86361641 1.5865861 0.28662312
-0 0 0
-1.0002853 2.2125542 0.34108296
-0.83898163 1.6879348 0.24655128
-0.89507151 1.6478649 0.22739671
-0.94132286 2.3042841 0.28144541
-1.0071729 2.2278929 0.25270674
-0.84971821 1.7112588 0.17926006
-0.88906735 1.6387199 0.15747237
-0.93139815 2.2810125 0.18793869
-0.97591662 2.1605611 0.15792195
-0.87737674 1.7680451 0.11294288
-0.89829838 1.6570452 0.089613624
-0.91038936 2.2315648 0.095157392
-0.96548647 2.1402574 0.070259728
-0.8528676 1.7208424 0.039492939
-0.90332651 1.6679875 0.02069265
-0.91644716 2.2473109 0.0069045308
-0.93018812 2.0640271 -0.015449955
-0.85712665 1.7311821 -0.03108828
-0.89343315 1.6511644 -0.048144557
-0 0 -0
-1.0069224 2.2364833 -0.10618665
-0.90189523 1.8244054 -0.10758422
-0.89728677 1.6592549 -0.11768642
-0.9133926 2.2474451 -0.17125675
-0.99325997 2.2092271 -0.19403788
-0.84763765 1.7153282 -0.17146724
-0.91211617 1.6878741 -0.19055092
-0.80578721 1.9842656 -0.23046277
-0.90245831 2.0096085 -0.25800675
-0.83199 1.6847732 -0.23784028
-0.85550022 1.5840313 -0.24587254
-0.72723734 1.7950577 -0.28061226
-0.84268075 1.8793027 -0.31806764
-0.78452641 1.5901974 -0.29154721
-0.8218075 1.5222181 -0.30169615
-0.70746452 1.7501127 -0.34519732
-0.71759868 1.6023734 -0.33822525
-0.81207067 1.6485656 -0.3720189
-0.7889775 1.4625067 -0.35382208
-0 0 -0
-0 0 -0
-0.72831601 1.478928 -0.39842701
-0.7471599 1.3838344 -0.39703777
-0 0 -0
-0.47753391 1.0697688 -0.31835902
-0 0 -0
-0 0 -0
-0 0 0
-0 0 0
-0 0 0
-0.89046937 1.651023 0.51778722
-0.902614 2.2487316 0.64696157
-1.0214063 2.2928305 0.64260334
-1.0694263 2.177299 0.596407
-0 0 0
-0 0 0
-1.0140648 2.2754955 0.5396235
-1.0530578 2.1460555 0.49396083
-0.88186777 1.6425462 0.36654016
-0.93145812 2.3189533 0.47084183
-1.0004828 2.2466002 0.43798026
-0.99463862 2.0295982 0.38038003
-0.85619926 1.5962069 0.28740665
-0.92935079 2.3142908 0.37530011
-0.99795771 2.2439854 0.34497783
-1.0753171 2.1971364 0.31995893
-0.89009672 1.6629536 0.22872089
-0.90495872 2.2546868 0.27470422
-0.99227136 2.2313042 0.25239831
-1.0158763 2.0777962 0.21699901
-0.88839161 1.6617193 0.15915567
-0.92221093 2.2987149 0.18892744
-0.96426189 2.1701558 0.15818781
-0.95022637 1.9447249 0.12385441
-0.89517373 1.6757414 0.090325974
-0.91712624 2.2881205 0.097327232
-0.94544369 2.130609 0.06975124
-0.92340887 1.8922681 0.04329627
-0.89825356 1.6832029 0.02081264
-0.92272425 2.3030181 0.0070581548
-0.93574256 2.1108336 -0.015757041
-1.0099148 2.0716472 -0.037090313
-0.88986957 1.6689649 -0.048503462
-0.91097087 2.2771358 -0.083075069
-0.98792136 2.2307441 -0.10562436
-0.93482482 1.9205922 -0.11291593
-0.89929223 1.6876303 -0.11930539
-0.89995521 2.2539337 -0.17132716
-0.98049206 2.2171035 -0.1941976
-0.91858387 1.8879789 -0.18815874
-0.91857994 1.7250592 -0.19410893
-0.75085908 1.8820491 -0.2180516
-0.89251852 2.0205593 -0.25870472
-0.86805457 1.7853131 -0.25127688
-0.8806752 1.65485 -0.25602138
-0 0 -0
-0.73501891 1.6665158 -0.28128535
-0.7644071 1.5736793 -0.28765345
-0.79487032 1.4941826 -0.29516745
-0.45418841 1.1437104 -0.22503482
-0.57989842 1.3164895 -0.27712527
-0.78440422 1.6173605 -0.36388409
-0.78871149 1.4837294 -0.35777888
-0 0 -0
-0.39349183 0.89440793 -0.22629108
-0 0 -0
-0.54283386 1.0203232 -0.29178113
-0 0 -0
-0 0 -0
-0 0 -0
-0 0 -0
-0 0 0
-0.99544042 2.2703271 0.7362811
-1.0873202 2.2441924 0.71426344
-0.88439345 1.6641166 0.52018189
-0 0 0
-0.98904616 2.2573504 0.6309467
-1.0852168 2.2441416 0.612881
-0 0 0
-0 0 0
-0.9977296 2.2763042 0.53835338
-1.0782101 2.2318385 0.51217324
-0 0 0
-0.92622876 2.3474779 0.4754706
-0.9728545 2.2211337 0.43184361
-1.0027355 2.0782948 0.38834614
-0.89484638 1.6931154 0.30386123
-0.89844149 2.2776349 0.36845481
-0.97623324 2.231921 0.34219575
-1.0613852 2.2027998 0.31982926
-0.88311791 1.6745305 0.22956355
-0.90021867 2.2833076 0.27751306
-0.98095328 2.2428188 0.25301519
-1.0756531 2.234705 0.23269244
-0.8693552 1.6503884 0.15755653
-0.89968073 2.2829938 0.18717812
-0.95692122 2.1897461 0.1591848
-1.0005966 2.0800734 0.1320809
-0.87370914 1.6599888 0.089186214
-0.89391786 2.2704611 0.096340947
-0.94194818 2.1583569 0.070469104
-1.0585488 2.2034004 0.05026561
-0.88837403 1.6895677 0.020823548
-0 0 0
-0.96113884 2.2045336 -0.016412165
-1.0421766 2.1715541 -0.038763802
-0.89030522 1.6947483 -0.04909309
-0.85750556 2.1822221 -0.07941895
-0.98777914 2.2679064 -0.10709496
-1.0524788 2.1964591 -0.12875266
-0.89634329 1.7072552 -0.12030167
-0.88173789 2.2482693 -0.17048214
-0.96647221 2.2221637 -0.19411774
-0.94183302 1.9663407 -0.19538875
-0.8996563 1.7148014 -0.19232993
-0.74872857 1.9106896 -0.22083342
-0.91928107 2.1161835 -0.27022079
