# .PCD v0.7 - Point Cloud Data file format
VERSION 0.7
FIELDS x y z
SIZE 4 4 4
TYPE F F F
COUNT 1 1 1
WIDTH 1475
HEIGHT 1
VIEWPOINT 0 0 0 1 0 0 0
POINTS 1475
DATA ascii
7.483357 -0.053975195 -0.39560166
7.465251 0.21957476 -0.46595106
7.5845413 -0.61040425 -0.53714901
7.5126948 -0.32935789 -0.60239577
7.4937639 -0.05522744 -0.67158741
7.45614 0.21709262 -0.74085563
7.4971657 -0.60547948 -0.80940157
7.2999039 -0.32322046 -0.85579604
6.6616507 -0.050839055 -0.8432405
7.2585654 0.20956495 -0.99174458
7.5064201 -0.61242497 -1.0911902
5.2000699 -0.2331554 -0.80386865
4.8862348 -0.039166085 -0.8034178
4.632144 0.13300826 -0.80818832
4.4018545 -0.36253643 -0.80767894
4.2386379 -0.19204918 -0.81737763
4.0134387 -0.034621943 -0.81248933
3.8090444 0.10817601 -0.81135416
3.6707864 -0.3058736 -0.81688386
3.5560663 -0.16273946 -0.82439446
3.3649855 -0.029380467 -0.81329852
3.1818099 0.091474257 -0.80362207
3.0713911 -0.25884315 -0.8063212
2.952611 -0.13734362 -0.8032403
2.8138697 -0.025305275 -0.79452682
2.8006117 0.08061298 -0.82248127
6.1487942 -0.52549583 1.9065319
6.3897552 -0.30041808 1.8999242
6.6493425 -0.059979226 1.9046108
6.8962407 0.19518162 1.9043183
7.1759524 -0.6087386 1.9228277
7.5062604 -0.35488075 1.9238418
7.8556633 -0.07675676 1.9315182
7.8570213 0.21304217 1.8513421
8.0134468 -0.67964268 1.8264089
7.9632773 -0.37537321 1.7268376
7.9026346 -0.080250405 1.6330454
7.8823004 0.20808312 1.550272
8.0217152 -0.67851079 1.5167661
7.9744325 -0.37799141 1.4217701
7.9172082 -0.084406093 1.3324919
7.8510938 0.20424263 1.2461601
8.0236235 -0.67937744 1.2117641
7.4986959 -0.35924536 1.0545472
7.4371805 -0.083183043 0.97284639
7.3974605 0.18585265 0.89730817
7.5456338 -0.64023143 0.85624576
7.502377 -0.35955295 0.7763176
7.4677005 -0.086522512 0.70069289
7.406373 0.18245488 0.62576538
7.5587025 -0.64253616 0.57864732
7.5026293 -0.36192751 0.50035203
7.4622703 -0.088283226 0.42703491
7.4174294 0.18026607 0.3527557
7.5815253 -0.64687532 0.30042434
7.5127192 -0.36609429 0.22507639
7.4848485 -0.092339315 0.15392172
7.4414353 0.17773062 0.081199832
7.5633988 -0.64639246 0.021595508
7.5287561 -0.36964181 -0.051440705
7.4904227 -0.095415406 -0.12055559
7.4444938 0.17507359 -0.19096315
7.5876317 -0.65246552 -0.25795925
7.5307302 -0.37250558 -0.32643202
7.4878774 -0.099957839 -0.39586559
7.470449 0.1738576 -0.46620014
7.599535 -0.65856689 -0.53848696
7.5304437 -0.37644407 -0.60399282
7.4942803 -0.10122073 -0.67167675
7.4603167 0.17140709 -0.74115217
7.4972715 -0.65181428 -0.80982953
7.4049134 -0.37340805 -0.86835903
6.5471344 -0.090142556 -0.82879931
7.2290077 0.16432527 -0.98754972
7.5192809 -0.65994298 -1.0936278
5.1985412 -0.26505804 -0.80386865
4.8780093 -0.069035016 -0.80211991
4.6643891 0.10529491 -0.81368625
7.5429211 -0.66785532 -1.3847467
4.2010961 -0.21618623 -0.81037861
3.9925704 -0.058943458 -0.80832273
3.7832351 0.084214419 -0.80573136
3.6202209 -0.32403952 -0.80605853
3.4071188 -0.1768788 -0.79010105
3.3754327 -0.050186031 -0.81588262
3.2259309 0.072935522 -0.8146373
3.0909424 -0.27960145 -0.81188905
2.9796591 -0.15692976 -0.81084526
2.8213596 -0.042686854 -0.79670072
2.8000946 0.063405514 -0.82219964
6.1502118 -0.56365019 1.9080079
6.3906631 -0.3397719 1.9007782
6.6450038 -0.10071941 1.9035093
6.9127274 0.15320516 1.9085754
7.1672711 -0.65232009 1.9215379
7.5058765 -0.40103498 1.9243379
7.8628125 -0.12508033 1.9334284
7.8581805 0.16482839 1.8513421
8.0217505 -0.72994828 1.8292878
7.9627757 -0.4243319 1.7272611
7.9166803 -0.12897784 1.6360807
7.8814669 0.15967457 1.5498861
8.0252304 -0.72842902 1.5182474
7.9758954 -0.42712507 1.4224714
7.9283733 -0.13318233 1.3344834
7.8581243 0.15618314 1.2471004
8.0330915 -0.72984928 1.2138474
7.5062389 -0.40578428 1.0559382
7.4494185 -0.12903841 0.97453249
7.4113646 0.14070414 0.89887315
7.5583863 -0.68804997 0.85815579
7.5189009 -0.40660042 0.77827096
7.47997 -0.13257119 0.70190728
7.422297 0.13728321 0.62702787
7.5506458 -0.68854123 0.57834309
7.5191975 -0.40898561 0.50161487
7.475563 -0.13432029 0.42783469
7.4343748 0.13504043 0.35351554
7.5823889 -0.69383782 0.3006216
7.5213099 -0.41278708 0.2254054
7.4891391 -0.13835607 0.15402453
7.4533834 0.13226265 0.081319824
7.5742273 -0.69415742 0.021638179
7.5373292 -0.41643721 -0.051515769
7.497694 -0.14152494 -0.12068432
7.4614201 0.12966965 -0.19137332
7.595428 -0.70011091 -0.25836548
7.536283 -0.41915008 -0.32677805
7.502099 -0.14619255 -0.39665744
7.4703774 0.12799942 -0.46613789
7.6032972 -0.70592213 -0.53905034
7.5439162 -0.42353696 -0.60527045
7.5134344 -0.14759409 -0.67346191
7.4701824 0.12577899 -0.74204165
7.5208507 -0.70038581 -0.81282538
7.4322319 -0.42051992 -0.87184876
7.0404181 -0.14014605 -0.89133602
7.2665348 0.12057403 -0.99255651
7.5210023 -0.70662344 -1.0944881
5.1987901 -0.29706344 -0.80417389
4.8449378 -0.098304056 -0.79676592
4.7023773 0.077287972 -0.82021499
7.5004883 -0.71050727 -1.3777312
4.2565489 -0.2452354 -0.8213501
3.9803748 -0.083194524 -0.80594176
3.8540928 0.062134504 -0.82072556
3.6395447 -0.34829271 -0.81082165
3.5236514 -0.20461482 -0.8174004
3.386723 -0.071141317 -0.81870174
3.2195318 0.053028431 -0.81292379
3.0699093 -0.29670051 -0.80682737
2.9844201 -0.17554964 -0.81241864
2.9374657 -0.062473614 -0.82957953
2.7735682 0.045779873 -0.81431276
6.1466374 -0.60137659 1.9080079
6.3855872 -0.3788076 1.8999242
6.6519504 -0.14165424 1.9057122
6.9125738 0.11077112 1.9083095
7.159287 -0.69591147 1.920506
7.4945712 -0.44656405 1.9221058
7.8385968 -0.17280962 1.9276983
7.8619633 0.11665171 1.8520297
8.0268269 -0.78009838 1.8315024
7.9863644 -0.47474849 1.732977
7.9225936 -0.17770496 1.6374972
7.8901477 0.11142264 1.5514295
8.0479975 -0.7803126 1.5234315
7.977056 -0.47629097 1.4231728
7.9323363 -0.18194048 1.3353132
7.8816485 0.10827569 1.2507048
8.0481462 -0.78103596 1.2168236
7.5233774 -0.45302451 1.0587204
7.4544344 -0.17488429 0.97531062
7.424993 0.095392011 0.90043807
7.5906153 -0.73797202 0.86231279
7.5103073 -0.45236903 0.77765405
7.4780207 -0.17844118 0.70181382
7.43396 0.09187372 0.62795371
7.5839901 -0.73853046 0.58123326
7.5294938 -0.45589879 0.50247896
7.4845791 -0.18042757 0.428406
7.4520435 0.089625642 0.35432285
7.587934 -0.74132103 0.30101615
7.5286126 -0.45953819 0.22570451
7.4871492 -0.18428136 0.15400395
7.466053 0.086666331 0.081450723
7.600678 -0.7436375 0.021726372
7.5326362 -0.46255499 -0.051502123
7.5266709 -0.18827736 -0.12116705
7.4780693 0.084064603 -0.1917835
7.5989461 -0.7474851 -0.2586363
7.5305777 -0.46519917 -0.32664829
7.5130405 -0.1925288 -0.39729092
7.4750137 0.082203537 -0.46638691
7.594852 -0.7521686 -0.53876865
7.5590835 -0.47093326 -0.60670775
7.5243354 -0.19400094 -0.67453301
7.4877295 0.080121458 -0.74372184
7.4708996 -0.74199951 -0.80790371
7.4364505 -0.46655065 -0.87266302
7.3220739 -0.19070421 -0.92712504
6.249639 0.065346189 -0.853585
7.5440974 -0.75551945 -1.098503
5.2353358 -0.3313919 -0.81012619
4.8570671 -0.12836909 -0.79887509
4.6131206 0.047510058 -0.80458039
7.4920726 -0.75612092 -1.3770117
4.1951866 -0.26753634 -0.80981112
3.9925263 -0.10796049 -0.80852109
3.8025663 0.037967507 -0.80968815
3.6732755 -0.37427962 -0.8188324
3.5398295 -0.22735567 -0.8214615
3.2715671 -0.088808142 -0.79098099
3.1897414 0.032962173 -0.80533558
3.0949774 -0.31830281 -0.81391364
2.9967685 -0.19473445 -0.81609005
2.8764203 -0.078835309 -0.81246084
2.7584457 0.028601546 -0.80980611
6.1542354 -0.64026678 1.91155
6.3649683 -0.41679156 1.8945144
6.6423068 -0.18222989 1.903234
6.8938451 0.068163671 1.9029878
7.170259 -0.74141687 1.9246334
7.4829898 -0.49196947 1.9198736
7.837389 -0.22090308 1.9276983
7.8790774 0.068553381 1.8559273
8.0500193 -0.83224362 1.837925
7.9852514 -0.52387089 1.7334005
7.9409328 -0.2268731 1.6415445
7.8877387 0.062983997 1.5508507
8.0528326 -0.83068782 1.525283
7.9749651 -0.52529299 1.4233481
7.9507847 -0.23118217 1.3386323
7.8959908 0.060017865 1.2528987
8.0559902 -0.83172399 1.2187581
7.5382419 -0.50035912 1.0612242
7.4730434 -0.22120731 0.97790456
7.4393363 0.049924579 0.90212339
7.5928631 -0.78524882 0.86309928
7.5183082 -0.49916777 0.77878499
7.4847465 -0.22456096 0.70256114
7.4373727 0.046276666 0.62820619
7.5932012 -0.78648925 0.5822981
7.5365105 -0.50275445 0.50314355
7.4893184 -0.22652978 0.42874876
7.4694333 0.043999102 0.35513017
7.5951686 -0.78910482 0.30148953
7.5455971 -0.50706464 0.22630271
7.5008678 -0.23067917 0.15431234
7.4754438 0.040903099 0.081548892
7.6079073 -0.79150206 0.021760508
7.5476146 -0.50997913 -0.051624957
7.5173788 -0.23420751 -0.12103833
7.4834428 0.038203966 -0.1919117
7.6220484 -0.79700756 -0.25958419
7.5495105 -0.51288694 -0.32759985
7.5326777 -0.23929016 -0.39839947
7.4833617 0.036374975 -0.46688506
7.6059666 -0.80042589 -0.53989536
7.5669904 -0.51805496 -0.60758609
7.5369406 -0.24061067 -0.67578268
7.4950457 0.034207895 -0.74441367
7.4889474 -0.79022574 -0.81036448
7.4364209 -0.51237589 -0.87301207
7.2949848 -0.23479822 -0.92386007
5.7991114 0.025050519 -0.79201537
7.5865574 -0.8068186 -1.1053858
7.4909353 -0.52033573 -1.1596344
4.9054995 -0.1597752 -0.80698717
4.6635666 0.019412722 -0.81334263
4.3935881 -0.47066373 -0.80803871
4.2483215 -0.29710883 -0.82040435
3.9633806 -0.13151349 -0.80276716
3.8379381 0.014770189 -0.81718528
3.657321 -0.39534247 -0.81580132
3.5869584 -0.25249174 -0.83274221
3.3253634 -0.11069133 -0.80413657
3.1540096 0.013239086 -0.7962786
3.0939279 -0.33739215 -0.81416678
3.0099556 -0.21414585 -0.8200236
2.8460655 -0.095482878 -0.80403727
2.7767997 0.011752662 -0.81515777
6.1501913 -0.67801636 1.91155
6.3527298 -0.45515341 1.8916674
6.650672 -0.22330549 1.9059876
6.8970251 0.025873395 1.9037861
7.1799808 -0.78697783 1.9285027
7.5001221 -0.53933418 1.925082
7.8591781 -0.26978782 1.9334284
7.9017367 0.020264391 1.8612005
8.0563936 -0.88289672 1.8405825
7.9916339 -0.5735572 1.7355173
7.9491787 -0.27593324 1.6435682
7.8987699 0.014604512 1.5529728
8.0544233 -0.88083136 1.5265791
7.9823942 -0.57499468 1.4252769
7.9590716 -0.28031 1.340292
7.9041119 0.011579419 1.2541524
8.0595818 -0.88210726 1.2200974
7.5370054 -0.54674679 1.0615025
7.4864092 -0.26758814 0.97984993
7.4543934 0.0042852913 0.90392905
7.5958042 -0.83268923 0.86399817
7.5329614 -0.54658556 0.7806356
7.5071073 -0.27134541 0.70480305
7.4434958 0.00064144796 0.62871116
7.602109 -0.83458889 0.58336294
7.5402493 -0.54949576 0.50360882
7.496767 -0.27280587 0.42926291
7.4675651 -0.0018328163 0.35503522
7.6001163 -0.83678663 0.30188406
7.5443373 -0.55350024 0.22636254
7.5162959 -0.27732596 0.15466183
7.4805536 -0.004969452 0.081603438
7.6178174 -0.8398121 0.021803183
7.5593023 -0.55738378 -0.051727321
7.5177984 -0.28040341 -0.1210705
7.4805369 -0.0077112028 -0.19183478
7.6190019 -0.84398067 -0.2596519
7.5661478 -0.56067681 -0.32846493
7.5410461 -0.28588358 -0.39892736
7.4904308 -0.009551662 -0.46732098
7.6356101 -0.85094708 -0.54235995
7.5696335 -0.56492049 -0.60806519
7.5412936 -0.28707927 -0.67631817
7.5020804 -0.011792433 -0.7451055
7.5343513 -0.84179258 -0.81582117
7.4440312 -0.5588131 -0.8742916
7.2775455 -0.27894703 -0.92185092
7.281394 -0.013224725 -0.99445093
7.5047545 -0.84471941 -1.0942014
7.5082965 -0.56785464 -1.1628394
4.9054127 -0.18990993 -0.80714941
4.6901965 -0.0092552369 -0.81798148
4.4541502 -0.50481397 -0.81973118
4.2483764 -0.32331946 -0.8207826
3.9576025 -0.15563731 -0.80177522
3.83111 -0.0087635722 -0.81572753
3.6169977 -0.41345182 -0.80735749
3.5571718 -0.27233946 -0.82619935
3.3197653 -0.13090181 -0.80296201
3.1617877 -0.0061288374 -0.79823685
3.0841107 -0.35548353 -0.81214207
2.9691377 -0.22956067 -0.80927181
2.8511958 -0.11317323 -0.80566764
2.7979288 -0.0053258631 -0.82135463
6.1316795 -0.71408266 1.9071224
6.4081163 -0.4986611 1.9090351
6.7730918 -0.26903102 1.9415079
6.9076576 -0.016471729 1.9067129
7.1606207 -0.82935119 1.9246334
7.5092273 -0.58632421 1.9283061
7.8340878 -0.31706327 1.9276983
7.9270201 -0.028310521 1.8671614
8.0643864 -0.93388373 1.843683
7.9977083 -0.62334162 1.7376343
7.9502707 -0.32482317 1.6441751
7.9075413 -0.033899561 1.554709
8.0547237 -0.93091267 1.5276901
8.000309 -0.62565148 1.4291341
7.9562173 -0.32909995 1.3401262
7.919836 -0.036993325 1.2566597
8.0697346 -0.93336111 1.2224784
7.5453548 -0.5939151 1.0631716
7.4796729 -0.31331137 0.9792015
7.4473305 -0.041415442 0.90308636
7.5984488 -0.88019526 0.86489695
7.5661564 -0.59568536 0.78443956
7.5152478 -0.31782371 0.70573717
7.4642844 -0.045157585 0.63047862
7.6225967 -0.884206 0.58534044
7.555635 -0.59724545 0.50487167
7.5198884 -0.31986073 0.43069112
7.4813972 -0.047742136 0.35570008
7.6017861 -0.88421243 0.30216023
7.5457811 -0.60017729 0.22651209
7.5404234 -0.32455769 0.15519635
7.4853821 -0.050903171 0.081657976
7.6214604 -0.88757944 0.021828787
7.5617208 -0.60423422 -0.051768266
7.5339174 -0.32730764 -0.12136015
7.489346 -0.053675249 -0.19206551
7.6146722 -0.89083022 -0.25968575
7.5665488 -0.60741109 -0.32863796
7.5381527 -0.33210525 -0.39887455
7.4972172 -0.055563677 -0.46775684
7.6510496 -0.90023023 -0.5438388
7.5779476 -0.61231965 -0.60902345
7.5463557 -0.33365434 -0.676943
7.5038567 -0.057839449 -0.74530315
7.5152206 -0.8863762 -0.81432325
7.4582815 -0.60592598 -0.87638545
7.3411098 -0.32650527 -0.93013889
6.0595551 -0.048187546 -0.827604
7.5672402 -0.89880604 -1.1040952
7.5302806 -0.61600894 -1.1668077
7.5262756 -0.33763641 -1.2387106
4.6319308 -0.037562244 -0.80784476
4.4245973 -0.52898175 -0.81487429
4.1670432 -0.34285873 -0.80546039
3.9634268 -0.18022943 -0.80316406
3.8055549 -0.032056451 -0.81031293
3.5349131 -0.4260579 -0.78960389
3.5874734 -0.29681155 -0.83364463
3.347059 -0.15255249 -0.80977476
3.201442 -0.025850059 -0.8082729
3.0463371 -0.37008375 -0.80277807
2.9801748 -0.2488184 -0.8126809
2.8658295 -0.13137081 -0.81001526
2.8036003 -0.022539813 -0.82304466
6.1167512 -0.7504127 1.9038755
6.3619494 -0.53436065 1.8962228
6.746345 -0.30943963 1.9343487
6.9122462 -0.058897078 1.9080434
7.1352572 -0.87081438 1.9192163
7.4900427 -0.63108754 1.9243379
7.8232646 -0.36471936 1.9255495
7.9179373 -0.076864228 1.865098
8.0797997 -0.98594683 1.848555
8.0180807 -0.67445093 1.742927
7.9637804 -0.37433475 1.647413
7.9081659 -0.082428917 1.554902
8.0869045 -0.98495162 1.5349109
8.0090733 -0.67580485 1.4314135
7.9550328 -0.37795895 1.340292
7.927361 -0.08567322 1.2579135
8.0648375 -0.98297822 1.2226272
7.5534096 -0.64120656 1.0648409
7.4944468 -0.36000866 0.98140633
7.4380021 -0.087006122 0.90200299
7.6076999 -0.92860782 0.86658227
7.5593853 -0.64184672 0.78413111
7.5141506 -0.36397859 0.70583057
7.4698453 -0.091029577 0.63098359
7.6289043 -0.93241227 0.58625311
7.5617704 -0.64444202 0.50553632
7.5227699 -0.36623856 0.43097675
7.4939475 -0.093808763 0.35631743
7.6120863 -0.93278402 0.30279145
7.5598831 -0.64800262 0.22705048
7.5362926 -0.37072054 0.15515524
7.4869285 -0.096857525 0.081679791
7.6307592 -0.93615365 0.021871461
7.5758047 -0.65216452 -0.051891103
7.5387578 -0.37387541 -0.12147278
7.4618864 -0.099268951 -0.19137332
7.6338611 -0.94059169 -0.26053208
7.5795999 -0.65529001 -0.32937324
7.5389652 -0.37850246 -0.39903295
7.4897494 -0.10147005 -0.46732098
7.661221 -0.94912148 -0.54496545
7.5869575 -0.65992844 -0.61006153
7.5730143 -0.38140449 -0.67953151
7.5103254 -0.10397758 -0.74599499
7.5796947 -0.94117069 -0.82191968
7.4633279 -0.65245616 -0.87743235
6.9208436 -0.35037532 -0.87714595
7.4134378 -0.10444801 -1.0125835
7.5527449 -0.944116 -1.1028048
7.5027313 -0.66012341 -1.1631447
4.8031802 -0.24501532 -0.79076302
4.6345682 -0.066024631 -0.80836022
7.5649557 -0.95154321 -1.3942806
4.2626734 -0.3770732 -0.82437676
3.9847589 -0.20570734 -0.80772746
3.8091984 -0.055463251 -0.81114596
3.5874386 -0.45473757 -0.80194485
3.5137761 -0.3124333 -0.81694919
3.3742104 -0.17454296 -0.81658739
3.2089791 -0.045603473 -0.81023121
3.0564845 -0.39036205 -0.80606812
2.9584076 -0.26528975 -0.80717385
2.8515146 -0.1482532 -0.80621111
2.8053279 -0.039769158 -0.82360792
6.094027 -0.78560925 1.8982671
6.3738265 -0.57476425 1.9007782
6.6723161 -0.34708309 1.9136974
6.9001884 -0.10113918 1.9048504
7.1259465 -0.91408736 1.9181844
7.4840999 -0.6768592 1.9238418
7.8208795 -0.41271514 1.9255495
7.9212093 -0.12550801 1.8660151
8.082303 -1.0366215 1.8505481
8.031312 -0.72521836 1.7467375
7.9799142 -0.42418021 1.6512579
7.9261522 -0.13125965 1.5585674
8.1021528 -1.0372989 1.5389843
8.0292873 -0.72715479 1.4357967
7.9761972 -0.42803127 1.344275
7.9375482 -0.13449703 1.2596372
8.0870991 -1.0360888 1.2269428
7.5779328 -0.69014603 1.068875
7.5010071 -0.40646982 0.98257357
7.4591646 -0.13303265 0.90465134
7.620585 -0.97767276 0.86871696
7.5582767 -0.68848884 0.78443956
7.509788 -0.40996915 0.70564377
7.4721351 -0.13691674 0.63123614
7.6260066 -0.97958595 0.58648127
7.5596609 -0.69100964 0.50566924
7.5293531 -0.41288254 0.43149093
7.4912338 -0.13975173 0.35622245
7.6478434 -0.98483336 0.30444843
7.5706949 -0.69574904 0.22749914
7.536871 -0.41712111 0.1552169
7.4971905 -0.1430044 0.081799783
7.6486745 -0.98602605 0.021939738
7.5945621 -0.70074964 -0.052048057
7.5602813 -0.42146099 -0.12185898
7.5061135 -0.14592676 -0.19252695
7.6398396 -0.98895407 -0.26093829
7.5933433 -0.70344406 -0.3301518
7.5464706 -0.42531547 -0.39956081
7.4959712 -0.14756188 -0.46775684
7.6572313 -0.99636936 -0.54510629
7.5907054 -0.70720851 -0.61070031
7.5675478 -0.42769584 -0.67926371
7.5413833 -0.1506943 -0.74915767
7.5777211 -0.98817539 -0.8223477
7.3939176 -0.69212854 -0.86975491
7.2701874 -0.41279933 -0.92172527
7.4017606 -0.14971364 -1.011095
5.4557614 -0.71601248 -0.79724282
5.1705585 -0.48691797 -0.80203712
7.4979224 -0.42861843 -1.2348169
4.5996032 -0.093757875 -0.80234683
4.453856 -0.58800232 -0.82153004
4.2602797 -0.40322137 -0.82437676
3.9599383 -0.22879668 -0.80296564
3.8615911 -0.079927973 -0.82239157
3.6020005 -0.47905791 -0.80584198
3.4972453 -0.33260399 -0.81356496
3.3594906 -0.19445708 -0.81329852
3.2319038 -0.065765962 -0.81610596
3.0655384 -0.41065034 -0.80910516
2.9922667 -0.28684434 -0.81687677
2.8736091 -0.1670877 -0.81273252
2.8088684 -0.05705953 -0.82473469
6.0947728 -0.82375449 1.9000381
6.359684 -0.61285102 1.8976464
6.6547055 -0.38712385 1.9092919
6.897511 -0.14343596 1.9043183
7.1393542 -0.96037024 1.9233435
7.4855914 -0.7233271 1.9253299
7.8443732 -0.46223769 1.9319957
7.929049 -0.17430182 1.8680786
8.0825567 -1.0871041 1.8520986
8.0315752 -0.77495325 1.7477959
7.9898696 -0.4738898 1.6538885
7.9507027 -0.18047006 1.5635833
8.1190109 -1.0901319 1.5434279
8.0423136 -0.7781145 1.4389528
7.9812961 -0.47743532 1.3456028
7.9503965 -0.18351746 1.2618312
8.0982304 -1.0880611 1.2296213
7.6041098 -0.73960215 1.0731871
7.4973822 -0.45242774 0.98244387
7.4810343 -0.17934595 0.9074201
7.6380777 -1.0275931 0.87141347
7.5717301 -0.73658615 0.78629011
7.5210443 -0.45688581 0.70695156
7.4741426 -0.18283543 0.63148862
7.6425805 -1.0294212 0.58823061
7.5721612 -0.73902953 0.50679916
7.5316606 -0.45937791 0.43177658
7.5032167 -0.18603632 0.35683984
7.6604714 -1.0342814 0.30519801
7.5841894 -0.7439453 0.22803754
7.5371633 -0.46354276 0.15527859
7.5061679 -0.18925564 0.081908859
7.6404986 -1.032671 0.021934047
7.5941005 -0.74772775 -0.052075356
7.5595489 -0.46796563 -0.12189116
7.5170693 -0.19228742 -0.19283459
7.6762128 -1.041591 -0.26239398
7.5839128 -0.74953139 -0.32993552
7.5606627 -0.47267097 -0.40045825
7.536829 -0.19463569 -0.47037208
7.6618457 -1.0448171 -0.54588091
7.5891991 -0.75406659 -0.61093986
7.563787 -0.4740591 -0.67917448
7.5532484 -0.19730233 -0.7504425
7.5567384 -1.0326335 -0.82074285
7.2294269 -0.72150511 -0.85091048
6.6803732 -0.42044711 -0.84725893
7.3442469 -0.19363865 -1.003382
5.3277297 -0.73249048 -0.77917582
5.17239 -0.51912826 -0.8028003
4.9366956 -0.31260723 -0.8133145
4.6688609 -0.12383324 -0.81454527
4.3985205 -0.60817879 -0.81199622
4.1346245 -0.41694075 -0.80054212
4.0406218 -0.25834322 -0.81963205
3.8551617 -0.10346331 -0.82114208
3.6666799 -0.51057553 -0.82099754
3.4679992 -0.35130721 -0.80724776
3.2340708 -0.20711523 -0.78322858
3.2169011 -0.085210212 -0.81243426
3.0792482 -0.43173599 -0.81340754
2.9981303 -0.30598298 -0.81897461
2.9099851 -0.18712524 -0.82332987
2.8027103 -0.074141107 -0.82304466
6.0886579 -0.86100209 1.8997431
6.3662934 -0.65293759 1.9007782
6.6531639 -0.42801079 1.9095671
6.9080639 -0.18606703 1.9075111
7.1180196 -1.0020036 1.9192163
7.4627023 -0.76736146 1.9206177
7.8355756 -0.50998276 1.9305633
7.9433975 -0.22338806 1.8717469
8.095046 -1.1393956 1.8565278
8.0402803 -0.82561713 1.7507597
7.9916978 -0.52322572 1.6549002
7.9563112 -0.22944926 1.5649337
8.1248198 -1.1417063 1.5458348
8.0501194 -0.82875723 1.4412321
7.996912 -0.52763218 1.3487561
7.949121 -0.23229672 1.2618312
8.1080484 -1.1400712 1.2321512
7.618144 -0.7881825 1.0758301
7.5281038 -0.50065947 0.98685348
7.4817777 -0.2253051 0.90766084
7.6444206 -1.0762411 0.87287408
7.5838881 -0.7847721 0.7880379
7.5240598 -0.50342429 0.70751202
7.4858279 -0.22908869 0.63258272
7.652905 -1.0786616 0.58952355
7.5873332 -0.78753781 0.50812852
7.5247154 -0.50531507 0.43154806
7.5159111 -0.23250407 0.3575047
7.6559596 -1.0815451 0.3052769
7.6043353 -0.79305899 0.22878528
7.5571198 -0.51133353 0.15575142
7.5268531 -0.23599847 0.082148835
7.6627321 -1.0835932 0.022016549
7.5923529 -0.79462248 -0.052095827
7.5585303 -0.51447713 -0.12192333
7.5227418 -0.23862953 -0.19301404
7.6736355 -1.0892336 -0.2625294
7.6000366 -0.79824281 -0.33084384
7.5765491 -0.5203535 -0.40146124
7.5424757 -0.24110034 -0.47080797
7.6839285 -1.095894 -0.54792297
7.6141682 -0.80375808 -0.61333537
7.5706725 -0.52114469 -0.68006712
7.5747709 -0.24438249 -0.75271565
7.5128584 -1.0736364 -0.81667709
7.4559803 -0.7903493 -0.87813026
7.4110537 -0.51210642 -0.94031054
7.3439107 -0.23873064 -1.0035173
5.4857483 -0.78854162 -0.8029784
5.062974 -0.53954536 -0.78631699
4.9031849 -0.34070355 -0.80812281
4.6453676 -0.15173879 -0.81059372
4.4433842 -0.64219153 -0.82099032
4.1515155 -0.44439274 -0.8043254
3.9920301 -0.27984133 -0.81010836
3.8143749 -0.12579441 -0.81260371
3.626766 -0.52772236 -0.81277019
3.4338133 -0.36914352 -0.79980248
3.3927274 -0.23818725 -0.82199061
3.2657397 -0.10655976 -0.82491815
3.0908995 -0.45272484 -0.81720376
3.002912 -0.32510045 -0.82081032
2.8905423 -0.20369171 -0.81816703
2.8050797 -0.091430597 -0.82388967
6.0860953 -0.8987639 1.9006284
6.3631206 -0.69209188 1.9010631
6.6580839 -0.46936658 1.91177
6.9193163 -0.22886488 1.9109701
7.1193848 -1.0467844 1.9212799
7.4414816 -0.81135225 1.9164014
7.8138952 -0.55674005 1.9260269
7.9749517 -0.2732569 1.8795419
8.1216707 -1.1940087 1.8642789
8.0661535 -0.87832123 1.7575341
7.9932208 -0.57260185 1.655912
7.9586759 -0.27840114 1.5657052
8.132247 -1.1936786 1.5486122
8.051733 -0.87888402 1.4424593
8.0013924 -0.57725805 1.3500836
7.9524813 -0.28124177 1.2626147
8.1185112 -1.1923862 1.2348297
7.7677116 -0.8518604 1.0976695
7.5308237 -0.5472728 0.98763168
7.4941435 -0.27171174 0.9093461
7.660284 -1.126451 0.87545818
7.6095824 -0.83465326 0.79122502
7.5297656 -0.55023462 0.70835274
7.5081801 -0.27589476 0.63460273
7.6451564 -1.1254535 0.5894475
7.5942597 -0.83538723 0.50892609
7.5374041 -0.55264443 0.4324621
7.5333085 -0.27931967 0.35840699
7.6818004 -1.1333135 0.30657881
7.6112485 -0.84102076 0.22914422
7.5558343 -0.55784076 0.15579255
7.5342569 -0.28251517 0.082247011
7.6598964 -1.1311749 0.022027928
7.6022425 -0.84284616 -0.052198187
7.5482512 -0.56032759 -0.1218107
7.5291276 -0.2850863 -0.19321913
7.6875687 -1.1393747 -0.26324031
7.6188264 -0.84751165 -0.33188194
7.596117 -0.56854677 -0.40267539
7.5438461 -0.28748956 -0.47099474
7.6948195 -1.1456653 -0.54919052
7.6308875 -0.85289854 -0.6150921
7.5722985 -0.56796014 -0.68051338
7.5880446 -0.29142869 -0.75419819
7.5788989 -1.1305696 -0.82459456
7.4894838 -0.84040284 -0.88266689
7.4137073 -0.5580169 -0.94106394
7.4383435 -0.28749943 -1.016643
7.6457248 -1.1469504 -1.1201547
5.0713525 -0.57192999 -0.7881484
4.8950987 -0.37033588 -0.80714941
4.6266298 -0.17955172 -0.80750114
4.3702989 -0.6590293 -0.8082186
4.2092047 -0.47670874 -0.81605351
3.9833968 -0.30380896 -0.80871952
3.8281913 -0.14977016 -0.81572753
3.6031899 -0.54688931 -0.80822355
3.4072845 -0.38745427 -0.79416215
3.2497003 -0.24819307 -0.78769207
3.2127066 -0.12456742 -0.81169993
3.0928454 -0.47241214 -0.81846917
2.9327903 -0.33572757 -0.80219132
2.8710063 -0.22002667 -0.81300426
2.8121362 -0.10893765 -0.82614303
6.0785775 -0.93579978 1.9000381
6.3216133 -0.72685176 1.889959
6.637825 -0.50888824 1.9068136
6.9081502 -0.27093893 1.9083095
7.0965924 -1.0879595 1.9168946
7.4277015 -0.85599887 1.9141693
7.8258228 -0.60587406 1.929847
7.9740977 -0.32222447 1.8797712
8.1276865 -1.2458885 1.8673794
8.076148 -0.92958587 1.7609215
8.0032263 -0.6227001 1.6587451
7.9676027 -0.32767296 1.5678275
8.1344833 -1.2450415 1.5504638
8.0745516 -0.93154413 1.4475441
8.0035992 -0.62680477 1.3510795
7.9723158 -0.33093318 1.2660624
8.1237497 -1.2441241 1.2367642
7.8990722 -0.91535097 1.117005
7.5293012 -0.59362668 0.98789114
7.505229 -0.31823656 0.91091108
7.664032 -1.175089 0.87669408
7.6122222 -0.88224518 0.7920475
7.5480833 -0.59815639 0.71040785
7.4934039 -0.32140377 0.63350856
7.6765437 -1.1782416 0.59241378
7.6137686 -0.88484854 0.51058769
7.5597472 -0.60093957 0.43394744
7.5414324 -0.32596925 0.35888189
7.6450734 -1.1758698 0.30539525
7.6228228 -0.88967657 0.22965269
7.5771842 -0.6061852 0.15630651
7.5393744 -0.32904437 0.082323372
7.6745553 -1.1815013 0.022090517
7.6237445 -0.89261657 -0.052382443
7.5705843 -0.60871577 -0.12222907
7.5432162 -0.33198208 -0.19362931
7.6863594 -1.1874388 -0.26344344
7.6392808 -0.89727408 -0.3330065
7.6004481 -0.61579013 -0.40309769
7.553905 -0.33430186 -0.47174197
7.6856737 -1.1925523 -0.54904968
7.6532288 -0.90297508 -0.61732793
7.5934892 -0.61642694 -0.68274486
7.6338315 -0.34010851 -0.75894219
7.5914683 -1.180106 -0.82673442
7.404295 -0.87688017 -0.8732447
7.3953118 -0.60228813 -0.93918037
7.4433684 -0.33344522 -1.0175903
7.6346321 -1.1932309 -1.1195812
5.1236854 -0.60969275 -0.79684794
4.8465114 -0.39658231 -0.79952407
4.6342983 -0.20833498 -0.8090474
4.3321609 -0.68049002 -0.80192268
4.1506243 -0.49588716 -0.80527115
3.9961097 -0.32945284 -0.81169564
3.8623748 -0.17484902 -0.8232246
3.6229098 -0.5726459 -0.81341976
3.4648147 -0.41554627 -0.80815023
3.2171171 -0.26556924 -0.78017455
3.2002585 -0.14375575 -0.80876249
3.0602698 -0.48667037 -0.81062359
2.9929481 -0.36123252 -0.81923687
2.8696022 -0.2376387 -0.81300426
2.8094978 -0.1261045 -0.8255797
6.0840421 -0.97489369 1.9035803
6.3560514 -0.7703557 1.9016324
6.6345778 -0.54960757 1.9068136
6.8861356 -0.31240404 1.9027218
7.0840588 -1.1305692 1.9153467
7.45116 -0.90506262 1.9216096
7.8209906 -0.65380013 1.9296083
7.944746 -0.36987907 1.8733518
8.1372232 -1.2985017 1.8713659
8.0809641 -0.98041749 1.7632501
8.0109653 -0.67277873 1.6611735
7.9821033 -0.37734273 1.5711068
8.1490116 -1.2984869 1.5547222
8.0892076 -0.98356658 1.451226
8.0172892 -0.67739654 1.3540667
7.9800005 -0.38031432 1.2676295
8.1472111 -1.2989291 1.2415261
7.9876728 -0.97532392 1.1303589
7.5492287 -0.64183033 0.99100375
7.5080929 -0.36452249 0.91151297
7.6694341 -1.2241286 0.8781547
7.6106148 -0.92941856 0.79245871
7.5571671 -0.64556098 0.71162224
7.5052242 -0.36805969 0.63468689
7.6750774 -1.2262657 0.59287012
7.6121573 -0.93203419 0.51085359
7.5668597 -0.64825141 0.43457586
7.540288 -0.37228575 0.3589294
7.6239014 -1.2205455 0.30484292
7.6330934 -0.93838394 0.23013125
7.601213 -0.65507019 0.15688215
7.5382123 -0.37534863 0.08233428
7.6829596 -1.2311007 0.022136034
7.6270556 -0.94047958 -0.052443858
7.5896182 -0.65714031 -0.12259918
7.5360451 -0.37800971 -0.19350113
7.6611667 -1.2317234 -0.26283407
7.6465211 -0.94572514 -0.33356881
7.6044855 -0.66310799 -0.40352002
7.5586891 -0.38099715 -0.47217783
7.691998 -1.2419143 -0.55003554
7.6693063 -0.95262057 -0.61908466
7.6193314 -0.66560847 -0.68542266
7.6534648 -0.38805097 -0.7611165
7.6233444 -1.2330142 -0.8310141
7.4017315 -0.92266411 -0.87359363
7.3993835 -0.6483463 -0.94018495
7.435245 -0.37880811 -1.0167783
7.6750321 -1.2478356 -1.1266073
5.1227899 -0.64148808 -0.79730588
4.8970661 -0.43098393 -0.80828506
4.6309652 -0.23666602 -0.80870378
4.3279042 -0.70705885 -0.80192268
7.6061926 -0.95610642 -1.4768033
4.0350175 -0.35760033 -0.8200289
3.8612292 -0.1985448 -0.8232246
3.6068044 -0.59280652 -0.81060517
3.4757314 -0.43850535 -0.81130886
3.3364532 -0.29604274 -0.80953979
3.1654251 -0.16165864 -0.8001951
3.064862 -0.50670111 -0.8126483
2.9408946 -0.3732717 -0.8056004
2.9016407 -0.25822756 -0.82251465
2.8057964 -0.14319417 -0.82473469
6.1081047 -1.0172288 1.9130259
6.3559599 -0.80994707 1.903056
6.6234202 -0.58962435 1.9046108
6.8946781 -0.35519621 1.9056486
7.0750823 -1.1736988 1.9148309
7.45892 -0.95248306 1.925082
7.8032908 -0.70056087 1.9262658
7.9442711 -0.4187226 1.8738103
8.1483421 -1.3515978 1.875795
8.0815821 -1.0308485 1.764732
8.0281429 -0.72385514 1.6656252
7.9884567 -0.42678404 1.5728432
8.1593113 -1.3515151 1.5582401
8.103528 -1.0358038 1.454908
8.0404806 -0.72907043 1.3587135
7.9814615 -0.42948377 1.2682563
8.1537218 -1.3513203 1.2437583
8.0669909 -1.0352837 1.1424609
7.5648971 -0.68994063 0.99359769
7.5265307 -0.41172314 0.91404092
7.6706009 -1.2726279 0.87916583
7.627461 -0.9790116 0.79482335
7.5748763 -0.69391692 0.71367729
7.5346627 -0.41586119 0.63738018
7.6634741 -1.2726825 0.59256589
7.6260881 -0.98127073 0.51218289
7.5746703 -0.69576442 0.4352614
7.5518246 -0.41932037 0.35959426
0 -0 0
7.6420622 -0.98712283 0.23057993
7.6050148 -0.70243365 0.15704662
7.5427561 -0.42198613 0.082410634
7.6772342 -1.2785479 0.022141725
7.638 -0.98944449 -0.052559868
7.596395 -0.70471299 -0.12277618
7.5495529 -0.4251422 -0.1939113
7.7155676 -1.2890842 -0.26496679
7.6683149 -0.99622941 -0.33477989
7.6052451 -0.71021998 -0.40378395
7.5641813 -0.42782012 -0.47267601
7.7048922 -1.2925538 -0.55151433
7.67419 -1.001079 -0.61996305
7.6190705 -0.71271837 -0.68577969
7.5833817 -0.43116334 -0.75439584
7.6097522 -1.2787783 -0.83037215
7.4343386 -0.97309017 -0.87813026
6.5132074 -0.6109916 -0.82804585
5.9222865 -0.33817133 -0.810148
7.6682067 -1.2950701 -1.1267507
5.1256166 -0.67381048 -0.79837424
4.8943295 -0.46102363 -0.80828506
4.6382775 -0.26558349 -0.81025004
7.5694919 -1.2843778 -1.4039942
4.2454715 -0.56014252 -0.8249442
4.0337229 -0.3824445 -0.82022732
3.8413858 -0.22116497 -0.81926781
0 -0 -0
3.4758728 -0.4602074 -0.81198567
3.3365095 -0.31669298 -0.81000966
3.1575975 -0.18069054 -0.79848158
3.0836258 -0.52926129 -0.81846917
3.0102906 -0.40086314 -0.82526839
2.8971274 -0.27575326 -0.8216995
2.7780423 -0.15887356 -0.81684786
6.0942163 -1.0533864 1.9106646
6.354671 -0.84943926 1.9041948
6.6177635 -0.63007152 1.9040601
6.8683105 -0.39610699 1.8989967
7.0667953 -1.2169245 1.914573
7.4327712 -0.99553144 1.9198736
7.8220444 -0.75065404 1.9319957
7.9745898 -0.46940452 1.8816055
8.1639214 -1.4057065 1.8813318
8.08673 -1.0819721 1.7672724
8.0537701 -0.77601296 1.6718984
7.9994001 -0.47660926 1.575544
8.1663609 -1.4042187 1.5612025
8.114583 -1.0878613 1.458064
8.0476341 -0.77953309 1.360705
8.0023365 -0.47986788 1.2720174
8.1735382 -1.4061872 1.2480737
8.0909109 -1.0888568 1.1467732
7.5674295 -0.73701781 0.99450552
7.5179176 -0.45753548 0.91331863
7.6930046 -1.324898 0.88264883
7.6429977 -1.0287135 0.79708517
7.5793939 -0.74125457 0.71451801
7.5260015 -0.4617191 0.63687515
7.6348858 -1.3161237 0.59096867
7.6436553 -1.0312469 0.51377809
7.578207 -0.74300796 0.43571842
7.5461183 -0.4654651 0.35945177
0 -0 0
7.6457663 -1.0353364 0.23087902
7.5916071 -0.74820137 0.1568616
7.5390267 -0.4681977 0.082399726
7.6988058 -1.3307401 0.022227069
7.6337671 -1.0365609 -0.052573521
7.6048627 -0.75259036 -0.12298536
7.5348301 -0.47070944 -0.19360368
7.7045588 -1.3358895 -0.26486525
7.6907659 -1.0471715 -0.33603424
7.614656 -0.75825685 -0.40452302
7.5713744 -0.4748497 -0.47329867
7.7115579 -1.3423719 -0.55257064
7.6748161 -1.049093 -0.62052196
7.6165361 -0.75965238 -0.68595821
7.6560721 -0.4824422 -0.76190722
7.5831528 -1.3222021 -0.82833934
7.4685717 -1.0242207 -0.88289952
6.653461 -0.66535717 -0.84637994
5.941854 -0.37587959 -0.81312501
5.4463058 -0.95422447 -0.80111432
7.6306777 -1.0507939 -1.1895485
4.8855176 -0.49045461 -0.80731159
4.6316452 -0.29372668 -0.80939108
7.603127 -1.338131 -1.4117293
4.0824313 -0.5641377 -0.79392129
3.9815674 -0.40216437 -0.81010836
3.8243389 -0.24373576 -0.81593573
0 -0 -0
3.5173728 -0.48768082 -0.82236391
3.2803469 -0.33168355 -0.79685402
3.1748147 -0.20122708 -0.80313247
3.08413 -0.54885006 -0.81948149
2.974323 -0.41466278 -0.81609005
2.9107003 -0.29507756 -0.82604712
2.8450043 -0.18022324 -0.83684653
6.0359125 -1.0814921 1.8944298
6.3474407 -0.88814914 1.9036255
6.6415095 -0.67347813 1.9120452
6.8994203 -0.44039181 1.9083095
7.073462 -1.2628098 1.9184422
7.4265227 -1.0411193 1.9198736
7.8172908 -0.79863507 1.9319957
7.9909849 -0.51958996 1.8861908
8.179142 -1.4600571 1.8868682
8.1021996 -1.1346886 1.7721415
8.0605469 -0.8266142 1.6743268
8.0227604 -0.52742153 1.5807526
8.17694 -1.4577497 1.5649056
8.1301804 -1.1407775 1.4620967
8.0476046 -0.82940328 1.3615348
8.0238791 -0.5305894 1.2759351
8.191041 -1.4610009 1.2520916
8.11938 -1.1434528 1.151781
7.5893941 -0.7861954 0.9980073
7.5258646 -0.50438619 0.91464281
7.6925559 -1.3734738 0.88354766
7.6542716 -1.0780878 0.79893577
7.5727224 -0.78754091 0.71433121
7.5299864 -0.5083589 0.63746428
0 -0 0
7.6539798 -1.0804991 0.51490796
7.6032953 -0.79259843 0.43743229
7.5630517 -0.5131107 0.36040157
0 -0 0
7.650156 -1.0837727 0.23120804
7.58389 -0.79445601 0.15679991
7.5489812 -0.51533282 0.082541533
7.6983705 -1.379365 0.022249831
7.6638942 -1.0885844 -0.052826013
7.6130285 -0.80059814 -0.12319455
7.5527434 -0.51837087 -0.19414203
7.7168741 -1.3868511 -0.26557615
7.6930976 -1.0956091 -0.33642352
7.615818 -0.80559546 -0.40483972
7.5902238 -0.52280664 -0.47466856
7.7267356 -1.3939141 -0.55426061
7.6810627 -1.0979989 -0.62156004
7.6454072 -0.8099398 -0.68899304
7.6092873 -0.52638823 -0.75755852
7.584681 -1.3704743 -0.82940924
7.5427656 -1.081588 -0.89243817
7.4749837 -0.79386443 -0.95148671
5.8494892 -0.40608671 -0.80081105
7.6293406 -1.3850075 -1.1234528
7.5947409 -1.0933703 -1.1849699
4.8932095 -0.52157283 -0.80909628
7.4885874 -0.52105916 -1.3091826
4.4138327 -0.80477571 -0.82045072
4.1051335 -0.59296668 -0.79902869
3.9449162 -0.42293051 -0.80316406
3.829601 -0.26767427 -0.81739354
0 -0 -0
3.559629 -0.51582032 -0.83296782
3.332372 -0.35761324 -0.81000966
3.1754546 -0.22083813 -0.80362207
3.0245705 -0.55741835 -0.80454963
3.0175588 -0.43958226 -0.82867748
2.8648198 -0.30819657 -0.81354773
2.8122573 -0.19548079 -0.82755142
6.0545268 -1.1232128 1.9023995
6.3257465 -0.92472237 1.8987852
6.6678386 -0.71750832 1.9208566
6.8840876 -0.48184261 1.9048504
7.0646305 -1.3060123 1.9181844
7.4113679 -1.0854046 1.9176414
7.7861776 -0.84376138 1.9255495
7.9925013 -0.56895751 1.8873371
8.1738653 -1.5109248 1.8877541
8.1211958 -1.1882015 1.7778574
8.0660334 -0.877222 1.6765529
8.0223093 -0.57684952 1.5813315
8.185236 -1.5111063 1.5682383
8.1327677 -1.1920695 1.4638499
8.0580482 -0.88048065 1.3641902
8.0401745 -0.58123732 1.2790693
8.1945629 -1.5135676 1.2540262
8.1278868 -1.1955566 1.1540066
7.5942841 -0.83383042 0.99930429
7.5315385 -0.55120665 0.91572624
7.6996174 -1.4235389 0.88534534
7.6691628 -1.1282183 0.80119753
7.5875401 -0.8361727 0.71619946
7.5416312 -0.55565071 0.63872677
0.85888135 -0.15893327 0.066626586
7.6758323 -1.1316632 0.51683545
7.6012654 -0.83956522 0.43760365
7.5707188 -0.56031805 0.36092398
0.92746466 -0.17192575 0.037242364
7.6750035 -1.1353735 0.23216517
7.6196136 -0.8454957 0.15764281
7.5696092 -0.56342417 0.082803331
7.7202415 -1.4322298 0.022338022
7.6748757 -1.1382293 -0.052948847
7.6387787 -0.85072654 -0.12369338
7.5603867 -0.56552416 -0.19442403
7.7239404 -1.4370998 -0.26611781
7.6971006 -1.1444087 -0.33689931
7.6335573 -0.85486627 -0.4060539
7.5958304 -0.57004178 -0.475229
7.7552991 -1.4482566 -0.5569365
7.6948843 -1.1481977 -0.62323689
7.6422729 -0.85705787 -0.68917155
7.6813278 -0.57875007 -0.76506984
7.6113129 -1.4235678 -0.83326101
7.5693841 -1.1328475 -0.89639318
7.4423676 -0.83661205 -0.94797063
7.4503846 -0.56318051 -1.020432
5.4059787 -1.0156876 -0.796956
7.5957074 -1.1411247 -1.1861908
4.9046249 -0.55324626 -0.81152987
7.4911432 -0.56744492 -1.3102136
4.3759465 -0.82564235 -0.81433469
4.0645208 -0.61258322 -0.79184055
3.9334817 -0.44613394 -0.80137831
3.8171589 -0.29035121 -0.81510276
0 -0 -0
3.4408047 -0.52017701 -0.80589414
3.3291492 -0.3779439 -0.80977476
3.1701725 -0.24002539 -0.80264288
3.0904672 -0.58919227 -0.82302463
2.9671023 -0.45084113 -0.81556553
2.8762615 -0.32729226 -0.81735188
2.7679501 -0.20947447 -0.81487614
6.0456443 -1.1599815 1.9018092
6.3379588 -0.96626407 1.9041948
6.6308346 -0.75471151 1.9114946
6.9050307 -0.52590364 1.9115024
7.0716672 -1.3522388 1.9223117
7.4256368 -1.1340772 1.9230977
7.7644525 -0.88964134 1.9214907
8.0082693 -0.61948931 1.8919226
8.1845541 -1.5648961 1.8924048
8.1234131 -1.239484 1.7799743
8.0682812 -0.92759246 1.6781716
8.0244884 -0.62652087 1.5824889
8.2009068 -1.5660942 1.5730523
8.1340599 -1.2432877 1.465428
8.0740461 -0.93239611 1.3678414
8.0305481 -0.63009638 1.278129
8.2094049 -1.5684594 1.2577465
8.1301861 -1.2469071 1.1553977
7.5978889 -0.88144076 1.0004716
7.5458279 -0.59882253 0.91789305
7.7161131 -1.4756088 0.88826644
7.6689782 -1.1763097 0.8019172
7.6168799 -0.88674277 0.71946889
7.5499997 -0.60286659 0.63973677
0.86670393 -0.16588727 0.067311108
7.6855092 -1.1813169 0.51796538
7.6118374 -0.88804096 0.43851772
7.5980043 -0.60923553 0.36239615
0.92541087 -0.17742518 0.03720291
7.6471467 -1.1792458 0.23153704
7.6311636 -0.89421093 0.15799232
7.6078715 -0.61323404 0.083261468
7.7545199 -1.4878644 0.022463197
7.679606 -1.1871332 -0.05303074
7.6294432 -0.89711416 -0.12362902
7.5717206 -0.6131134 -0.19480857
7.750308 -1.4912642 -0.26733652
7.6919079 -1.1919216 -0.3369858
7.6450272 -0.90368164 -0.40695131
7.6001477 -0.6172846 -0.47572711
7.7541018 -1.4973279 -0.55749989
7.7014842 -1.1975352 -0.62435484
7.6576419 -0.90639246 -0.691046
7.718297 -0.62918586 -0.76912206
7.5809588 -1.4660898 -0.83090711
7.5779924 -1.1817197 -0.89825439
7.5001454 -0.8897416 -0.95600748
7.5317144 -0.61582851 -1.0320693
5.3899298 -1.0469519 -0.79552215
7.6100435 -1.1910716 -1.1895485
4.8776217 -0.58053112 -0.80763608
7.5150118 -0.61565119 -1.3150241
4.3196263 -0.84249663 -0.80480075
4.145081 -0.65076089 -0.80829781
3.9530537 -0.47293887 -0.80594176
3.8104315 -0.31336656 -0.81406146
3.5466847 -0.69527745 -0.80151182
3.4847038 -0.54870474 -0.81694919
3.3451045 -0.40055984 -0.81423819
3.2005296 -0.26208404 -0.8107208
0 -0 -0
2.9490297 -0.46662536 -0.81136966
2.8770657 -0.34527853 -0.81816703
2.7427046 -0.22449742 -0.80783433
6.0365391 -1.1966834 1.9012189
6.3461123 -1.0073893 1.9084657
6.5764456 -0.78942543 1.8971763
6.880538 -0.56652194 1.9056486
7.068924 -1.3967279 1.9238595
7.4214091 -1.180075 1.9238418
7.7723446 -0.93889678 1.9248332
8.0159569 -0.66958773 1.8946736
8.2006292 -1.6201895 1.8983843
8.1282034 -1.2912985 1.7827265
8.0672989 -0.97767019 1.6791835
8.0439587 -0.67772347 1.5871189
8.208497 -1.6198089 1.5763849
8.1369734 -1.2948759 1.4673566
8.0926456 -0.98489839 1.3719903
8.0265312 -0.67935902 1.278129
8.2102976 -1.6209086 1.2593833
8.1546526 -1.3019216 1.159988
7.5884008 -0.92756271 0.99995279
7.5647607 -0.64705747 0.92066175
7.7127624 -1.5240819 0.88894057
7.6753683 -1.2255394 0.80335659
7.6280956 -0.93552279 0.72105694
7.563036 -0.65063316 0.64116758
0.8666479 -0.17139558 0.067387164
7.665308 -1.2264026 0.51710135
7.6220999 -0.93667793 0.43943179
7.5981035 -0.65618825 0.36258611
0.92234445 -0.18271172 0.037124008
0.92869407 -0.14905091 0.028145764
7.6473627 -0.94371188 0.1584446
7.6119347 -0.66059518 0.083348729
7.7540727 -1.5371673 0.022488799
7.6850119 -1.2362968 -0.053119455
7.6376867 -0.94563067 -0.12385429
7.5966969 -0.66207814 -0.19555201
7.7674785 -1.5440522 -0.26825052
7.6696548 -1.2367102 -0.336337
7.6542025 -0.95242321 -0.40774316
7.62008 -0.66599214 -0.47722158
7.7525945 -1.5464391 -0.55806321
7.6949749 -1.2449272 -0.62443465
7.6687384 -0.95545518 -0.69256341
7.7132993 -0.67644566 -0.76902318
7.5435457 -1.5069299 -0.82780433
7.6009908 -1.2331256 -0.90186036
7.4394164 -0.92886168 -0.94897521
7.5534558 -0.66428745 -1.0355875
0 -0 -0
5.0371804 -0.82008052 -0.7881484
4.868093 -0.60971296 -0.80666262
7.5336637 -0.66373944 -1.3189758
4.2960539 -0.86529523 -0.80138302
4.1468248 -0.67713183 -0.8094328
3.9598014 -0.49840939 -0.80792582
3.8074627 -0.33665487 -0.8138532
3.5213006 -0.71276534 -0.79674864
3.4543517 -0.56566793 -0.81063199
3.3927321 -0.42739487 -0.82645416
3.2191439 -0.28350341 -0.81586123
3.0119016 -0.6126107 -0.80404341
2.9794383 -0.49019468 -0.82054812
2.865345 -0.36172006 -0.81544977
2.8081827 -0.24721214 -0.82755142
6.0412512 -1.2361904 1.9050562
6.3417029 -1.0466214 1.9090351
6.608675 -0.83445966 1.907915
6.9076586 -0.6114493 1.9141631
7.0715804 -1.4423928 1.926955
7.4092493 -1.2247998 1.9226017
7.7837768 -0.98877198 1.9291307
8.0349646 -0.72084749 1.900176
8.2211084 -1.6767131 1.9054711
8.1423044 -1.3448108 1.7875955
8.0844631 -1.0301226 1.6840401
8.058217 -0.72874665 1.5907843
8.2205515 -1.6746567 1.5806435
8.164813 -1.3507243 1.4738438
8.1118822 -1.037789 1.3763052
8.0418835 -0.7303828 1.2812632
8.2069798 -1.6726378 1.2604251
8.1601877 -1.3542029 1.1619356
7.6032195 -0.97676003 1.0026764
7.5863514 -0.69581926 0.92379165
7.6847672 -1.5676044 0.88680589
7.6755543 -1.2739143 0.80417907
7.6389985 -0.98447371 0.72264498
7.5727925 -0.69830775 0.64234591
0.86264902 -0.17611167 0.06715899
7.6350007 -1.2696486 0.51557261
7.6280909 -0.98496288 0.44011733
7.6118374 -0.70445389 0.36344093
0.921206 -0.18836768 0.037124008
7.6459031 -1.2753017 0.2319558
7.6543179 -0.99228841 0.15871185
7.6027598 -0.70682585 0.08329419
7.7464542 -1.5851175 0.022494489
7.6970077 -1.2867254 -0.053255938
7.6555371 -0.99557143 -0.12424047
7.6143889 -0.71072203 -0.19611602
7.7696066 -1.594094 -0.26865676
7.7161155 -1.292827 -0.33871594
7.6690083 -1.0020877 -0.40885171
7.6317492 -0.7142235 -0.47821784
7.7693396 -1.5994096 -0.55996448
7.7333937 -1.2998852 -0.62818772
7.6726074 -1.0037838 -0.69345599
7.7060318 -0.72348177 -0.76872671
7.5662918 -1.5598124 -0.83133513
7.5139503 -1.266371 -0.89243817
7.4689889 -0.9791339 -0.95349598
7.5423326 -0.70997214 -1.0346403
0 -0 -0
7.7147117 -1.304638 -1.2083212
4.7674055 -0.62683672 -0.79060078
7.522584 -0.70930529 -1.3177732
4.2945156 -0.89243954 -0.80210251
0 -0 -0
3.9819324 -0.52603436 -0.81308448
3.8082466 -0.36028707 -0.81447798
3.4929693 -0.72936934 -0.79133594
3.4584992 -0.58815944 -0.81243688
3.343792 -0.4420889 -0.81517792
3.2134824 -0.30288646 -0.8148821
2.9844153 -0.62611383 -0.79771644
2.9887402 -0.51057947 -0.8239572
2.8306344 -0.37499744 -0.80621111
2.8457794 -0.26812842 -0.83909988
6.0232687 -1.2710655 1.9018092
6.3077612 -1.0808187 1.9007782
6.5967593 -0.87411004 1.9059876
6.8692293 -0.65055054 1.9045843
7.0436878 -1.4817781 1.9217957
7.3758154 -1.2658148 1.9159054
7.7804513 -1.0368986 1.929847
8.041049 -0.77115774 1.9026982
8.2192554 -1.728932 1.9074645
8.1570187 -1.3987101 1.7926763
8.1061401 -1.0834711 1.6899086
8.0623837 -0.77902657 1.5925205
8.2360868 -1.7305213 1.5856426
8.1854811 -1.4057966 1.4791039
8.1151352 -1.0888544 1.3779649
8.0500298 -0.78095281 1.2833004
8.2314005 -1.7302866 1.2657822
8.1770983 -1.4086182 1.1655523
7.6383553 -1.0289539 1.0081236
7.5947828 -0.74361271 0.92535657
7.6536112 -1.6102271 0.88433409
7.6715136 -1.3216622 0.80459028
7.6436672 -1.0327936 0.72367251
7.5822487 -0.74612659 0.64352417
0.86740649 -0.1826341 0.067615338
0.85149407 -0.14697239 0.057559095
7.6456475 -1.0349635 0.44148839
7.6202941 -0.75242198 0.36405832
0.89852303 -0.18948056 0.036256071
7.6842246 -1.3302053 0.23336159
7.6589828 -1.0407165 0.15893801
7.6181808 -0.75543565 0.083512351
7.7434316 -1.6340643 0.022514405
7.7007904 -1.3359803 -0.053337827
7.656219 -1.0434713 -0.12435312
7.6138635 -0.75782567 -0.19621855
7.7763019 -1.6452543 -0.26923227
7.6922889 -1.3374097 -0.3380239
7.6844816 -1.0521051 -0.41001305
7.627223 -0.76103759 -0.47821784
7.7906041 -1.6536793 -0.56221789
7.7370553 -1.349367 -0.62914586
7.6751847 -1.0520605 -0.69425935
7.6994672 -0.77055335 -0.76852906
7.4661331 -1.5869842 -0.82138479
7.3651533 -1.2878178 -0.87568748
6.428874 -0.88293964 -0.82139039
7.5289617 -0.75534749 -1.0334225
0 -0 -0
7.6715183 -1.3458025 -1.2028269
4.7810655 -0.65850061 -0.79352111
4.5569229 -0.45789897 -0.7987389
4.3351288 -0.92866379 -0.81073701
0 -0 -0
3.9388242 -0.54494989 -0.8049497
3.8118031 -0.3842358 -0.81572753
3.5848253 -0.77153492 -0.81320328
3.458663 -0.61004621 -0.81333935
3.3554587 -0.46459737 -0.81870174
3.2260342 -0.32405189 -0.81855381
3.0041573 -0.64952523 -0.80404341
2.9456425 -0.52183831 -0.8129431
2.8063555 -0.38931727 -0.79996145
2.8431258 -0.28548887 -0.83881825
6.0237589 -1.3098267 1.9044658
6.294404 -1.1183282 1.8987852
6.5569916 -0.909814 1.8960748
6.8679852 -0.69297743 1.9053825
7.0325751 -1.5245602 1.9212799
7.3936615 -1.3156304 1.9226017
7.7672105 -1.0836798 1.9281757
8.0497227 -0.82186627 1.9059079
8.2332697 -1.784703 1.9132223
8.1713772 -1.4528403 1.7977573
8.1158266 -1.1354958 1.6933485
8.083806 -0.83119154 1.5977293
8.2406816 -1.7843521 1.5886052
8.1922092 -1.4587568 1.4819093
8.121973 -1.1405474 1.3802884
8.0706291 -0.83296847 1.287375
8.2312593 -1.7830638 1.2674191
8.1868238 -1.4620733 1.1681952
7.6426988 -1.077325 1.0095502
7.6019258 -0.79143304 0.92680115
0 -0 0
7.677948 -1.3713323 0.80613244
7.6618319 -1.083159 0.72600788
7.5914021 -0.79408765 0.64470249
0.8623718 -0.18710728 0.067311108
0.86825567 -0.15535769 0.058755472
7.6529927 -1.0838168 0.44228819
7.6244745 -0.80010325 0.36448571
0 -0 0
0.94350237 -0.16929752 0.028684154
7.6831379 -1.0920531 0.15957533
7.6342859 -0.80436605 0.083741426
7.7772317 -1.6911079 0.022642424
7.7032738 -1.3851529 -0.053412892
7.6763992 -1.0942391 -0.12478758
7.6388946 -0.80768263 -0.19698763
7.7953548 -1.6993238 -0.27024785
7.7429314 -1.3952138 -0.34061909
7.6956749 -1.1017839 -0.41096327
7.6224098 -0.80782306 -0.47821784
7.8066225 -1.7072043 -0.56411916
7.725688 -1.3962835 -0.62890631
7.6922474 -1.1025262 -0.69640154
7.7084475 -0.81925422 -0.76991272
7.4853921 -1.639146 -0.82459456
7.5662551 -1.3708783 -0.90058082
7.4112387 -1.0642295 -0.94771945
7.5458603 -0.80383909 -1.0363995
0 -0 -0
7.6670051 -1.3935556 -1.2034373
4.801352 -0.69134009 -0.79757714
4.5363951 -0.48396999 -0.79564631
4.2217631 -0.931508 -0.79058993
0 -0 -0
3.9868178 -0.57654256 -0.81546545
3.8084011 -0.40751329 -0.81551921
3.6448376 -0.80788255 -0.82792574
3.3197272 -0.60656673 -0.78152776
3.2842433 -0.47529283 -0.80202234
3.1651745 -0.33756816 -0.80362207
3.0444987 -0.67782766 -0.81593835
2.9651647 -0.54408252 -0.81923687
2.7924848 -0.40487236 -0.79670072
2.8088813 -0.29947007 -0.82924145
6.0165405 -1.3469719 1.904761
6.2685676 -1.1534593 1.8930908
6.5798273 -0.9541688 1.9043355
6.8281412 -0.73130739 1.8955377
6.9995141 -1.5624204 1.9148309
7.3844972 -1.3607968 1.9223537
7.7536883 -1.1303375 1.9265044
8.049367 -0.87176704 1.9070543
8.2459583 -1.8404987 1.918759
8.166153 -1.5036595 1.798604
8.1203346 -1.1869719 1.6957769
8.0863562 -0.88162792 1.5992725
8.2449245 -1.838304 1.5915675
8.1976261 -1.5116737 1.4845392
8.1333599 -1.1930808 1.3834416
8.0869656 -0.88483655 1.2908226
8.2220936 -1.8339669 1.2677168
8.2010679 -1.5166008 1.1715336
7.6486969 -1.1260769 1.0112363
7.5979133 -0.83817148 0.92692149
0.84178412 -0.18791714 0.097522803
7.6625423 -1.4171512 0.80541277
7.6678457 -1.1320411 0.72722226
7.6091661 -0.84317684 0.64663827
0.85050321 -0.19000381 0.066474468
0.86434275 -0.16013697 0.058556076
7.6797776 -1.1357201 0.44423056
7.6343136 -0.84852624 0.36519808
0 -0 0
0.92279106 -0.17143218 0.028085945
7.686182 -1.140643 0.1597809
7.6480885 -0.85330063 0.083948679
7.7754912 -1.7407624 0.022668028
7.728055 -1.4386156 -0.053644918
7.6952534 -1.1451465 -0.12520595
7.634788 -0.85464996 -0.19701327
7.8003845 -1.7506249 -0.2707895
7.7558317 -1.4467276 -0.34157065
7.7035842 -1.1511967 -0.41175511
7.6272283 -0.85569084 -0.47884053
7.8164368 -1.7596735 -0.56559795
