# .PCD v0.7 - Point Cloud Data file format
VERSION 0.7
FIELDS x y z
SIZE 4 4 4
TYPE F F F
COUNT 1 1 1
WIDTH 1494
HEIGHT 1
VIEWPOINT 0 0 0 1 0 0 0
POINTS 1494
DATA ascii
2.1351895 0.60959482 0.4809826
2.0177166 0.65758204 0.43851414
1.4121821 0.51804328 0.29574004
2.1148429 0.51937693 0.41029707
2.0080647 0.57273233 0.37187994
1.986156 0.64618444 0.35150301
1.3288999 0.48691329 0.22456583
2.1146913 0.51914406 0.32768077
1.3867503 0.39476457 0.20253539
1.3693327 0.44471177 0.18831795
1.3613504 0.49742925 0.17575395
1.801759 0.44198763 0.20976391
1.4226091 0.40494558 0.15287833
1.3770316 0.44660112 0.13582289
1.3788701 0.5030672 0.12397477
1.4090644 0.34542149 0.11066402
1.4002795 0.39811397 0.096973121
1.3970754 0.45272452 0.084035896
1.3758165 0.50143617 0.069620334
1.4645766 0.35854217 0.059532546
1.4356434 0.40741009 0.044656351
1.4202219 0.45943099 0.030693887
1.3446116 0.48942521 0.01560948
1.796991 0.43965444 0.0052630338
1.4566058 0.41278204 -0.010331816
1.3758042 0.4444522 -0.023267936
1.346308 0.48948389 -0.036736503
1.584538 0.38679615 -0.055247966
1.4496596 0.41023967 -0.065225847
1.3429703 0.43293941 -0.074591026
1.3498849 0.49041098 -0.089603573
1.4829062 0.36094522 -0.10773965
1.3506701 0.38146287 -0.11243019
1.3385971 0.43129751 -0.12603422
1.3525804 0.49093601 -0.14291319
1.4095691 0.34267777 -0.1561027
1.3507437 0.38084731 -0.16436589
1.3438232 0.43259308 -0.17869416
1.3589615 0.49287629 -0.19742876
1.3956417 0.3380796 -0.20805743
1.350914 0.380081 -0.21672556
1.3489769 0.43368053 -0.23297819
1.3605205 0.49319991 -0.25238708
1.4171109 0.3421284 -0.26658803
1.3915864 0.39081663 -0.27844942
1.3849701 0.44431862 -0.29444057
1.3702426 0.49623728 -0.31029716
1.5434554 0.37106374 -0.35204166
1.4295877 0.4007892 -0.3438361
1.3800427 0.44257846 -0.3502681
1.4000967 0.50760192 -0.37598643
2.6381598 0.63161325 -0.70964366
1.6663659 0.46582207 -0.47019583
1.8357087 0.58818018 -0.54426718
1.8113075 0.65675706 -0.56559676
5.9893503 1.426471 1.9021044
6.1541014 1.7170331 1.8976464
6.3179045 2.0241325 1.9002053
6.4253159 2.326241 1.8862249
7.0009604 1.672053 1.9217957
7.2200618 2.0124056 1.9188815
2.0618253 0.65886253 0.53218222
2.0573993 0.7421065 0.51516604
8.6672888 2.0701854 2.0237327
8.9547176 2.4972436 2.0136912
2.0189147 0.64429599 0.43790707
1.4347222 0.51634616 0.29979125
2.0568206 0.49176577 0.39844733
2.0371478 0.56753409 0.37661391
2.0060568 0.63907409 0.35432434
1.326286 0.47674558 0.22362557
2.1351488 0.51029629 0.33035934
1.395825 0.38810515 0.20350911
1.3758153 0.43750328 0.18883674
1.3634424 0.48873183 0.17563358
2.1610718 0.51609313 0.25122234
1.4174002 0.39407742 0.15205584
1.3750013 0.43663672 0.13535582
1.376302 0.4925825 0.12346979
1.4324945 0.34186122 0.11233729
1.3978889 0.38817966 0.096640788
1.3969721 0.4432379 0.08386451
1.3769863 0.49231234 0.069525354
1.4735529 0.35117045 0.059808709
1.4352266 0.39779258 0.04456662
1.4258735 0.45161366 0.030755563
1.3570065 0.48452806 0.015718561
2.1936333 0.52245307 0.0064152111
1.4658574 0.40570384 -0.010379585
1.3880386 0.43901727 -0.023428848
1.3398702 0.4778558 -0.03648014
1.6092457 0.38238037 -0.056026582
1.4386681 0.39761105 -0.064620309
1.3465536 0.42499149 -0.074643813
1.3509884 0.48144895 -0.089479037
1.5006235 0.35551888 -0.10886634
1.3866178 0.38244429 -0.11522496
1.3383685 0.42217702 -0.12576644
1.3546299 0.48229373 -0.14281435
1.4135803 0.33448026 -0.15631668
1.3530551 0.37255213 -0.16436589
1.3332053 0.42016459 -0.17693609
1.3563591 0.48253599 -0.19661684
1.420808 0.33495992 -0.21149875
1.34655 0.36995205 -0.21565719
1.3440826 0.42302531 -0.23168026
1.3635211 0.48484266 -0.25238708
1.43259 0.33657649 -0.26910639
1.3863823 0.38019308 -0.27693611
1.3886052 0.43610591 -0.29463896
1.3778698 0.48945728 -0.31133842
1.5257401 0.35691634 -0.34749499
1.4245027 0.38995206 -0.34203118
1.3910788 0.4367227 -0.35238239
1.3949631 0.49607772 -0.37378341
2.6410434 0.61519444 -0.70939058
2.5321829 0.69113278 -0.713292
1.8227545 0.57172108 -0.53937614
1.8198233 0.64723831 -0.56700504
5.9979901 1.3896942 1.9021044
6.1802444 1.6835231 1.9024866
6.2751679 1.9680672 1.883684
6.4576359 2.2932239 1.8915465
7.0101471 1.6288458 1.9215379
7.2285347 1.9670488 1.9178895
2.0584149 0.64387977 0.53027225
2.0811841 0.73628598 0.51998061
8.6741285 2.0156405 2.0224037
8.9906187 2.4479001 2.0183487
2.0256343 0.63277209 0.43851414
1.9745178 0.69695997 0.41168249
10.690473 2.486743 2.0679638
2.0462918 0.55657405 0.37766591
2.0118232 0.62734026 0.35465625
1.3366379 0.47122571 0.22487925
2.1806195 0.50703984 0.33690703
1.4125155 0.38342455 0.20559567
1.3813142 0.42993724 0.18922582
1.363606 0.47936898 0.17527243
2.1729088 0.50484723 0.25223354
1.434191 0.38928142 0.153598
1.3938174 0.43321529 0.13694385
1.3830593 0.48544842 0.12380645
1.9075735 0.44288418 0.14937741
1.4089116 0.38194469 0.09723898
1.4006189 0.43495399 0.083921641
1.3950628 0.48914206 0.070285194
1.692749 0.39244765 0.068606429
1.426062 0.38584596 0.044207692
1.4429421 0.44729656 0.03106394
1.3693916 0.4794971 0.015827641
2.161727 0.50085765 0.0063127954
1.4876264 0.40191823 -0.010516069
1.402168 0.43404016 -0.023621943
1.3399462 0.46863544 -0.036403231
1.5950078 0.36867276 -0.055451084
1.4893095 0.40178731 -0.066782966
1.3472277 0.41613176 -0.074538231
1.3510904 0.47216257 -0.089292236
1.4979165 0.34518453 -0.10851425
1.3985636 0.37652031 -0.11602347
1.3380787 0.4130756 -0.12549867
1.3425318 0.46872464 -0.14123301
1.4214196 0.32713839 -0.15695864
1.3677849 0.36759406 -0.1658781
1.3348104 0.41168389 -0.17681053
1.3518102 0.47159356 -0.1955343
1.3996853 0.32092747 -0.20805743
1.3573855 0.36398652 -0.21703079
1.3532542 0.41680339 -0.23281595
1.3618193 0.47484538 -0.25152802
1.4470949 0.33062831 -0.27144489
1.397226 0.37396416 -0.27863857
1.3940656 0.42844117 -0.2952342
1.3789998 0.48035011 -0.31092191
1.5821633 0.3598907 -0.35983592
1.4532224 0.38824487 -0.34834838
1.3825824 0.42475352 -0.3495633
1.4053048 0.49006313 -0.37574166
2.6466556 0.59940511 -0.70989674
2.6053803 0.69396245 -0.73269778
1.6045047 0.49247229 -0.47389019
1.8282905 0.63763982 -0.56841344
6.0045404 1.3524452 1.9015141
6.1867523 1.644585 1.9013478
6.3284822 1.9422187 1.8960748
6.4907022 2.2602143 1.8971341
7.0039883 1.5821825 1.9171525
7.2385955 1.922161 1.9173934
7.4219627 2.2717159 1.9083592
2.0709491 0.71839815 0.51631236
8.6768217 1.9602304 2.0201893
9.0073576 2.3931906 2.0187721
2.055702 0.6283465 0.44418025
2.0019386 0.69285434 0.4165054
10.700737 2.4200168 2.0670381
2.0715542 0.54981655 0.38169855
1.9939408 0.60836524 0.3508392
1.3357704 0.46172479 0.22425242
2.1740441 0.49146983 0.33541891
1.4196279 0.37601805 0.20629118
1.3810806 0.42058697 0.18883674
1.3702757 0.47228697 0.17575395
2.1779044 0.49194291 0.25245824
1.4413604 0.38174742 0.15411204
1.3964494 0.42465484 0.13694385
1.3681096 0.47079247 0.12220731
2.1397967 0.48298198 0.16732703
1.4112287 0.37329257 0.09723898
1.4003956 0.42548108 0.083750255
1.4084287 0.48414475 0.070807584
2.1776364 0.49080399 0.088135004
1.4428992 0.38091555 0.044656351
1.4485298 0.43930492 0.031125616
1.3751453 0.47205964 0.015860366
2.150126 0.48428813 0.0062701218
1.5248746 0.4019587 -0.010761739
1.4067187 0.42600805 -0.023654126
1.3380684 0.45878372 -0.036275052
1.6157671 0.36304185 -0.056094289
1.5081717 0.39696467 -0.067518272
1.3793892 0.41681188 -0.076174699
1.3501855 0.46256965 -0.089043163
1.5077933 0.33773121 -0.10907759
1.4124168 0.37097046 -0.11698169
1.3444021 0.40600935 -0.1258557
1.3406751 0.45886701 -0.14073886
1.4350435 0.32101512 -0.15824255
1.3671324 0.35843891 -0.16552913
1.3430099 0.40520528 -0.17756397
1.3546785 0.46329013 -0.1955343
1.4248115 0.31749922 -0.21149875
1.3595934 0.3556509 -0.21703079
1.3501173 0.40678415 -0.23184249
1.3553855 0.46329412 -0.24980994
1.4375728 0.3191843 -0.26928627
1.3947438 0.36414361 -0.27769276
1.394791 0.41931492 -0.29483739
1.3809956 0.47156364 -0.31071368
1.5729026 0.34764761 -0.35723785
1.4866874 0.38742799 -0.35579365
1.3954024 0.41933939 -0.35214746
1.4009457 0.47892201 -0.37378341
2.7664993 0.60872573 -0.74102592
2.6151934 0.67941898 -0.73427123
1.6157919 0.48510855 -0.47633573
1.8303527 0.62578881 -0.56785005
6.0127258 1.3155766 1.9015141
6.18188 1.6027435 1.8967922
6.3292317 1.9000345 1.8927706
6.4989753 2.2184772 1.8955377
6.9880848 1.5335854 1.9101876
7.2605696 1.8803813 1.9201217
7.4441347 2.2286394 1.910508
2.0725534 0.70473742 0.51562452
8.6810656 1.9052809 2.0184176
9.0266037 2.3391032 2.0198305
2.0388765 0.60954982 0.43972832
2.0219486 0.6859163 0.41978496
10.717304 2.3547344 2.0674083
2.0529678 0.53142101 0.37766591
2.0089757 0.59950304 0.35283071
1.3535448 0.45859072 0.22675978
2.2166185 0.48681784 0.34152013
1.5839466 0.40915719 0.22979976
1.3807843 0.41125578 0.18844765
1.3750288 0.46450564 0.17599469
2.2080576 0.48453376 0.25560412
1.448491 0.37414002 0.15462609
1.3990288 0.41607839 0.13694385
1.3709726 0.46238905 0.12220731
2.2177153 0.48628789 0.17318349
1.4076957 0.36313102 0.09684018
1.40298 0.4168804 0.083750255
1.408533 0.47453693 0.070665114
2.2030573 0.48234841 0.089042388
1.4500493 0.37330094 0.044805903
1.4521567 0.43069291 0.031146176
1.3827546 0.46520728 0.015914906
2.1833405 0.47771209 0.0063583134
1.5428082 0.39657789 -0.010870926
1.4188933 0.4202078 -0.023815038
1.3474914 0.45279378 -0.036454502
1.6277287 0.35525194 -0.056432817
1.5183206 0.38969016 -0.067864299
1.3656403 0.40352961 -0.075277284
1.3501599 0.45332333 -0.088856362
1.5147108 0.32953349 -0.10942968
1.4320481 0.36674848 -0.11841901
1.3497337 0.39859888 -0.12612349
1.3406352 0.4496828 -0.14044236
1.4486452 0.3147369 -0.15952647
1.3837399 0.35373345 -0.16727398
1.3445195 0.39667639 -0.17743841
1.3490407 0.45213553 -0.19431645
1.4015837 0.3033084 -0.20777066
1.3665382 0.34852308 -0.21779391
1.3582671 0.4001655 -0.23281595
1.3544662 0.45371726 -0.24912269
1.4875838 0.32072347 -0.27828047
1.4102744 0.35896987 -0.28034106
1.3945166 0.4099195 -0.29424214
1.3810805 0.46215001 -0.3100889
1.5387332 0.33020592 -0.34901056
1.4786503 0.37565982 -0.35331193
1.4147358 0.41570199 -0.35637605
1.4075353 0.47154894 -0.37476251
2.2791562 0.48685113 -0.609676
2.6239903 0.66454422 -0.73558241
1.6381296 0.48087755 -0.48204195
1.8341579 0.61454618 -0.56785005
6.0440497 1.2836206 1.9088935
6.1981034 1.5664263 1.8987852
6.3684435 1.8692858 1.9010311
6.5115509 2.1782527 1.8952715
7.0105925 1.4934968 1.913799
7.2804241 1.83793 1.9223537
7.4716482 2.1870129 1.9140892
2.0685275 0.68923795 0.51356107
8.7183447 1.8574656 2.0243971
9.067318 2.2903748 2.025758
2.0576179 0.60142404 0.44296607
2.0130835 0.66916382 0.41708413
10.745007 2.2917998 2.0700004
2.0791001 0.5245949 0.38187391
2.0324962 0.59296471 0.35631585
1.3675814 0.45401108 0.2286403
2.2166624 0.47258916 0.34107369
2.0934694 0.52709359 0.30324665
1.3947059 0.40610212 0.19000399
1.3778532 0.4560599 0.17599469
2.2255673 0.47408161 0.25728944
1.5491487 0.39001581 0.1651127
1.3967752 0.40609649 0.13647677
1.3822992 0.4567821 0.1229648
2.2031026 0.46893454 0.17181444
1.4176387 0.35643309 0.097371906
1.4064703 0.40854251 0.083807386
1.418058 0.46807709 0.070997544
2.1991334 0.46736753 0.088766217
1.4610381 0.36658588 0.0450751
1.4566925 0.42233133 0.031187292
1.4102746 0.4648529 0.016198516
2.194056 0.46596828 0.0063810721
1.5966225 0.39998311 -0.011232608
1.4320098 0.41455215 -0.023992041
1.3682855 0.45045662 -0.036941592
1.6240115 0.34401503 -0.056229703
1.5410364 0.38545752 -0.068772614
1.4170195 0.40927464 -0.077969529
1.3500717 0.44409478 -0.088669553
1.5069443 0.31817248 -0.1087255
1.4487785 0.36157528 -0.11961677
1.3464124 0.38865221 -0.12558793
1.3424237 0.44113767 -0.14034352
1.4476305 0.30522689 -0.15920548
1.3858844 0.34523633 -0.16727398
1.342162 0.38704467 -0.17681053
1.3517896 0.44384947 -0.19431645
1.4489398 0.30426174 -0.21450993
1.3878331 0.34489867 -0.22084638
1.3550075 0.39018551 -0.23184249
1.3488005 0.44263336 -0.24757642
1.5078179 0.31541672 -0.28169829
1.4181688 0.35172808 -0.28147602
1.3951216 0.40081394 -0.29384533
1.3866785 0.4545812 -0.31071368
2.0721486 0.43139192 -0.4693889
1.4809275 0.36657992 -0.35331193
1.425668 0.40942821 -0.35849032
1.3965838 0.4583683 -0.37109077
2.2385237 0.46382809 -0.5980342
2.6308291 0.64912474 -0.73636913
1.6641759 0.47745213 -0.48883513
1.8488342 0.60687143 -0.57123017
6.0649133 1.2492094 1.9130259
6.2234221 1.532262 1.9036255
6.3687043 1.8269936 1.8977269
6.5202141 2.1367567 1.8939413
7.027194 1.4520166 1.9158628
7.2661648 1.7869771 1.9156574
7.5017328 2.1459341 1.9183869
2.0588379 0.67200243 0.51012212
8.7343531 1.8049227 2.0255044
9.1001816 2.2393665 2.0299923
2.0706861 0.59147716 0.44498968
2.0199506 0.65771055 0.41766289
10.756942 2.2254283 2.0696301
2.1606758 0.53109777 0.39625114
2.0332513 0.57967126 0.35581797
1.3675237 0.44469494 0.22817017
2.2630975 0.46799049 0.34777018
2.1197467 0.51989973 0.30658513
1.4000326 0.39835081 0.19039308
1.3834586 0.44851542 0.17635584
2.2342727 0.46162313 0.25796354
2.0442097 0.50133532 0.21754576
1.4164798 0.40241593 0.13815822
1.3831799 0.44767821 0.12279647
2.1922674 0.45258537 0.17074963
1.4217373 0.34820268 0.097504847
1.403188 0.3982693 0.083464615
1.4218538 0.45967448 0.071045034
2.1970668 0.45285654 0.088568963
1.4700567 0.35927531 0.045284472
1.4515609 0.41120526 0.031022822
1.4226162 0.45926291 0.016307598
2.1772852 0.44846231 0.0063241748
1.6680214 0.40700921 -0.011717126
1.4528068 0.41092834 -0.024297776
1.3738781 0.44297281 -0.0370185
1.6280497 0.33444601 -0.056297407
1.5608445 0.3802512 -0.06955117
1.4358423 0.40518275 -0.078866944
1.3499213 0.43488443 -0.08848276
1.4893233 0.30491853 -0.10731714
1.4577502 0.35432696 -0.12017573
1.3612338 0.38389802 -0.12674829
1.3488942 0.43411183 -0.14073886
1.4348645 0.29335135 -0.1576006
1.3966635 0.33883363 -0.16832089
1.3426017 0.37826392 -0.17655936
1.3516579 0.43463677 -0.19391049
1.4275049 0.290627 -0.2110686
1.4072133 0.34056097 -0.22359361
1.3554764 0.38132954 -0.23151802
1.3608699 0.43736315 -0.2492945
1.8857099 0.38240546 -0.35185301
1.4069372 0.3397924 -0.27882776
1.3984984 0.39251095 -0.29404375
1.3885103 0.44576514 -0.31050542
2.1991653 0.44377404 -0.49753487
1.5447099 0.37232441 -0.36797681
1.4356405 0.40277329 -0.36036971
1.4021392 0.45068046 -0.37182513
2.2195117 0.44570318 -0.59221333
2.6460223 0.63567507 -0.73951602
1.7134074 0.48021781 -0.50242138
1.8607444 0.5981586 -0.57376522
6.0509138 1.207671 1.9062368
6.2289777 1.493153 1.9024866
6.3603554 1.7824339 1.8919445
6.5552301 2.1037786 1.900327
7.0388131 1.4094402 1.9166366
7.2722821 1.7412311 1.9144173
7.506341 2.0975115 1.916238
2.0323265 0.64957774 0.50255626
8.7051029 1.7432534 2.0162027
9.0861874 2.1768832 2.0238528
2.0695598 0.57744455 0.44397786
2.0183392 0.64351559 0.4165054
10.757869 2.156872 2.0672233
2.1342123 0.51072717 0.39081585
2.0586195 0.57326913 0.35963506
1.3617567 0.4335987 0.22675978
2.3066492 0.46225646 0.35402024
2.1450505 0.51217306 0.30978453
1.4043611 0.39028385 0.19065247
1.3842922 0.43941754 0.17611508
2.2370632 0.44790521 0.25796354
2.1488357 0.5130372 0.2283408
1.4265974 0.39584666 0.13890553
1.3821011 0.43797866 0.12245981
2.2194464 0.44401541 0.17265108
1.4519939 0.34618324 0.099432334
1.402719 0.38885188 0.083293229
1.419886 0.44943434 0.070807584
2.2184215 0.44308555 0.089318551
1.6151783 0.38425544 0.049681313
1.4588746 0.40362391 0.031125616
1.4358953 0.45384014 0.016427586
2.1927445 0.4376387 0.0063611581
2.1335928 0.50676149 -0.014965437
1.4716851 0.40653223 -0.024571326
1.394683 0.44025207 -0.037505582
1.6545762 0.32932767 -0.057143729
1.5650927 0.37112793 -0.069637679
1.4354132 0.39556906 -0.078708574
1.347805 0.42509222 -0.088171408
1.6124947 0.3198401 -0.11604898
1.464747 0.34652314 -0.12057499
1.364524 0.37580287 -0.12683757
1.3515325 0.425827 -0.14073886
1.4522425 0.28763244 -0.15931249
1.396783 0.32980102 -0.16808826
1.3544627 0.37265047 -0.17781512
1.3524091 0.42573997 -0.19363986
1.4321741 0.28243697 -0.21149875
1.4160103 0.33350605 -0.22466199
1.3558878 0.37248254 -0.23119354
1.3672868 0.4301874 -0.24998173
2.2393703 0.43983662 -0.41733077
1.4615701 0.34350967 -0.28923175
1.4008805 0.38392255 -0.29404375
1.3912194 0.43723702 -0.31050542
2.1999304 0.42989737 -0.49710184
1.5849046 0.37173784 -0.3770014
1.4558969 0.39883631 -0.36483324
1.4122771 0.44439685 -0.37378341
2.2098591 0.4296757 -0.58892328
2.6367176 0.61635226 -0.73584467
1.7191064 0.47045758 -0.50323659
1.8616338 0.58586591 -0.5729202
6.0469527 1.1683456 1.9026947
6.2044148 1.4470662 1.8922367
6.3897176 1.7484485 1.8974516
6.5661759 2.0629389 1.8997949
7.0397406 1.3647534 1.914573
7.2866035 1.6974556 1.9154093
7.5237541 2.0526922 1.9174317
2.0594976 0.6443615 0.50828791
8.7252092 1.6916631 2.0184176
9.0822411 2.1170967 2.0200424
2.1146388 0.57606071 0.45288172
2.0269327 0.63258076 0.41746995
10.784406 2.0934439 2.0698154
2.1641541 0.50387329 0.39572516
2.0449698 0.55597007 0.35664779
1.3653345 0.42552885 0.22691649
2.2968223 0.44564584 0.35208568
2.1577985 0.50124228 0.31117558
1.4201269 0.38529438 0.19246821
1.3860142 0.43062085 0.17599469
2.2778144 0.44154528 0.26234534
2.2042642 0.51199538 0.23389253
1.4174674 0.38396198 0.13778456
1.3942797 0.4324418 0.12330145
2.2280025 0.43152633 0.17310742
1.8351094 0.42564237 0.12548681
1.4098971 0.38154161 0.08357887
1.4283417 0.44248715 0.071092524
2.2230604 0.42984462 0.089397445
2.1579726 0.49941733 0.066281632
1.462289 0.3949255 0.031146176
1.4405636 0.44561207 0.016449403
2.2042251 0.42588338 0.0063867625
2.158097 0.49861285 -0.015115569
1.5050442 0.40582442 -0.025086245
1.3916272 0.42991573 -0.037351765
2.2110441 0.42600009 -0.076270625
1.5751283 0.36331403 -0.069983698
1.4889228 0.40050188 -0.081506394
1.3551564 0.41828609 -0.08848276
2.1826112 0.41902083 -0.15689147
1.4726741 0.33887026 -0.12105408
1.3716135 0.36871609 -0.12728386
1.3512672 0.41664654 -0.14044236
2.1277518 0.40787283 -0.23313761
1.4123325 0.32433656 -0.16971681
1.357682 0.36458993 -0.1779407
1.3445802 0.41422492 -0.19215135
1.4358245 0.27401504 -0.21178555
1.4170666 0.32459062 -0.22450936
1.3695847 0.36722252 -0.23314042
1.3727251 0.42265949 -0.25049716
2.2226992 0.42241466 -0.41373309
1.4674795 0.33541036 -0.28998843
1.4060502 0.37607941 -0.29463896
1.3938761 0.42869243 -0.31050542
2.2121198 0.41820431 -0.49926692
1.5881053 0.36222267 -0.37722701
1.4714631 0.39341038 -0.36812213
1.4325835 0.4411445 -0.37843427
2.2181587 0.41718107 -0.59044176
2.6244526 0.59652597 -0.73138654
2.618273 0.69928712 -0.76518047
1.7303933 0.53291708 -0.53151447
6.0718527 1.1345546 1.908303
6.226265 1.4119374 1.8962228
6.3928952 1.7072247 1.8952488
6.582396 2.0237441 1.9008592
7.0650754 1.3247377 1.9192163
7.2968817 1.6527139 1.9154093
7.5352697 2.0062389 1.9171932
2.0689969 0.6334222 0.50966352
8.7536354 1.6415094 2.0226252
9.1007795 2.0626254 2.0213125
9.4161348 2.5031412 2.0132799
2.0373452 0.62213778 0.41882035
10.7758 2.0232432 2.065742
2.1038311 0.47623894 0.38415325
2.0645463 0.54771066 0.35946912
1.6607757 0.50644886 0.27549669
2.3063166 0.43282115 0.35312736
2.1598678 0.48777473 0.31103647
1.4262984 0.37758839 0.19298699
1.3933796 0.42355195 0.17659661
2.2550876 0.42279971 0.25942415
2.2131858 0.49977526 0.23450939
1.4323101 0.37856469 0.13899893
1.3978604 0.42416787 0.12338562
2.2364886 0.41894898 0.17356376
2.1598656 0.48702154 0.14748687
1.423795 0.37594196 0.084264413
1.4233825 0.4313969 0.070712604
2.225656 0.41619608 0.089397445
2.1765993 0.4896771 0.066760197
1.4782196 0.38951212 0.031433992
1.4528415 0.43966091 0.016558485
2.2067966 0.41235048 0.0063867625
2.1581888 0.48470426 -0.015095097
1.5345813 0.40370473 -0.025536802
1.4248606 0.43062329 -0.038172122
2.2067387 0.41114399 -0.076033659
1.5900012 0.35648379 -0.070545994
1.4981136 0.39313278 -0.08187592
1.3615192 0.41111714 -0.088731825
2.1939678 0.40725917 -0.15752521
1.4766712 0.33026287 -0.12121379
1.3834844 0.36281967 -0.12817645
1.3537983 0.40834746 -0.14044236
2.2758784 0.42180657 -0.24907956
1.4201121 0.31696266 -0.17041473
1.364692 0.35750955 -0.17856859
1.3527884 0.4076823 -0.19296327
2.2335908 0.41207421 -0.32907772
1.4190315 0.31588954 -0.22450936
1.367039 0.35756353 -0.23232922
1.36586 0.41138756 -0.24877907
2.2320218 0.41001254 -0.4149923
1.5011431 0.33342597 -0.29623082
1.4168668 0.36967191 -0.29642466
1.3974168 0.42041349 -0.31071368
2.2252085 0.40655327 -0.50164855
1.5455948 0.34256342 -0.36662316
1.4832548 0.3868272 -0.37047133
1.4185526 0.42731223 -0.37402821
2.2359066 0.40633056 -0.59449106
2.3632784 0.52193326 -0.6576972
2.6234457 0.68345118 -0.76545221
1.5985785 0.48160249 -0.49010873
6.0636559 1.0945615 1.9035803
6.2348113 1.3737072 1.8962228
6.4283681 1.6745094 1.9026834
6.5826893 1.9797081 1.8974003
7.1006403 1.2863567 1.926697
7.3116155 1.608951 1.9166493
7.5446177 1.9592333 1.9164768
2.0961561 0.6276958 0.51539528
8.7577858 1.5867242 2.0212967
9.1218538 2.0086367 2.0232177
9.5024137 2.4637516 2.0284567
2.0364234 0.60822117 0.4178558
10.78511 1.9565597 2.0651865
11.372984 2.501215 2.0738313
2.0898261 0.54071385 0.3632862
1.6685841 0.4976604 0.27628022
2.308929 0.41866171 0.35312736
2.1763618 0.47748384 0.31298393
1.5716393 0.40576226 0.21231164
1.3978554 0.41556013 0.17683737
2.2830613 0.41355973 0.26234534
2.2210686 0.4872517 0.23502342
1.434606 0.36976907 0.13899893
1.4033027 0.41643324 0.12363812
2.272377 0.41125572 0.17614974
2.1686614 0.4750407 0.14788567
1.430909 0.36844337 0.084550053
1.4221718 0.42151964 0.070522644
2.2360344 0.40395302 0.089713067
2.1834688 0.47716612 0.066879839
1.4931701 0.38366917 0.031701256
1.4651002 0.43357569 0.016667565
2.2023966 0.3975586 0.006366848
2.1708922 0.47358406 -0.015163339
1.5525256 0.39825621 -0.02579426
1.4246 0.42102242 -0.038095213
2.2161052 0.39883509 -0.076270625
1.5911825 0.34650844 -0.070502743
1.5353254 0.39284453 -0.083776332
1.3812459 0.4078427 -0.089852653
2.1866069 0.39202923 -0.15682104
1.4806181 0.32161915 -0.1213735
1.4117384 0.36098602 -0.13058645
1.362005 0.4017221 -0.14103535
2.2197015 0.39732292 -0.24265999
1.4424144 0.31266156 -0.17285754
1.3735886 0.35084787 -0.17944761
1.3486116 0.39741358 -0.19201604
2.2175651 0.3950634 -0.32635334
1.4499222 0.31344125 -0.22908807
1.3739879 0.35038796 -0.23314042
1.3721384 0.40411231 -0.2494663
2.2383697 0.39699653 -0.41571182
1.5425155 0.33269709 -0.30398655
1.429557 0.36362898 -0.2986072
1.3980936 0.41127914 -0.31029716
2.2257383 0.39255282 -0.50121552
1.5914785 0.34250194 -0.3770014
1.496905 0.38059306 -0.37329042
1.4481199 0.42654473 -0.38112688
2.2402632 0.3929379 -0.59499723
2.2249031 0.47707435 -0.61836123
2.6322536 0.66852558 -0.76681077
1.6309563 0.48046121 -0.4991222
6.0580215 1.0552036 1.8997431
6.2281246 1.3322171 1.8916674
6.4441123 1.6364539 1.9043355
6.5993361 1.9406399 1.8987305
7.0912685 1.2397687 1.9220537
7.3118763 1.5620335 1.9141693
7.5357866 1.9076606 1.9112241
8.1205616 2.3775132 1.99303
8.7884893 1.5366526 2.0261686
9.1196718 1.9495637 2.0200424
9.5505829 2.4137983 2.0355394
2.0335238 0.59378928 0.4165054
10.805624 1.8918719 2.0668528
11.35153 2.4235733 2.0671687
2.0749369 0.52329886 0.36013293
1.9133871 0.55791205 0.31624135
2.3172989 0.40550923 0.35402024
2.2024961 0.4690716 0.31632245
1.949114 0.49048105 0.2628929
1.4003788 0.40697524 0.17683737
2.30709 0.4033078 0.26481712
2.2133148 0.47133535 0.23389253
1.446504 0.36338535 0.13993306
1.4096594 0.40892532 0.12397477
2.2620885 0.39507481 0.17516099
2.2369251 0.4756287 0.15233885
1.4544464 0.36500281 0.085806884
1.4180156 0.41083962 0.070190214
2.2601271 0.39400059 0.090580992
2.1902666 0.46458924 0.06699948
1.5061646 0.37717155 0.031927399
1.4734963 0.42624503 0.016733013
2.2205572 0.38678303 0.0064123664
2.1669092 0.45880488 -0.015115569
1.5646403 0.39114755 -0.025955172
1.4559685 0.42059645 -0.038864296
2.2155566 0.38471687 -0.076169066
1.598166 0.33777153 -0.070719011
1.5318933 0.38196698 -0.083459593
1.4105721 0.40710905 -0.091596149
2.1752102 0.37622499 -0.15583518
1.4845144 0.31293941 -0.12153319
1.4313231 0.35665169 -0.13219312
1.3606197 0.39225483 -0.14064002
2.2926404 0.39587644 -0.25036347
1.4462495 0.30421406 -0.17309019
1.3660883 0.3400169 -0.17819186
1.3548332 0.39022812 -0.19255732
2.2218981 0.38178444 -0.32664013
1.4547199 0.30514744 -0.22954594
1.3828155 0.34361649 -0.23427613
1.3613386 0.39187029 -0.24706098
2.2698517 0.38822985 -0.42110834
1.5195386 0.31799656 -0.2990683
1.4526906 0.36003771 -0.3029722
1.3977708 0.40188205 -0.30967242
2.2396545 0.38085258 -0.50381362
2.2029328 0.45996836 -0.52116895
1.5227994 0.37724435 -0.37916344
1.4460511 0.41631001 -0.37990296
2.2483556 0.38015223 -0.59651572
2.221175 0.46203792 -0.61652559
2.6465824 0.65490472 -0.76979983
1.6089783 0.46327662 -0.4915171
6.0370564 1.0134254 1.891183
6.2652783 1.3000144 1.9004935
6.4484329 1.5954974 1.9026834
6.5759149 1.8899924 1.8886197
7.0834985 1.1936655 1.9179264
7.331758 1.5193017 1.9168974
7.5558352 1.8634787 1.9133729
8.1518412 2.3324611 1.9971566
8.8015995 1.4833468 2.0270548
9.1831388 1.9042858 2.0314741
9.5547543 2.352576 2.0333135
2.0720403 0.5912627 0.42364326
10.814122 1.8250438 2.0662975
11.386432 2.3580685 2.0708506
2.1097112 0.51832169 0.36560962
1.9205736 0.54724383 0.31686819
13.954538 2.3537831 2.1296272
2.2450945 0.46376199 0.32202569
2.1273606 0.52147686 0.2864975
1.4057146 0.39918858 0.17719851
2.3222594 0.39129049 0.2662777
2.2151911 0.45754462 0.23378973
1.7639792 0.43165112 0.17038579
1.4111834 0.3999964 0.12389062
2.2684031 0.38184953 0.17546523
2.2329609 0.46048358 0.15187359
1.4799341 0.36176115 0.087177962
1.4205098 0.40213111 0.070190214
2.274327 0.38211203 0.091054417
2.187202 0.4499329 0.066820025
1.599754 0.39019242 0.033859901
1.4828198 0.41909957 0.01680937
2.238668 0.37579951 0.0064578848
2.1706631 0.44570145 -0.015122393
1.6000415 0.38958213 -0.026502276
1.4469768 0.40839639 -0.038556661
2.234633 0.37391925 -0.076744571
1.5874851 0.32535139 -0.070156716
1.5371194 0.3732672 -0.083617963
1.4236101 0.40142581 -0.092281103
2.1833816 0.36385491 -0.1562577
1.4737105 0.30122963 -0.12049513
1.4383241 0.34903696 -0.13263941
1.3716214 0.38632685 -0.14152952
2.3126805 0.38473853 -0.25228932
1.443223 0.29434192 -0.17250857
1.3787547 0.33419913 -0.17957319
1.3715085 0.3859334 -0.19458708
2.2251751 0.36830553 -0.32678351
1.5543793 0.31610784 -0.24496092
1.4050382 0.3399989 -0.23768318
1.3722525 0.38591015 -0.24860726
2.2566614 0.37173679 -0.41823018
2.1623805 0.43869355 -0.42505154
1.4424864 0.34812817 -0.30039287
1.4096267 0.39594284 -0.31175494
2.2544742 0.36915401 -0.50662822
2.19712 0.44470337 -0.5191384
1.5600471 0.37632728 -0.38785553
1.4625788 0.41136715 -0.38357469
2.2983897 0.37412092 -0.60916984
2.2305899 0.44973543 -0.61836123
2.6449373 0.63730061 -0.76816946
1.7272484 0.48587358 -0.52672607
6.0459905 0.97682071 1.8920685
6.2872348 1.2643819 1.9047644
6.4609051 1.556576 1.9035093
6.6013088 1.8535165 1.8926108
7.0925965 1.1504889 1.9184422
7.3380928 1.473714 1.9161533
7.5642948 1.8164018 1.9126568
8.177249 2.2855425 1.9999079
8.8134222 1.4297817 2.027719
9.176445 1.8442444 2.0274518
9.546154 2.2884259 2.0284567
2.0784647 0.57932812 0.42422202
10.833847 1.7600734 2.0679638
11.37752 2.2835088 2.0666428
2.1512151 0.51454294 0.37224799
2.0418789 0.56828576 0.33630028
12.7574 2.0714324 1.9449534
2.2566371 0.451727 0.32327762
2.1430583 0.51140583 0.28818354
1.4224868 0.3945356 0.17900419
2.3363869 0.37894306 0.26762596
2.2199075 0.4443343 0.23399533
2.1385093 0.509413 0.20625649
1.4174523 0.39239341 0.12422727
2.2825143 0.36983743 0.17637791
2.243572 0.44833794 0.15240532
1.4588161 0.34712702 0.085806884
1.4258387 0.39420599 0.070332684
2.264792 0.3662357 0.090580992
2.2046254 0.43943486 0.067268677
2.1702037 0.51524204 0.045866083
1.4872911 0.41052538 0.016831186
2.2498162 0.36349165 0.0064834883
2.1782608 0.4333497 -0.015156515
1.6286706 0.38598263 -0.026936738
1.4899323 0.41066679 -0.039633378
2.2260313 0.35845295 -0.076372184
2.0392408 0.40491569 -0.090009943
1.5481272 0.36589578 -0.084093064
1.4375933 0.39586276 -0.093028314
2.2436841 0.35976908 -0.16041237
2.1688058 0.42946219 -0.17710948
1.4481934 0.34203652 -0.13335349
1.3662902 0.37579229 -0.14073886
2.3503411 0.37619805 -0.25614107
1.4713101 0.2906785 -0.17564933
1.3836762 0.32641631 -0.17994991
1.3719399 0.37698567 -0.19431645
2.4463208 0.38950282 -0.35890263
1.4670819 0.2889919 -0.23091955
1.4263076 0.33589518 -0.24092799
1.3603451 0.37356982 -0.24603014
2.2414117 0.35511249 -0.4149923
2.2093534 0.4341262 -0.43375307
1.454137 0.34151158 -0.30237696
1.405427 0.38547513 -0.31029716
2.2557325 0.35516202 -0.50641173
2.2045872 0.43215069 -0.52026641
1.5604342 0.36630365 -0.3873857
1.4669453 0.40289879 -0.38406429
2.6581161 0.41594985 -0.70382273
2.2257307 0.43456101 -0.61626333
2.6422391 0.6195218 -0.76626736
1.7413 0.47831607 -0.53010607
6.0745296 0.94322324 1.8991528
6.2760553 1.2221159 1.89907
6.4684625 1.5164645 1.9029586
6.6199942 1.8150157 1.8947394
7.0880671 1.1051618 1.9153467
7.3584085 1.4308795 1.9191296
7.5847535 1.7721633 1.9150442
8.2023869 2.2384 2.0026591
8.7699995 1.3675631 2.0157599
9.1799135 1.7864106 2.025758
9.5390348 2.224915 2.0240049
2.1047032 0.57274747 0.42885199
10.823082 1.6902292 2.0638905
11.38262 2.2119644 2.0650647
2.1773832 0.50669795 0.37623107
2.0662956 0.56144363 0.33974791
11.190001 1.7465302 1.7043267
2.27881 0.44164029 0.3260597
2.1760976 0.50519782 0.29220408
1.4258389 0.38605937 0.17912456
2.3455408 0.36567158 0.26841244
2.2528648 0.43657121 0.23718245
2.1930006 0.50819433 0.21120739
1.4063661 0.38004935 0.12304895
2.2857261 0.3559787 0.17645398
2.2472603 0.4347527 0.15247178
1.8052361 0.41787106 0.10603034
1.4234089 0.38414848 0.070095234
2.2660091 0.35217884 0.090541549
2.2082617 0.4260886 0.067298584
2.1820915 0.50394094 0.046051107
1.5284024 0.41179729 0.01726751
2.2579331 0.35060081 0.0065005575
2.2103369 0.42564878 -0.01536124
2.1542172 0.49659279 -0.035577737
1.5300725 0.4116458 -0.040633183
2.24893 0.34799701 -0.077083103
2.1535332 0.41389149 -0.094940811
1.5610486 0.35885072 -0.084673747
1.4631277 0.39325184 -0.094522752
2.2428918 0.34553966 -0.16020112
2.1743371 0.41670942 -0.17734903
1.4522063 0.33359009 -0.133532
1.3743367 0.36894986 -0.14133185
2.3300028 0.35829389 -0.25368023
2.0818031 0.39803374 -0.24823552
1.4078931 0.32302278 -0.18283816
1.3656144 0.36625057 -0.19309857
2.4975796 0.38196588 -0.36607212
2.2182887 0.42284521 -0.34874499
1.4177614 0.32471398 -0.23914336
1.3692725 0.36700112 -0.24723278
2.5255723 0.38426229 -0.46715862
2.2312689 0.42422992 -0.43753636
1.5422014 0.35222346 -0.32023388
1.4162689 0.37912056 -0.31217143
2.7627285 0.41763228 -0.6196453
2.2301691 0.42297229 -0.5256812
1.5550714 0.3549915 -0.3855063
1.4965487 0.40117049 -0.39116296
2.6252198 0.39431518 -0.69445872
2.2255104 0.42035869 -0.61547661
2.6384842 0.60158616 -0.76409352
1.8572695 0.49793616 -0.56447005
6.1123333 0.91072023 1.9091886
6.2928562 1.1853582 1.9019171
6.4795203 1.4771736 1.9035093
6.6375246 1.7761062 1.8966019
7.10427 1.0630792 1.9179264
7.3746662 1.3871348 1.9211136
7.6002192 1.7266665 1.916238
8.2075024 2.1857746 2.0005958
7.6980662 1.152072 1.7677209
9.1849394 1.7289653 2.024488
9.5668316 2.1695914 2.0270402
2.1242998 0.5641036 0.43213156
7.7233186 1.1576428 1.4714038
11.411458 2.1449902 2.0678699
2.1968021 0.49702764 0.37905237
2.0916588 0.55457616 0.34335226
7.7307262 1.1580633 1.1763471
2.2824502 0.42783189 0.32619882
2.2033372 0.49729362 0.29544649
1.4416181 0.38085324 0.18080989
2.3506885 0.35171384 0.26874951
2.279943 0.42732072 0.23975268
2.2271588 0.50173068 0.21419662
1.4105986 0.371921 0.12321729
2.2967424 0.34327352 0.17713848
2.2626357 0.42334113 0.15333584
2.2090592 0.49708608 0.12956725
1.4344326 0.37769642 0.070522644
2.2770221 0.33959481 0.090896614
2.2275388 0.41564789 0.067807071
2.2036772 0.49470329 0.046441723
1.5289663 0.40190303 0.017245693
2.2709217 0.33836085 0.0065318509
2.2217546 0.41372594 -0.015422657
2.1777129 0.48795637 -0.03591565
1.5354702 0.40301105 -0.040710092
2.2322397 0.33140269 -0.076439895
2.2179139 0.41216972 -0.097665764
1.5554245 0.34752357 -0.084251434
1.4857869 0.38958278 -0.095830373
2.3288476 0.34416687 -0.16618665
2.200376 0.40771878 -0.17926545
1.4551979 0.32489029 -0.13362128
1.3833132 0.36227489 -0.14202368
2.5170774 0.37126604 -0.27379492
2.193593 0.40547198 -0.26126382
1.4224365 0.31718498 -0.18447064
1.3956336 0.3651371 -0.1970228
2.5282726 0.37079847 -0.37023038
2.2587464 0.41621068 -0.35469732
1.4332117 0.31901008 -0.24141473
1.3762642 0.35983852 -0.24809185
2.5269091 0.36861646 -0.46697876
2.2376928 0.41124105 -0.43829301
1.5615566 0.3465766 -0.32380527
1.4223539 0.3714118 -0.31300443
2.5922906 0.37561306 -0.58089036
2.2049332 0.40418622 -0.5191384
1.5657609 0.34733766 -0.38762063
1.521495 0.39786735 -0.39703777
2.6419535 0.38026711 -0.69825494
2.2308958 0.40721515 -0.61626333
2.6252134 0.58163828 -0.75920248
2.6400518 0.69046581 -0.80107421
6.1111851 0.87225348 1.9071224
6.299068 1.1465518 1.9016324
6.4837694 1.4363486 1.9021326
6.6473651 1.7351022 1.8963358
7.1154413 1.0201539 1.9192163
7.3763666 1.340646 1.9193776
7.6106706 1.6799998 1.916238
8.1972065 2.1292553 1.9948639
7.6905107 1.1027396 1.7643991
9.1809511 1.6699514 2.0213125
9.6067429 2.11675 2.0327063
2.1609669 0.55966884 0.4388836
7.7010942 1.1060405 1.4658492
11.448621 2.0793285 2.0722532
2.2479675 0.49412429 0.38735035
2.0988469 0.54272056 0.34397909
7.7455173 1.1117307 1.1775377
2.3006234 0.41664249 0.32842448
2.2121584 0.48503903 0.29622468
1.4343145 0.36952379 0.17960609
2.3665729 0.33925772 0.27032244
2.2991614 0.41633633 0.24150047
2.22825 0.48762992 0.21400978
1.409959 0.36251435 0.1229648
2.3580279 0.33765477 0.18170196
2.2671542 0.40980482 0.15346876
2.2081664 0.48266941 0.12933874
1.452203 0.37286237 0.071282484
2.3057706 0.32943267 0.091961809
2.2408679 0.40392259 0.068136081
2.1969028 0.47904244 0.046236135
1.5236545 0.39052776 0.017158428
2.2709754 0.32413781 0.0065261615
2.2025993 0.39619112 -0.015272526
2.1122758 0.45970109 -0.034789268
1.5446934 0.39531693 -0.040889546
2.3044837 0.32768932 -0.078843445
2.211551 0.39696455 -0.097276479
1.5604553 0.33860841 -0.084409796
1.4978191 0.38293093 -0.096453048
2.3605459 0.33406413 -0.16829918
2.2067611 0.39491221 -0.17958486
1.4668978 0.31806582 -0.13451385
1.3845459 0.35353401 -0.14192486
2.5261998 0.35678789 -0.27454388
2.2419941 0.40020788 -0.26673105
1.4427785 0.31244057 -0.18685657
1.3872871 0.35387293 -0.1955343
2.5265799 0.35472792 -0.3696568
2.2427704 0.39905405 -0.35179746
1.505549 0.32542869 -0.25325832
1.3965836 0.35601065 -0.25135621
2.5378914 0.35432884 -0.46859768
2.2575772 0.40059114 -0.44169793
1.5598212 0.33616257 -0.32301161
1.4321887 0.36460784 -0.31467047
2.5665026 0.35581207 -0.57461166
2.2092905 0.39098898 -0.5195896
2.2567718 0.48611754 -0.55793875
1.5304842 0.39020088 -0.39875126
2.5522304 0.35138208 -0.67395902
2.240005 0.39469114 -0.61809903
2.2298129 0.47969964 -0.64399064
2.6423793 0.67377961 -0.80051094
6.1116886 0.83409351 1.9056466
6.3286443 1.111861 1.9084657
6.4915209 1.3963357 1.9018574
6.6522813 1.6928557 1.8947394
7.1052942 0.97424388 1.9148309
7.3730035 1.2933517 1.9164014
7.6179876 1.6326597 1.9155219
8.230876 2.0841744 1.9999079
7.6923018 1.0548683 1.7632917
9.1996889 1.6151077 2.0232177
9.606143 2.0548964 2.0298734
2.1538951 0.54375696 0.43676156
7.6892381 1.0562257 1.4623313
11.482498 2.0127819 2.0761106
2.2326329 0.47641164 0.38419712
2.1097989 0.53176308 0.34523275
7.6875343 1.0553081 1.1677161
2.3197198 0.40541655 0.33078924
2.2296402 0.47455257 0.29817009
1.9150856 0.48087412 0.23943466
2.3735321 0.32540512 0.27088419
2.3124511 0.40410462 0.24263138
2.2107484 0.4696041 0.21204811
1.4469533 0.36257544 0.12599473
2.3738856 0.32507372 0.18276677
2.2873192 0.3989723 0.15466514
2.2140162 0.46973288 0.12951012
1.4573705 0.36467221 0.071424954
2.3503196 0.32109448 0.093658231
2.2511821 0.39153546 0.068375364
2.2144728 0.46865857 0.046544515
1.633707 0.4080691 0.018369228
2.3085907 0.31506521 0.0066285776
2.2345464 0.38779837 -0.015477251
1.7237419 0.36408016 -0.028352769
1.5946181 0.39768457 -0.042145714
2.3321991 0.31704339 -0.079723626
2.2080386 0.38236442 -0.09701696
1.5810698 0.33293691 -0.085412785
1.5088567 0.37590477 -0.097013466
2.540484 0.34364212 -0.18097445
2.2071784 0.38102522 -0.17942517
1.4639486 0.3080337 -0.13406757
1.3982769 0.34791523 -0.14311086
2.4948401 0.33675864 -0.27090612
2.3080301 0.39739826 -0.27429211
1.4514647 0.30501014 -0.18773562
1.3913554 0.34583202 -0.19580494
2.5365562 0.34027112 -0.37080395
2.2646577 0.38862818 -0.35484993
1.5673931 0.32874295 -0.26331726
1.3930053 0.34600976 -0.25032535
2.5390427 0.33861995 -0.46841782
2.2416031 0.38358456 -0.43810385
1.5541797 0.32498053 -0.32142434
1.4372469 0.35651967 -0.31529522
2.6044476 0.34479845 -0.58262247
2.2222116 0.37922838 -0.52207136
2.2273626 0.46550032 -0.54995143
1.5432004 0.38337407 -0.40144387
2.5763998 0.33861479 -0.67977989
2.2518983 0.38255548 -0.6207214
2.228946 0.46522224 -0.64290375
2.6436703 0.65685952 -0.79966593
6.1157441 0.79645383 1.9053514
6.3296766 1.0720477 1.9067574
6.5027895 1.3570673 1.9026834
6.666286 1.6529342 1.8958038
7.1188021 0.93163121 1.9168946
7.3731589 1.2467952 1.9144173
7.6278625 1.5858859 1.9155219
8.2548504 2.0364292 2.0026591
7.6899271 1.0065104 1.7612985
9.204607 1.5578136 2.0221591
9.6089821 1.9939258 2.0278499
10.099922 2.4839332 2.0449083
7.6848564 1.0076202 1.4602947
11.482984 1.9403203 2.0740066
2.2741406 0.47069836 0.39083549
2.1302869 0.52304661 0.34805354
7.692884 1.0079899 1.1675673
2.3368115 0.39364287 0.33287582
2.2577581 0.46607485 0.30154216
2.1581118 0.52784204 0.26940915
7.6919966 1.0065081 0.87714344
2.3139062 0.38974288 0.24252857
2.2204142 0.45743662 0.21270201
1.5082009 0.36810249 0.13112879
2.4054964 0.31437814 0.18504849
2.2749643 0.38244876 0.15366815
2.2461932 0.46217534 0.13122398
1.464433 0.35690567 0.071662404
2.3522456 0.30666715 0.093658231
2.2712867 0.38068923 0.068913758
2.2222035 0.45606697 0.046647307
2.1909657 0.53300107 0.024597747
2.2985809 0.29934436 0.0065944386
2.23787 0.37424508 -0.015484075
1.5339543 0.31417465 -0.025198886
1.5892568 0.38600513 -0.041940626
2.3935683 0.31044012 -0.081754804
2.2221684 0.37078208 -0.097536005
1.5791693 0.32243031 -0.085201636
1.5305331 0.37134606 -0.098258823
2.5168226 0.32472876 -0.17914358
2.2094748 0.36747506 -0.17942517
1.4726424 0.30043897 -0.13469239
1.4013525 0.33956337 -0.1432097
2.5412352 0.32715714 -0.2757208
2.3407996 0.38826719 -0.27789816
1.4620577 0.29788089 -0.18886578
1.3934511 0.33728829 -0.19580494
2.5425229 0.32520294 -0.3713775
2.2943013 0.37923804 -0.35912341
1.666077 0.33878174 -0.27954137
1.4008472 0.33884561 -0.25135621
2.5615654 0.32563943 -0.47219539
2.2691052 0.3739748 -0.44302207
2.2045379 0.44687071 -0.45535114
1.5097616 0.36468849 -0.33070597
2.5483978 0.32148001 -0.56963193
2.2542975 0.37048364 -0.52906537
2.2196977 0.4497017 -0.54736733
1.5360998 0.37161809 -0.39899606
2.5717094 0.32195869 -0.67800832
2.2722979 0.37169072 -0.62570399
2.2421343 0.4536362 -0.64589274
2.6504488 0.64130282 -0.80051094
6.1195679 0.7587958 1.9050562
6.3314047 1.032418 1.9053338
6.5147629 1.3179039 1.9037848
6.697854 1.6172031 1.9019235
7.1541057 0.89163774 1.9248914
7.4093556 1.2062007 1.9218577
7.6536317 1.5423132 1.9195805
8.2757072 1.9877859 2.0047226
7.6959586 0.95930696 1.7612985
9.2072401 1.5002056 2.0206773
9.6114349 1.9329977 2.0258262
10.093026 2.4166596 2.0404713
7.7006454 0.96166563 1.4621462
11.478153 1.8671381 2.0710258
12.129423 2.4330144 2.0819669
2.166116 0.51777232 0.35338169
7.7008867 0.96101326 1.1678649
2.3538458 0.38167462 0.3349624
2.2761321 0.45532474 0.3036173
2.1728985 0.51734936 0.27085367
7.7088742 0.96064365 0.87837934
2.3270547 0.37728879 0.24365947
2.2192736 0.44302416 0.21232833
2.1396158 0.50832027 0.18575174
2.4014432 0.29887348 0.18459214
2.2979529 0.3718296 0.15506394
2.241154 0.44682261 0.13076694
1.4860333 0.35252452 0.072612204
2.3808565 0.29555184 0.094723418
2.2745664 0.36690488 0.068943664
2.2298632 0.44339815 0.046750102
2.1932218 0.51931715 0.02458684
2.2854886 0.28338912 0.0065517658
2.2322261 0.35923567 -0.015429482
1.9732672 0.39155185 -0.032375578
1.6129982 0.38130593 -0.04250462
7.7248836 0.95374018 -0.26364654
2.2244017 0.35714012 -0.097536005
2.0268481 0.40089709 -0.10922068
1.5337542 0.36217728 -0.098321095
7.7543192 0.95215356 -0.55151433
2.2727134 0.36367628 -0.18437591
2.2336721 0.44144091 -0.20404689
1.4421512 0.34009463 -0.14716303
2.5461555 0.31192094 -0.27604178
2.306848 0.36810619 -0.27359417
1.4745644 0.29101726 -0.19024712
1.4003165 0.32986781 -0.19648153
2.5601892 0.31150874 -0.37367171
2.5093584 0.39898393 -0.39239535
2.2344928 0.44010398 -0.37445241
1.4201605 0.33430696 -0.25444877
2.5664446 0.31026998 -0.47273502
2.2684479 0.35958362 -0.44245464
2.2149324 0.43484607 -0.45693845
1.5433909 0.36280379 -0.33757833
2.5794024 0.30932456 -0.57612717
2.2536414 0.3561883 -0.52838856
2.2348151 0.43850645 -0.5504213
1.5421261 0.36307457 -0.39997515
2.5745971 0.3062872 -0.6782614
2.9227688 0.45969591 -0.80402702
2.2392089 0.43875986 -0.64426237
2.6580696 0.6259076 -0.80163759
6.1174664 0.72045028 1.90299
6.3281498 0.99206507 1.9024866
6.4963112 1.27273 1.8960748
6.681376 1.5699017 1.8944733
7.16328 0.84817868 1.9259232
7.4118319 1.1599661 1.9206177
7.6648583 1.4956945 1.9200583
8.2763748 1.9343115 2.0019712
7.70751 0.91275549 1.7626274
9.1380625 1.4314317 2.0035298
9.6298437 1.8752971 2.0272427
10.092375 2.3511224 2.0373847
7.7112808 0.91497624 1.4630719
11.1188 1.7387221 2.0042243
12.133474 2.3564756 2.0801411
2.1875298 0.50872213 0.35635918
7.7076206 0.91385984 1.1680137
11.02632 1.7185435 1.5675627
2.2905648 0.44361249 0.30517367
2.2040787 0.51050305 0.27434468
7.7254782 0.91460985 0.87961531
2.335223 0.36392215 0.24427633
2.2551868 0.43582165 0.21550439
2.1805582 0.50393265 0.18903416
2.3873885 0.28225973 0.18337521
2.3041348 0.35833594 0.15532979
2.2546365 0.43514389 0.13139535
1.5718719 0.36271462 0.076696344
2.3925486 0.28210768 0.095117934
2.2846773 0.35416648 0.069182947
2.2295964 0.42914072 0.046688426
2.2012391 0.50697213 0.02464138
7.712667 0.90831608 0.022093361
2.2521763 0.34828302 -0.015552317
2.1946018 0.42149162 -0.035963926
1.6347926 0.3758817 -0.043017343
7.7246342 0.90562499 -0.26344344
2.2453115 0.34637886 -0.098357819
2.2185638 0.42468864 -0.11940898
1.5398386 0.35365313 -0.098570161
7.7699237 0.90571105 -0.5522185
2.3359866 0.35911492 -0.18932667
2.2128601 0.42323649 -0.20190468
1.4374213 0.32968214 -0.1464712
7.6529527 0.88991004 -0.82908827
2.3493149 0.36011469 -0.27836347
1.8368763 0.35082653 -0.23671012
1.4052116 0.32193321 -0.19688748
2.5679512 0.2964749 -0.37453207
2.562561 0.39133739 -0.4003318
2.2342434 0.42583087 -0.37396568
1.4125822 0.32338828 -0.25273067
2.5712321 0.29485294 -0.47327468
2.5463078 0.38762748 -0.4961772
2.2242992 0.42252767 -0.45832732
1.5760993 0.36030188 -0.34424242
2.5948324 0.29503596 -0.57915831
2.8221385 0.42830732 -0.66104972
2.2240942 0.42224738 -0.54713237
1.5566114 0.35641867 -0.40315735
2.5831573 0.29124272 -0.68003297
2.6173322 0.39521518 -0.71932352
2.2390225 0.4244743 -0.64344716
2.6281893 0.60187536 -0.79149741
6.1265192 0.68343025 1.9044658
6.2905126 0.94665551 1.8893895
6.5285559 1.2375004 1.903234
6.6974611 1.5303791 1.8963358
7.1664286 0.80399418 1.9254072
7.4111457 1.1133149 1.9186336
7.670074 1.4479151 1.919103
8.2738504 1.8802567 1.9985322
7.7158728 0.86577207 1.7632917
7.7317605 1.162582 1.6936007
9.6373196 1.815449 2.0264332
10.097998 2.2872016 2.0356483
7.7235856 0.86841208 1.464368
7.7255421 1.1595788 1.3912624
12.155458 2.2834382 2.0814688
2.1973534 0.49681473 0.35745615
7.7219267 0.86754316 1.169353
7.7263455 1.1557009 1.0973912
2.297142 0.4302797 0.30569243
2.2129805 0.49827787 0.27506697
7.7269945 0.8667469 0.87916583
2.3531523 0.35194075 0.2459213
2.2764134 0.42545122 0.21727926
2.2079148 0.49600375 0.1911383
2.3880847 0.26749471 0.18329917
2.3181326 0.34595865 0.15612739
2.2749295 0.42459863 0.13242367
2.214416 0.4966929 0.10789727
2.3932416 0.26731107 0.095078491
2.2976825 0.34175891 0.069511965
2.2439823 0.41764733 0.046935122
2.2111387 0.4949851 0.024717735
7.7389655 0.86330312 0.022153104
2.2582276 0.33504438 -0.015579613
2.2266386 0.41349459 -0.036446664
2.1492617 0.48030612 -0.05647628
7.7479253 0.86019552 -0.26405278
2.2572777 0.33405796 -0.098790348
2.2201459 0.41088608 -0.11935619
1.5507463 0.34615514 -0.099130578
7.7832665 0.85889393 -0.55278188
2.3815365 0.35117304 -0.19284013
2.2722208 0.42015454 -0.20708174
1.4530149 0.32388711 -0.14785486
7.6108303 0.8377142 -0.82395256
2.5037911 0.36808407 -0.29639369
2.2409389 0.41376352 -0.28844729
1.435207 0.3195495 -0.2008117
2.5992365 0.28393677 -0.37883374
2.5297112 0.37045136 -0.39483732
2.2474887 0.41408053 -0.37575036
1.4376187 0.31984949 -0.25685409
2.5778828 0.27960098 -0.47417411
2.5515532 0.3724218 -0.49674469
2.2191379 0.40745565 -0.45673999
1.5820996 0.3514728 -0.34507543
2.5936818 0.27879581 -0.57850879
2.581769 0.37563562 -0.60419494
2.240984 0.41122425 -0.5506562
2.8213058 0.62780327 -0.72969764
2.5858579 0.27548978 -0.68028611
2.585326 0.37417203 -0.70988292
2.2311721 0.40882 -0.64045823
2.5943692 0.57739985 -0.78023058
6.1505518 0.64792782 1.9106646
6.3199229 0.9114607 1.8965075
6.5492644 1.199844 1.9070889
6.7142534 1.4909271 1.8984644
7.1481686 0.75756294 1.9192163
7.4063306 1.0661635 1.9156574
7.6501546 1.3955969 1.9119405
8.2795286 1.8281947 1.9971566
7.727828 0.81913161 1.7648419
7.6981201 1.1092646 1.6847093
9.6492405 1.7564566 2.0266356
10.111841 2.2251983 2.0356483
7.7287688 0.82100469 1.464368
7.7091236 1.1087902 1.3870543
12.186706 2.2119808 2.084456
2.2514868 0.49455288 0.36576179
7.736938 0.8211897 1.1708411
7.7185874 1.106164 1.0953047
2.3143744 0.41882518 0.3076379
2.2247245 0.486599 0.27615038
7.7380962 0.81994689 0.87983996
2.359206 0.33805984 0.24633253
2.2897587 0.4134213 0.21830679
2.2138374 0.4830842 0.1913908
7.7520857 0.82019788 0.59461945
2.3310769 0.33328179 0.1568585
2.2804396 0.41116336 0.13259505
2.2359657 0.48713613 0.10879958
7.7429743 0.81677419 0.30740729
2.3076527 0.32878205 0.06975124
2.259295 0.4061704 0.047202386
2.2297683 0.48480767 0.024892265
7.7640071 0.81789672 0.02221
2.2642012 0.32174462 -0.015606911
2.2301178 0.40000093 -0.036462754
2.1492376 0.46647337 -0.056399371
7.7888408 0.81638962 -0.26527148
2.292917 0.32496783 -0.10026095
2.2167273 0.39620158 -0.11903946
1.5557672 0.33726776 -0.099317372
7.7854137 0.81081057 -0.55257064
2.5060363 0.35383415 -0.20274164
2.2776978 0.40672982 -0.20734951
1.4433039 0.31243902 -0.14666887
7.6751637 0.79716206 -0.83037215
2.5296068 0.35603642 -0.29918545
2.2463658 0.40052801 -0.28882402
1.4284248 0.30885267 -0.19959383
7.7181253 0.79522526 -1.1241697
2.5290005 0.35451078 -0.39437947
2.273303 0.40443039 -0.37964413
1.5059952 0.32537729 -0.26870891
2.5854213 0.26437855 -0.47525343
2.5343401 0.35404164 -0.49296141
2.245723 0.39810869 -0.46170026
1.5631926 0.33722106 -0.34049386
2.6011715 0.26346633 -0.57980788
2.5840254 0.35978714 -0.60419494
2.2472932 0.39814433 -0.55159587
2.313345 0.49989346 -0.59751493
3.0274131 0.30375701 -0.79594487
2.5761027 0.35671341 -0.70673603
2.2374291 0.39579263 -0.64154512
2.2311611 0.48221579 -0.67009693
6.1192327 0.60668874 1.8997431
6.3396406 0.87463039 1.9007782
6.5527167 1.1589662 1.9059876
6.7166791 1.4482789 1.8966019
7.142107 0.71263313 1.9163786
7.4194512 1.0216241 1.9173934
7.6729193 1.3511564 1.9155219
8.3219976 1.7840912 2.0047226
7.7424121 0.77266753 1.7670566
7.690259 1.0600072 1.6815338
9.7042055 1.7050126 2.0359442
10.129144 2.1639316 2.0364201
7.7248607 0.77268612 1.4627017
7.6787195 1.0563682 1.3803917
12.204906 2.1380138 2.0852859
2.2747633 0.48505402 0.36905271
7.7487187 0.77438962 1.1718829
7.6820607 1.0528663 1.0891842
2.3061562 0.40274015 0.3062112
2.2402925 0.47561932 0.27771533
7.7459483 0.77274734 0.88017708
2.3681343 0.324523 0.24705219
2.2785203 0.3969714 0.21699901
2.2128606 0.46866542 0.19105414
7.7599492 0.77291304 0.59484762
2.3568041 0.32221606 0.15845367
2.2878375 0.39801872 0.1328807
2.2359807 0.47278741 0.10865711
7.7488341 0.76934755 0.30744675
2.3215117 0.31623533 0.070110172
2.2656851 0.39298347 0.047284622
