# .PCD v0.7 - Point Cloud Data file format
VERSION 0.7
FIELDS x y z
SIZE 4 4 4
TYPE F F F
COUNT 1 1 1
WIDTH 1506
HEIGHT 1
VIEWPOINT 0 0 0 1 0 0 0
POINTS 1506
DATA ascii
7.894362 -2.2966902 -0.65861088
7.8553395 -1.9779627 -0.72594643
8.1651678 -1.7419938 -0.82921278
1.5827893 -0.5243215 -0.17942715
7.7523685 -2.2590497 -0.94571453
7.7084341 -1.9431183 -1.0062377
7.7137694 -1.6476611 -1.0772655
1.5928934 -0.52911901 -0.24318774
2.8792017 -0.84074777 -0.4632127
0 -0 -0
7.6577935 -1.6369624 -1.3657078
4.2054219 -1.400522 -0.81055707
2.9272547 -0.85627687 -0.58754343
3.8538091 -0.97553492 -0.80475134
3.7567468 -0.80429232 -0.81801826
3.5103514 -1.1727889 -0.82078099
2.9823611 -0.87386584 -0.7197094
3.2366915 -0.81968135 -0.80695564
3.1744528 -0.67846864 -0.81953293
1.485108 -0.49772274 -0.40974075
1.4036088 -0.4124175 -0.39755541
1.3890311 -0.35215449 -0.40460005
2.672353 -0.57105839 -0.80220091
0.7987054 -0.26872811 0.26034391
0.82855618 -0.24390057 0.25653103
6.434463 -1.6314858 1.9013065
6.7535276 -1.4465672 1.9064468
0.81973791 -0.27523136 0.23087345
0.85212862 -0.25108197 0.22742851
7.583499 -1.9288872 1.9238782
8.0033369 -1.7242062 1.9283761
0.83848327 -0.28150892 0.20086731
0.85127169 -0.25070029 0.19222368
8.2800131 -2.1094329 1.7655911
8.2421618 -1.7818303 1.6579192
0 -0 0
8.3441305 -2.4597282 1.5492368
8.3098564 -2.1215158 1.4433531
8.2587986 -1.7887465 1.3408132
8.3548803 -2.803735 1.3261993
8.3708725 -2.4722173 1.2260624
7.8193631 -2.0006537 1.0557219
7.7535672 -1.6865468 0.96219271
0 -0 0
7.8759089 -2.3261862 0.84879857
7.8217468 -2.0046093 0.75758159
7.7380128 -1.6871243 0.66894197
7.9206996 -2.6609554 0.63736385
7.8594365 -2.3240058 0.54594737
7.8244023 -2.0073276 0.46222603
7.7757607 -1.6980557 0.3784003
7.9651008 -2.6786568 0.33178842
7.8894424 -2.3370717 0.24622309
7.8374324 -2.0148988 0.16640076
7.7960668 -1.7059118 0.087057486
7.9443607 -2.6729169 0.023845809
7.9111066 -2.3466437 -0.056313176
7.8450103 -2.0202048 -0.13037124
7.7943187 -1.7085232 -0.20462719
7.9696932 -2.6860862 -0.28487229
7.8886614 -2.3431318 -0.35627675
7.8667274 -2.0309222 -0.42949226
7.8203287 -1.7162273 -0.49951348
1.5914829 -0.53756523 -0.11858404
7.9154716 -2.3556058 -0.66156542
7.8565559 -2.0296128 -0.72719604
8.1514101 -1.7914207 -0.82891625
1.5851938 -0.53593409 -0.18006912
7.7374101 -2.3062913 -0.94559824
7.7136545 -1.9948508 -1.0084981
7.6106191 -1.6745217 -1.0642749
1.5764948 -0.53443456 -0.24118029
2.8910339 -0.86348945 -0.46595994
4.8133888 -1.2467766 -0.81753278
7.6158566 -1.6769283 -1.360038
4.1315536 -1.4041424 -0.79796523
4.0028582 -1.1976222 -0.80489284
3.8505967 -0.99990201 -0.80534649
3.7622473 -0.82964498 -0.82030904
3.3866584 -1.1546112 -0.79350102
3.3082328 -0.99143183 -0.79980248
3.0246279 -0.78575712 -0.75527292
3.123832 -0.68771929 -0.80753863
1.4966725 -0.51183462 -0.41379008
1.4297013 -0.42963141 -0.40568483
1.3672849 -0.35558408 -0.3988938
2.6256931 -0.57795668 -0.789244
0.76179814 -0.2615248 0.24883211
0.83071572 -0.25008526 0.2576699
6.3564129 -1.653271 1.8812058
6.7671156 -1.492963 1.9128326
0.81072164 -0.27775091 0.22880977
0.82738298 -0.24931818 0.22122817
7.553668 -1.9707247 1.9193419
7.9536471 -1.7646374 1.9189762
0.8385852 -0.28728053 0.20131023
0.87124109 -0.2624014 0.19709279
8.3104992 -2.1715877 1.7748998
8.2636375 -1.8396189 1.6644782
0.92695314 -0.31731844 0.18459664
8.3411341 -2.5145745 1.5515161
8.3214865 -2.1789589 1.4476681
8.2698383 -1.8443323 1.3444175
0.9897998 -0.33892885 0.15744153
8.3839865 -2.5321229 1.2302356
7.8328362 -2.0553901 1.0592237
7.7760096 -1.7414663 0.96628559
0 -0 0
7.8795795 -2.3799326 0.85075194
7.8208547 -2.0556021 0.75870252
7.7372375 -1.7367544 0.66978359
7.8702679 -2.6978662 0.63462585
7.8650856 -2.3782513 0.54734313
7.8389726 -2.062412 0.46382561
7.7973552 -1.752965 0.37996745
7.9626908 -2.7323439 0.33238018
7.9026961 -2.3938398 0.2470905
7.8413553 -2.0672832 0.16675024
7.8059382 -1.75833 0.087286554
7.9788857 -2.7391462 0.023999434
7.9042139 -2.3974628 -0.056367766
7.8498683 -2.0728979 -0.13066089
7.7973409 -1.7593966 -0.20498608
7.9804702 -2.7443621 -0.28585404
7.93436 -2.4097826 -0.3590017
7.8657022 -2.0822198 -0.43012574
7.8184123 -1.7661588 -0.50007385
1.5890975 -0.54764527 -0.11865445
7.9285235 -2.412545 -0.66388106
7.8660989 -2.0836473 -0.72924894
8.1402645 -1.841403 -0.82891625
1.5922145 -0.54921693 -0.18124604
7.7544656 -2.3632789 -0.94943696
7.743463 -2.0533319 -1.0140234
7.712296 -1.7465737 -1.0799718
1.5872155 -0.5489499 -0.2433311
2.8705583 -0.87659401 -0.46351796
1.5373497 -0.40829045 -0.26153263
4.5665207 -1.0349163 -0.816607
4.1219306 -1.4291444 -0.79778534
3.9785323 -1.2169906 -0.80148786
1.534346 -0.40849626 -0.32142434
1.4440792 -0.32775047 -0.31529522
3.4154723 -1.1878771 -0.80194485
3.357976 -1.0288357 -0.81333935
2.9540009 -0.78678912 -0.73882842
1.3834212 -0.3134757 -0.35811728
1.4880229 -0.51909643 -0.41227159
1.4473323 -0.4446303 -0.41145414
1.3632176 -0.36347103 -0.39835036
1.3363153 -0.3027527 -0.40222716
0.7881335 -0.27598307 0.25798249
0.81725496 -0.25151217 0.25396857
0 -0 0
6.7418475 -1.5308286 1.9083095
0.82633138 -0.28877619 0.233711
0.85453826 -0.26323113 0.22891659
7.5461245 -2.0182905 1.9205357
7.9787288 -1.8216395 1.9276882
0.84417135 -0.29499415 0.20308195
0.84999925 -0.26170301 0.19264708
8.3235044 -2.229634 1.7805659
8.2598457 -1.8920418 1.6660216
0.93426645 -0.32623988 0.18644817
8.3236666 -2.5651276 1.5511655
8.3336744 -2.2368796 1.4521489
8.271843 -1.8981329 1.3466115
1.0185088 -0.35575649 0.16235228
8.3862696 -2.5890687 1.2328786
7.8468871 -2.1106241 1.0628551
7.7796888 -1.7924896 0.96809131
0 -0 0
7.8895397 -2.4358656 0.85342503
7.835012 -2.1108031 0.76131809
7.7710972 -1.7945099 0.67365521
0 -0 0
7.896102 -2.440609 0.55053341
7.8560524 -2.1185305 0.46559659
7.7961845 -1.8030264 0.38044238
7.963695 -2.7874227 0.33312976
7.9203229 -2.4523365 0.24810745
7.8468618 -2.1203132 0.16714086
7.8076658 -1.8091274 0.087428354
7.977972 -2.7936702 0.024047796
7.9160981 -2.4542084 -0.05655884
7.8611298 -2.1275551 -0.13106316
7.8185334 -1.8146654 -0.20583208
7.9842291 -2.8005552 -0.28659883
7.9442325 -2.4661226 -0.36012626
7.8797631 -2.1377647 -0.43160382
7.8025675 -1.812969 -0.49976254
1.580061 -0.55540073 -0.11823194
7.941175 -2.469733 -0.66619676
7.876235 -2.1381361 -0.73139119
8.1792116 -1.9030424 -0.8340556
1.5756838 -0.55435658 -0.17974813
1.5893085 -0.4950411 -0.19495912
7.7747569 -2.1127737 -1.0197998
7.6879244 -1.7907158 -1.0780773
1.5558182 -0.54880208 -0.23902945
2.8783331 -0.89831299 -0.4656547
0 -0 -0
1.4842101 -0.34595662 -0.26578814
4.2076802 -1.4878589 -0.8161335
3.9822369 -1.2448953 -0.80375785
1.5100627 -0.41196996 -0.31686091
1.4506133 -0.33860597 -0.31716952
3.4311221 -1.2169704 -0.80735749
3.3302166 -1.0427251 -0.80815023
1.5444187 -0.42151663 -0.38691586
0 -0 -0
1.481164 -0.52691996 -0.41125926
1.4731184 -0.46246278 -0.41958353
1.3572482 -0.37081417 -0.39726341
1.3400393 -0.31225297 -0.40391716
0.76572984 -0.27342391 0.25119349
0.79740715 -0.25077042 0.24827421
0.85779756 -0.23438427 0.25470075
6.6835155 -1.560768 1.8944733
0.82454389 -0.293841 0.233711
0.84274238 -0.26527002 0.22618845
7.5026922 -2.0560851 1.9126568
7.9332881 -1.8625529 1.9194348
0.84510112 -0.30115032 0.20374633
0.85863262 -0.27014002 0.19497579
8.3285542 -2.2858479 1.784613
8.2585869 -1.9451621 1.6681435
0.93039548 -0.33130693 0.18607785
0.97379428 -0.30665198 0.18181966
8.354023 -2.2973855 1.4581234
8.284071 -1.9545221 1.3505292
1.0069914 -0.3586812 0.16086417
8.3919468 -2.6473293 1.2360779
7.8796725 -2.171376 1.0690805
7.7811012 -1.8431658 0.96965617
0 -0 0
7.9048004 -2.4938054 0.8567149
7.8276711 -2.1604273 0.76187855
7.8035679 -1.8525156 0.67744261
0 -0 0
7.9180856 -2.5007322 0.55312562
7.8640757 -2.172543 0.46685338
7.7946916 -1.8531392 0.38091722
7.9793792 -2.8479905 0.33451056
7.9403882 -2.512044 0.24921416
7.8712831 -2.1788228 0.16794264
7.8304634 -1.8651094 0.087810136
7.9917583 -2.8536668 0.024141677
7.9390221 -2.5148132 -0.056831807
7.8903222 -2.1875033 -0.13177118
7.825727 -1.8670126 -0.20631917
7.9951262 -2.8595903 -0.28761441
7.9413314 -2.5187478 -0.3606886
7.8770809 -2.1890149 -0.43218449
7.8437171 -1.8733304 -0.50312501
1.567233 -0.56171972 -0.11752776
7.9068708 -2.5123751 -0.66459966
7.8859982 -2.1928275 -0.73353344
7.9893031 -1.9106067 -0.81587023
1.5600865 -0.55964994 -0.17835721
1.6108485 -0.51261437 -0.19798353
7.790319 -2.1684196 -1.0235671
0 -0 -0
1.5691844 -0.56436694 -0.24161045
2.8944232 -0.92286211 -0.46916503
2.9380291 -0.81901014 -0.50148714
1.4858916 -0.35597512 -0.26647538
4.1984715 -1.5136487 -0.8161335
3.9857483 -1.2728913 -0.80602783
2.9187288 -0.81555182 -0.61348403
1.4561169 -0.34932572 -0.31883553
3.4309351 -1.2406565 -0.8090896
3.3302512 -1.0652169 -0.80972952
1.5549091 -0.43464857 -0.39020476
3.1012151 -0.74284375 -0.80509079
1.4806312 -0.53698778 -0.41201848
1.4629019 -0.46913552 -0.41748565
1.3725562 -0.38406235 -0.40242624
1.3576937 -0.3251625 -0.40983227
0.76942468 -0.28007808 0.25296456
0.81228161 -0.26093584 0.25339913
0.83875346 -0.2347208 0.24946904
6.6859984 -1.6046726 1.8979324
0.82363355 -0.2992247 0.23396897
0.84017658 -0.27013946 0.22594044
0.85081023 -0.23878348 0.21726596
7.9264417 -1.9123371 1.9205811
0.84140432 -0.30566418 0.20330341
0.84765422 -0.27241313 0.19285879
8.304944 -2.3342581 1.7825893
8.270339 -2.0015695 1.6729666
0.93665868 -0.34002751 0.18774423
0.94846398 -0.30508462 0.17743637
8.3559055 -2.3531458 1.4609449
8.2892008 -2.0095038 1.35335
1.0075601 -0.3658658 0.16131061
8.4000511 -2.7066679 1.2396946
7.8652472 -2.2194147 1.0689509
7.8043704 -1.899326 0.9739899
0 -0 0
7.896924 -2.5447023 0.85753739
7.85355 -2.2195179 0.76570851
7.8181915 -1.9067371 0.67971504
0 -0 0
7.9139876 -2.5529456 0.55392319
7.8698111 -2.2261903 0.46799597
7.8210182 -1.9101745 0.38276938
7.9561205 -2.8948476 0.33427387
7.9371891 -2.5647132 0.24960297
7.8731561 -2.231441 0.16827157
7.8392692 -1.9181119 0.088039204
8.0163832 -2.9180419 0.024269696
7.9396162 -2.5687118 -0.05694782
7.8729043 -2.2347844 -0.13170682
7.8180075 -1.915947 -0.2064217
7.9849415 -2.9113326 -0.28788525
7.927628 -2.5680432 -0.36077508
7.8884735 -2.2444117 -0.433557
7.8630934 -1.9290329 -0.5051176
1.5543875 -0.56790233 -0.11682358
1.5881219 -0.51536864 -0.13375039
7.8982596 -2.2485373 -0.7359435
7.9648671 -1.9565064 -0.81458545
1.57063 -0.57433379 -0.17996211
1.6057838 -0.52187473 -0.19775088
7.771143 -2.2145481 -1.0228137
0 -0 -0
1.5638336 -0.57330334 -0.24132368
2.8868268 -0.93999261 -0.46885976
2.9310508 -0.83648062 -0.50116271
1.4482853 -0.35637632 -0.26011845
4.1558657 -1.5271671 -0.80965769
3.9843976 -1.2994547 -0.80735195
2.9419396 -0.84153193 -0.61943632
3.6182461 -0.89153934 -0.7934444
1.6177344 -0.59623641 -0.38235274
3.3912554 -1.1077125 -0.82619935
2.877341 -0.8233797 -0.72332358
3.0984814 -0.76232171 -0.80558032
1.4881978 -0.55008775 -0.41505548
1.462747 -0.47900379 -0.41827235
1.3664732 -0.39141694 -0.40133935
1.3426287 -0.33027822 -0.40588889
0.75694215 -0.28080612 0.24942245
0.79973495 -0.26232964 0.24998252
0.8465392 -0.24251038 0.25222257
6.7106562 -1.6542032 1.9077773
0.80728531 -0.29890525 0.22984162
0.83850324 -0.2752896 0.22594044
0.84279579 -0.24212255 0.21559469
7.9438467 -1.9681933 1.9276882
0.83036792 -0.30743533 0.20108877
0.85060984 -0.27913275 0.19391729
8.3309336 -2.3968153 1.7912909
8.2950392 -2.0615072 1.6804903
0.93086803 -0.34440434 0.18700361
0.96434575 -0.31673557 0.18076767
8.3564701 -2.4087424 1.4636002
8.308341 -2.0682006 1.3585215
0.98396611 -0.36414731 0.15788797
8.4180899 -2.7696097 1.2448415
7.955317 -2.2976227 1.0830877
7.8041267 -1.9500649 0.97543442
0 -0 0
7.8943896 -2.5974615 0.85897672
7.8684759 -2.275964 0.76851088
7.8160114 -1.9570931 0.68055671
0 -0 0
7.9266052 -2.6108212 0.55591714
7.8790193 -2.2811 0.46936706
7.8663144 -1.9724611 0.38557127
0 -0 0
7.9336433 -2.6174378 0.24999183
7.8814006 -2.2861137 0.16874442
7.8622656 -1.9749466 0.088431902
8.0095787 -2.9713483 0.024303835
7.9369988 -2.6217709 -0.057043359
7.9128137 -2.2986696 -0.13260792
7.834219 -1.9709544 -0.20716515
7.9894123 -2.968627 -0.28869772
7.8756771 -2.604717 -0.35913146
7.9052358 -2.3017056 -0.43524629
7.8627234 -1.9801686 -0.5058648
1.5574174 -0.57986563 -0.11731651
1.5991231 -0.5298059 -0.13494816
7.9694204 -2.3217518 -0.74388754
7.8668361 -1.9836868 -0.80578929
1.5698714 -0.58500177 -0.1802831
1.5931246 -0.52859002 -0.19658765
6.0116343 -1.7530925 -0.79263353
0 -0 -0
1.5621406 -0.58358073 -0.24161045
2.8875697 -0.95987046 -0.46992818
2.9552257 -0.86302435 -0.50619215
4.4585609 -1.1261662 -0.80200326
4.1114106 -1.5395299 -0.80282211
3.9670329 -1.3207762 -0.80546039
2.930136 -0.85764021 -0.61804742
3.5776236 -0.90485024 -0.78573906
1.5957664 -0.59928674 -0.37802258
3.3012173 -1.1007652 -0.80589414
2.9711163 -0.86997283 -0.74822527
3.0721242 -0.77585882 -0.7999503
1.4793624 -0.55716288 -0.413537
1.4542891 -0.48613444 -0.41669893
1.4185336 -0.41576418 -0.41737115
1.3461586 -0.33991969 -0.40757889
0.76146108 -0.28781 0.25148866
0.79720122 -0.26692742 0.2496978
0.84964788 -0.24905215 0.25359932
6.6629992 -1.6858897 1.8971341
0.81357175 -0.30692226 0.23216325
0.83036846 -0.2782746 0.22420433
0.85620087 -0.25167093 0.21941474
7.9325643 -2.0171387 1.9279176
0.86131257 -0.32491544 0.20906146
0.84610093 -0.28341547 0.19328219
0.90563625 -0.26657975 0.19507506
8.3050528 -2.1181855 1.6851202
0.93885225 -0.35392264 0.18904029
0.94744903 -0.31763962 0.17796236
8.3623428 -2.4661083 1.4672513
8.3146324 -2.1240296 1.3616556
0.99096596 -0.37366691 0.15937607
8.4244061 -2.8290913 1.248319
8.0913134 -2.3907857 1.1035796
7.8179779 -2.0045705 0.9786846
0 -0 0
7.8481283 -2.6357176 0.85568678
7.8639097 -2.3270264 0.76944506
7.8221927 -2.0097256 0.68215585
0 -0 0
7.923677 -2.6638603 0.55684769
7.8763614 -2.3328042 0.47005263
7.8589005 -2.0219352 0.38580874
0 -0 0
7.9411159 -2.6740429 0.25073957
7.9103565 -2.3472285 0.16966955
7.8499994 -2.0231514 0.088431902
7.9996147 -3.0236201 0.024329439
7.9406614 -2.6771309 -0.057186667
7.9206042 -2.353729 -0.13297802
7.8374648 -2.0229847 -0.20757532
8.0215197 -3.0367007 -0.29052576
1.609205 -0.54318762 -0.073530465
7.9158473 -2.357579 -0.4366188
7.8765154 -2.0351171 -0.50754601
1.5361093 -0.58268887 -0.11597856
1.5788451 -0.53386062 -0.13351084
8.0495224 -2.3987682 -0.75272423
7.7726283 -2.0107355 -0.79738843
1.5569571 -0.59109437 -0.17921317
1.5851476 -0.53676254 -0.19600603
5.9884052 -1.7862597 -0.79100102
0 -0 -0
1.5825789 -0.60230744 -0.24533856
2.9134462 -0.98836499 -0.47511736
2.9290743 -0.87492782 -0.50262284
4.4677792 -1.1577032 -0.80492407
1.5964546 -0.60899228 -0.31245843
3.9560647 -1.3441448 -0.80489284
3.8393524 -1.1493871 -0.81129885
3.604193 -0.93513674 -0.79281962
1.6039131 -0.61360174 -0.38083717
3.2934787 -1.1206865 -0.80566847
3.2208583 -0.96459597 -0.81259376
3.0560427 -0.7917763 -0.79701293
1.4786255 -0.56726921 -0.41429624
1.4512788 -0.49504861 -0.41669893
1.3947535 -0.41810447 -0.41112149
1.3421899 -0.34769192 -0.40701556
0.764139 -0.29419324 0.25296456
0.79101276 -0.27026424 0.24827421
0.83429092 -0.25011975 0.24946904
0 -0 0
0.81167322 -0.31190845 0.23216325
0.82681209 -0.28273749 0.22370832
0.85464054 -0.25691974 0.21941474
7.9153285 -2.0645456 1.9267713
0.83836633 -0.32214925 0.20396781
0.85359401 -0.29176274 0.19539918
0.89835709 -0.27043784 0.1938609
8.3108845 -2.1740708 1.6889784
0.94950658 -0.36460859 0.19163243
0.94548219 -0.32344708 0.17796236
8.3697128 -2.5242059 1.4712344
8.3310604 -2.1827672 1.3665136
0.97203851 -0.37335813 0.15669748
8.4200048 -2.8852236 1.2502666
8.3289709 -2.5166771 1.1380786
7.8324132 -2.0595717 0.98205525
7.9944196 -3.0722425 0.96837449
0 -0 0
7.8761663 -2.3833086 0.77206057
7.8193498 -2.0602229 0.68299752
0.94650644 -0.36391154 0.077350728
7.8958569 -2.7085438 0.55605006
7.8876977 -2.3889019 0.47159505
7.8656621 -2.0752146 0.38675851
1.0770942 -0.41450819 0.045566663
7.9623709 -2.7357101 0.25193599
7.9254642 -2.4047203 0.17030688
7.8645067 -2.0784338 0.088737324
7.96878 -3.0679774 0.024292456
7.9704199 -2.7417421 -0.057521056
7.9155798 -2.4051917 -0.13313894
7.8577623 -2.0797329 -0.20844696
8.0064659 -3.087301 -0.29066116
1.5916725 -0.5481714 -0.072881669
7.924159 -2.4130869 -0.4378857
7.8725638 -2.0857089 -0.50810647
1.5427405 -0.59605783 -0.11675316
1.5783666 -0.54451346 -0.13375039
8.0679989 -2.4582746 -0.75584829
7.7755337 -2.0624716 -0.79896975
1.5486642 -0.59884363 -0.1786782
1.5893344 -0.54907328 -0.19693662
5.9630985 -1.8186291 -0.78911746
0 -0 -0
1.54102 -0.5973413 -0.23945962
2.9073267 -1.006223 -0.47511736
2.9925425 -0.91392338 -0.51446646
1.590008 -0.42243516 -0.28692061
1.5816848 -0.61450166 -0.31029981
3.9143426 -1.3568161 -0.79808295
3.8378508 -1.1746444 -0.81248933
2.7949648 -0.74350965 -0.61580449
1.5928404 -0.62059623 -0.37910512
3.3150711 -1.1507778 -0.81266254
3.2353263 -0.9906013 -0.81776208
2.9724126 -0.78960294 -0.77645117
1.4733149 -0.57562709 -0.41379008
1.4527709 -0.50552994 -0.41801012
1.3884811 -0.42552668 -0.41003457
1.3409587 -0.35616723 -0.40729725
0.77922034 -0.30550256 0.25857285
0.79024476 -0.27542821 0.24855892
0.82538742 -0.25298044 0.24726623
0.89706343 -0.23872785 0.25623286
0.81244326 -0.31793919 0.23293713
0.8195734 -0.28589094 0.22222021
0.86233038 -0.26501152 0.22180228
7.8874664 -2.1090515 1.923103
0.86634165 -0.3390142 0.2112761
0.86009336 -0.29989076 0.19730449
0.86860096 -0.26730368 0.1877901
8.3087606 -2.2280743 1.6912935
0.94084489 -0.36792246 0.19033635
0.93604344 -0.32664734 0.1765597
8.3700867 -2.5804527 1.4740556
8.3480339 -2.2420423 1.3715284
0.96052009 -0.3757132 0.15520938
8.4012079 -2.9365065 1.2501274
8.3882151 -2.590852 1.1483245
7.8512597 -2.1161172 0.98602778
8.0124311 -3.1357229 0.97286862
0 -0 0
7.9051485 -2.4451246 0.77635765
7.8440785 -2.1182942 0.68627989
0 -0 0
0 -0 0
7.8976874 -2.4449315 0.4730804
7.8643517 -2.1265671 0.38732839
0 -0 0
7.9624143 -2.7904651 0.25247437
7.9105597 -2.4533048 0.17030688
7.8757353 -2.1331861 0.089010037
7.9684248 -3.1241152 0.024349352
7.9817543 -2.800528 -0.05772578
7.9360042 -2.4646883 -0.13373432
7.8651142 -2.1334038 -0.20898531
7.9678359 -3.1286986 -0.28995025
1.562829 -0.54898733 -0.071713835
7.9406686 -2.4714565 -0.43962774
7.8711753 -2.1371129 -0.50885367
1.4248781 -0.56059223 -0.10809174
1.5928615 -0.56047422 -0.13526757
8.0641756 -2.5112863 -0.75691938
7.7838573 -2.115885 -0.80114406
1.5643883 -0.6159845 -0.18092506
1.5643899 -0.55122322 -0.19426116
1.6091907 -0.50158453 -0.21335304
0 -0 -0
1.5557369 -0.61405247 -0.24232739
1.5777574 -0.55692416 -0.2583918
2.9774592 -0.92932814 -0.51284409
1.6795875 -0.45728618 -0.30358607
1.5623344 -0.61804366 -0.3072418
3.9318659 -1.3899723 -0.80337954
3.7707038 -1.1794448 -0.79979104
1.506053 -0.41054776 -0.33237198
1.5944475 -0.63251805 -0.38040417
1.6089739 -0.56961745 -0.39527616
3.3024724 -1.0333657 -0.83632088
2.960963 -0.80604368 -0.77473772
1.417617 -0.56391621 -0.39911127
1.460555 -0.51830721 -0.42115697
1.4152324 -0.44324249 -0.41872981
1.3415256 -0.36514449 -0.40814227
0.77821851 -0.3106322 0.25886804
0.78402364 -0.27866665 0.24713534
0.8192327 -0.25660339 0.24588947
0.87419194 -0.23839457 0.25011307
0.81047714 -0.32291827 0.23293713
0.81597835 -0.29026499 0.2217242
0.84957051 -0.26680624 0.21893725
7.8255615 -2.1440339 1.911181
0.8678689 -0.34576732 0.21216194
0.8803376 -0.3130208 0.20238529
0.85573405 -0.26910293 0.18536179
8.335618 -2.2901921 1.6995889
0.94952583 -0.3780506 0.1925582
0.94607943 -0.33667561 0.17883903
8.3230572 -2.621984 1.4685789
8.3522129 -2.2982011 1.374506
0.96738362 -0.38525844 0.15669748
0.99156141 -0.35342652 0.14786753
8.4043102 -2.6524191 1.1527342
7.8534389 -2.1684797 0.9879539
7.983809 -3.1811492 0.97174507
0 -0 0
7.9080329 -2.499284 0.77813244
7.8530221 -2.1724954 0.68821567
0.87620747 -0.34928441 0.071950629
0 -0 0
7.9282279 -2.5077972 0.47582257
7.8646321 -2.178515 0.38799325
0 -0 0
7.9620857 -2.8453238 0.25301278
7.9334807 -2.5138769 0.17112921
7.8624983 -2.1814704 0.089010037
0 -0 0
7.9983158 -2.8615773 -0.057971451
7.9369326 -2.5184772 -0.13400786
7.8653607 -2.1853697 -0.20934422
0 -0 -0
1.6017557 -0.57372648 -0.073660225
7.9253545 -2.520133 -0.43962774
7.8906078 -2.1944616 -0.51097077
1.1713914 -0.46918282 -0.089078866
1.5640597 -0.56114846 -0.13311158
1.5859947 -0.50459468 -0.1491524
7.8244123 -2.1785533 -0.80667877
1.4701376 -0.5893175 -0.17043975
1.5740644 -0.56551319 -0.19588971
1.609864 -0.51265299 -0.21385534
0 -0 -0
1.5326554 -0.61583805 -0.23931623
1.5938383 -0.57362264 -0.26159692
2.9745209 -0.94847924 -0.51333076
2.962543 -0.82614326 -0.53638697
1.3641549 -0.54934978 -0.26892653
3.9177206 -1.412074 -0.80224454
3.719516 -1.1885378 -0.79046577
2.5840323 -0.72146571 -0.57123828
1.543463 -0.62328035 -0.36914575
1.6072812 -0.58014071 -0.3957274
1.5971123 -0.51052719 -0.40523973
1.5606356 -0.4351446 -0.40903214
0.99446446 -0.40267456 -0.28066862
1.4636992 -0.52955735 -0.42299265
1.442734 -0.46159551 -0.42769676
1.3318657 -0.37130767 -0.40588889
0.78337926 -0.31827852 0.26122943
0.7994231 -0.28967711 0.25254497
0.82863009 -0.26514095 0.24919368
0.85878646 -0.23986435 0.2461219
0.81027114 -0.3286114 0.23345305
0.80962837 -0.29361492 0.22048412
0.85346538 -0.27379391 0.22036976
0.88187802 -0.2474426 0.21574153
0.88470834 -0.35878196 0.21681267
0.87564391 -0.31741735 0.20175019
0.87364686 -0.28063819 0.18961133
8.3166857 -2.3399665 1.6986243
0.95538503 -0.38719159 0.19422455
0.95510167 -0.34650341 0.18094301
1.0025625 -0.32260916 0.17724515
8.3607683 -2.3558345 1.3782668
0.94392359 -0.38264248 0.15327483
1.0154349 -0.36897352 0.15176244
8.4124136 -2.7118468 1.1561062
7.8676882 -2.2244589 0.99144483
0.8729338 -0.35404244 0.10651109
0 -0 0
7.9020238 -2.5508184 0.77906656
7.8548841 -2.2249849 0.68956238
0.87127596 -0.35352945 0.071722448
0 -0 0
7.9430909 -2.5662184 0.47765067
7.8789849 -2.2346344 0.38937047
0 -0 0
7.9585643 -2.8992567 0.25346142
7.9473944 -2.5720518 0.17176653
7.8845544 -2.2397828 0.089413628
0 -0 0
7.9984555 -2.9171097 -0.058101106
7.9441586 -2.574528 -0.13439405
7.8806486 -2.2417951 -0.2101133
0 -0 -0
1.5681745 -0.57257885 -0.072276123
7.8442082 -2.5474322 -0.43598533
7.900032 -2.2493958 -0.51246524
0 -0 -0
1.565268 -0.57244664 -0.13351084
1.5771852 -0.51246995 -0.14861684
7.8195105 -2.228977 -0.80756825
1.1129888 -0.45409754 -0.12935446
1.5733626 -0.57618546 -0.19623867
1.6123488 -0.52436227 -0.2146088
1.536834 -0.43848562 -0.21826769
1.3822836 -0.56529242 -0.21637399
1.5930721 -0.58441257 -0.26205477
2.9845958 -0.97190684 -0.5160889
2.937525 -0.83862633 -0.53277892
1.2733786 -0.52189696 -0.25165763
3.9605985 -1.4550488 -0.81283778
3.7261295 -1.2158988 -0.79344189
2.9124637 -0.83246124 -0.64495993
0.99058753 -0.40710545 -0.23750903
1.6119201 -0.59301919 -0.39775792
1.6346071 -0.53358918 -0.41557628
1.5448834 -0.44098637 -0.40560517
0.90342164 -0.37227821 -0.25561342
1.4586115 -0.53786075 -0.42246819
1.4005387 -0.45758736 -0.41601253
1.3590876 -0.38789973 -0.41490236
0.7849434 -0.32453948 0.26241013
0.77514946 -0.28627422 0.24542703
0.80779791 -0.26395005 0.2434113
0.8471036 -0.24221419 0.24319503
0.80645341 -0.33283976 0.23293713
0.81144625 -0.29992059 0.22147618
0.84807801 -0.2778163 0.21941474
0.87192327 -0.25043073 0.21367811
0.89330727 -0.36866787 0.21947025
0.88193071 -0.32583255 0.2036555
0.87749159 -0.28782484 0.19082549
8.2333403 -2.37113 1.6845415
0.94390655 -0.38929957 0.19237304
0.96773213 -0.35782018 0.18374833
0.97807956 -0.32136694 0.17326212
8.356595 -2.4101014 1.3799908
0.93424487 -0.38541016 0.15208435
1.0131518 -0.37519717 0.15176244
8.4106855 -2.7683735 1.1581813
7.8729634 -2.2782114 0.9938525
0.88360411 -0.36469948 0.10808404
0 -0 0
7.9117551 -2.6076713 0.78158879
7.8784084 -2.2839601 0.69284475
0.8856796 -0.36571893 0.073091492
0 -0 0
7.9385729 -2.6186609 0.47833622
7.8929448 -2.2910118 0.3907477
0.84773701 -0.35036328 0.03621662
7.9125133 -2.9375982 0.2525641
7.9409566 -2.6239045 0.17197213
7.9004288 -2.2967727 0.089751787
0.86775172 -0.35877708 0.0026713451
7.9935293 -2.9710102 -0.058196649
7.942451 -2.6279352 -0.13463542
7.9070578 -2.3018432 -0.21119
0 -0 -0
1.5768042 -0.58671951 -0.072838418
1.5781977 -0.52325135 -0.087893881
7.9071622 -2.3039696 -0.51383513
0 -0 -0
1.542111 -0.57472986 -0.13183397
1.5749564 -0.52245128 -0.14870611
7.8429422 -2.2877822 -0.81142271
0 -0 -0
1.5567702 -0.58096695 -0.19461015
1.6006271 -0.53143209 -0.21347861
1.6054467 -0.46873364 -0.22841655
1.0873154 -0.45247075 -0.1706329
1.5644618 -0.58483297 -0.25793391
2.9823215 -0.99144679 -0.51673782
2.9294872 -0.85580611 -0.53226352
0 -0 -0
3.9938984 -1.4951595 -0.82153934
3.7269681 -1.2415268 -0.79522765
2.9063623 -0.85004157 -0.64475167
0 -0 -0
1.579972 -0.59229743 -0.39076388
1.5870385 -0.5288586 -0.40430006
1.537495 -0.44909805 -0.40438125
0.89309067 -0.37444785 -0.25333568
1.4507672 -0.54510343 -0.42115697
1.4606972 -0.48718199 -0.43476161
1.3456295 -0.39300367 -0.41152233
0.78734076 -0.33120206 0.263886
0.81106037 -0.30520493 0.25738519
0.81345868 -0.27133512 0.24561411
0.83542466 -0.24442981 0.24026819
0.8079592 -0.33927807 0.23396897
0.81412369 -0.30660102 0.22271626
0.83254308 -0.27839538 0.21583344
0.87877512 -0.25824597 0.21574153
0.90271693 -0.3790502 0.22234927
0.8854028 -0.33330378 0.20492569
0.88685274 -0.29693472 0.19325382
0.97791606 -0.28814095 0.20043959
0.93696928 -0.39318267 0.19144727
0.95354152 -0.35923916 0.18146901
0.97421938 -0.32673517 0.1729302
8.3880663 -2.4750271 1.3876696
0.92183262 -0.38692546 0.15044743
0.98025542 -0.3698701 0.147172
8.3888407 -2.8183494 1.1575328
7.8674035 -2.3290122 0.99493587
0.89417607 -0.37550059 0.10965698
0 -0 0
7.8635211 -2.6453741 0.7784127
7.8995929 -2.3427408 0.69595885
0.86595279 -0.36380851 0.071646392
0 -0 0
7.9214101 -2.6670034 0.47827911
7.8921442 -2.3433795 0.39141256
0.85478222 -0.35943148 0.036611136
0 -0 0
7.9284959 -2.6738577 0.17205435
7.9408193 -2.3614521 0.090373546
0.85170746 -0.35827851 0.0026286717
8.0116205 -3.0338125 -0.058462791
7.9773316 -2.6938944 -0.13550435
7.9215283 -2.358876 -0.21195911
0.8491931 -0.35774425 -0.031212391
1.5330042 -0.58115518 -0.070978522
1.5777951 -0.53388536 -0.08805225
7.9368739 -2.365557 -0.51669943
0.86479515 -0.36499256 -0.066263407
1.5385555 -0.58418125 -0.13183397
1.5745511 -0.53306335 -0.14897387
7.8344793 -2.3375697 -0.81201577
0 -0 -0
1.5383221 -0.58486074 -0.19274895
1.5916985 -0.53933311 -0.21272516
1.5655148 -0.46751851 -0.22313914
0 -0 -0
1.5876276 -0.60462147 -0.26236001
2.9631 -1.005289 -0.51446646
2.977983 -0.88984144 -0.54205662
0 -0 -0
1.5945935 -0.60813487 -0.32876703
3.7693901 -1.2814066 -0.80594176
3.649791 -1.0918312 -0.81114596
0 -0 -0
1.6036112 -0.61240768 -0.39753231
1.5690395 -0.53357935 -0.40054131
1.5300654 -0.45713571 -0.40315735
0.89255601 -0.38067979 -0.25384185
1.4338765 -0.54882061 -0.41722339
1.4166831 -0.4821817 -0.42253396
1.3597413 -0.40619648 -0.41659242
0.7765097 -0.33226818 0.26093426
0.79306054 -0.30399969 0.25226027
0.80813825 -0.2750822 0.24451271
0.84499097 -0.25286755 0.2434611
0.81563556 -0.34840399 0.23680651
0.82036746 -0.31471348 0.22494838
0.81335735 -0.27754006 0.21129712
0.88276702 -0.26531416 0.21711713
0.90037417 -0.38458201 0.22234927
0.8888163 -0.34082979 0.20619589
0.88872099 -0.30363724 0.19406326
0.93197364 -0.28083041 0.19137254
0.93363523 -0.39853859 0.19126211
0.96051079 -0.36861059 0.18322232
0.97219622 -0.33270669 0.1729302
8.3887959 -2.5312989 1.3903337
0.88852024 -0.37937212 0.14538787
1.0056981 -0.386536 0.15134512
0.97924161 -0.33569065 0.13540216
7.8748178 -2.3838573 0.99770457
0.87266564 -0.37278277 0.10729755
0 -0 0
0 -0 0
7.9050941 -2.3972402 0.69772631
0.84720027 -0.36206192 0.070277356
0 -0 0
7.9275575 -2.7233429 0.4796502
7.9082022 -2.4010465 0.39293221
0.84796721 -0.36270475 0.036413878
0 -0 0
7.9837899 -2.7471788 0.1736168
7.9462709 -2.4162407 0.090602614
0.856848 -0.36664492 0.0026514309
8.0031166 -3.0868721 -0.058537856
7.9890118 -2.7525628 -0.13598709
7.9432459 -2.4185019 -0.21293329
0.84973794 -0.36412904 -0.031313952
1.5592334 -0.60206652 -0.072362632
1.565994 -0.54062361 -0.087577142
7.9489417 -2.4223585 -0.51844293
0.84145707 -0.36124125 -0.064643793
1.5237857 -0.5892961 -0.13087575
1.5637194 -0.54011327 -0.1482598
7.7771573 -2.3725309 -0.80756825
0 -0 -0
1.5328522 -0.59357142 -0.19251631
1.5874217 -0.5487653 -0.21259959
0 -0 -0
0 -0 -0
1.5516388 -0.601843 -0.25701821
3.0081618 -1.0412027 -0.5233897
2.9705827 -0.90752155 -0.541713
0 -0 -0
1.5880861 -0.61684114 -0.32819957
3.7197859 -1.2900593 -0.79701334
3.6411521 -1.1136333 -0.81072938
0 -0 -0
1.5898359 -0.61835116 -0.39505053
1.5730826 -0.54574549 -0.40242067
1.528159 -0.46679866 -0.40340212
0.89020342 -0.38614926 -0.25384185
1.2578532 -0.49031687 -0.36687335
1.4200617 -0.49307489 -0.42443603
1.3709882 -0.41873622 -0.42081749
0.77182806 -0.33588272 0.26004872
0.79832417 -0.31164891 0.254538
0.81188405 -0.28192779 0.24616481
0.86185902 -0.26368797 0.24878266
0.81702703 -0.35494196 0.23783836
0.82022566 -0.32044628 0.22544439
0.82081014 -0.28571787 0.21368466
0.87647027 -0.26929632 0.21597078
0.90604717 -0.39359626 0.22434242
0.9112885 -0.35587612 0.2119118
0.89701349 -0.31262988 0.19628921
0.89928776 -0.27701142 0.18500632
0.92125666 -0.39995497 0.18922545
0.96740061 -0.37808093 0.18497565
0.97758478 -0.34126586 0.17425787
8.4004745 -2.591166 1.3948781
0.87075609 -0.37812093 0.14285809
0.98947507 -0.38728553 0.14925857
1.0117947 -0.35380268 0.14020091
7.8960805 -2.4432826 1.002279
0.84484339 -0.36704376 0.10415166
8.0270576 -3.1419923 0.89095062
1.0994414 -0.38494623 0.10929352
7.9149828 -2.4533703 0.69991457
0.84770614 -0.36844581 0.07050553
0.88629574 -0.34723961 0.063408054
7.931426 -2.7791972 0.48090699
7.9391127 -2.4637358 0.39521176
0.85030711 -0.36989391 0.036611136
0.85605556 -0.33587453 0.027517643
7.9865942 -2.8030677 0.17404853
7.93225 -2.4652491 0.090613514
0.84174514 -0.36630914 0.0026116027
7.9830952 -3.1355548 -0.058531035
7.9964981 -2.8101497 -0.13640545
7.9521194 -2.4746208 -0.21357417
0.82733124 -0.36055186 -0.030569186
1.2486848 -0.49097967 -0.05808907
1.5956147 -0.56183028 -0.089424767
7.956799 -2.4782097 -0.5199374
0.85019499 -0.37118706 -0.065488808
1.4505801 -0.5712415 -0.12488694
1.563194 -0.55069065 -0.14852758
7.7415533 -2.4136899 -0.80539387
0 -0 -0
1.5079298 -0.59458607 -0.18984085
1.5746683 -0.55519634 -0.21134382
1.6201923 -0.50558388 -0.23179948
0 -0 -0
1.5534319 -0.61353052 -0.25793391
2.981246 -1.0524145 -0.51982045
2.9865866 -0.93248451 -0.54566461
0 -0 -0
1.5568775 -0.61573964 -0.32252461
3.7663176 -1.332142 -0.80871952
3.6295829 -1.134495 -0.80968815
0.86770254 -0.38175535 -0.21022907
1.5506866 -0.61410511 -0.3862516
1.5797842 -0.55895388 -0.40500483
1.5104576 -0.47154349 -0.39948559
0.87808055 -0.3873094 -0.25105795
0.92474651 -0.36702248 -0.27036914
1.4161024 -0.50145775 -0.42416432
1.3601497 -0.4245674 -0.41828242
0.79072201 -0.34989113 0.26713291
0.79194278 -0.31477112 0.25311443
0.80832648 -0.28626227 0.24561411
0.82894391 -0.2591905 0.23973602
0.82102013 -0.36268124 0.23964407
0.81824398 -0.32547304 0.22544439
0.8089751 -0.28717545 0.21105836
0.88223076 -0.27700183 0.21780494
0.90807515 -0.4011184 0.22544974
0.90363866 -0.35929438 0.21064159
0.90615147 -0.3220636 0.19871753
0.9172259 -0.2887108 0.18905756
0.881926 -0.38932854 0.18163422
0.95500028 -0.38000578 0.183047
0.98104644 -0.34924209 0.17525363
8.3891277 -2.644146 1.3956617
0.87113345 -0.384655 0.14330453
0.96500188 -0.38455141 0.14592007
0.98438793 -0.35101247 0.13669913
7.8970318 -2.4967735 1.0043255
0.83803076 -0.37021306 0.10358989
0.89538324 -0.35682663 0.099622793
0 -0 0
7.9254289 -2.5100126 0.70218706
0.84269345 -0.3724311 0.070277356
0.86839318 -0.34638676 0.06227814
0.97776115 -0.34936133 0.059413552
7.9409842 -2.5178368 0.39606655
0.85898727 -0.37995484 0.037084557
0.87625629 -0.35001969 0.028235497
7.9908948 -2.8597679 0.17452137
7.9484248 -2.5238607 0.090973482
0.84679741 -0.37470427 0.0026343616
0.90156913 -0.36051407 -0.0066262837
7.9838114 -2.8608489 -0.13648592
7.9548869 -2.5291226 -0.21406126
0.83698195 -0.37088513 -0.031009275
0.92287451 -0.36942595 -0.043036953
1.5554825 -0.55845034 -0.087365992
7.9376392 -2.5257747 -0.51968831
0.85519516 -0.37963459 -0.066052146
0.99738967 -0.39986035 -0.086079359
1.5513493 -0.55724162 -0.14772424
1.5900729 -0.50648439 -0.16574372
0.82958072 -0.36854127 -0.097684547
1.4867402 -0.59679747 -0.1876307
1.555361 -0.55914235 -0.20920905
1.6170596 -0.51551569 -0.23179948
0.83267981 -0.37073618 -0.13206126
1.3882556 -0.55816489 -0.23107217
2.9589486 -1.0650064 -0.51706231
2.982686 -0.95139104 -0.54600823
0 -0 -0
1.3517631 -0.54423279 -0.2807194
3.6511209 -1.3166578 -0.78570396
3.5619912 -1.1374058 -0.7961517
0 -0 -0
1.1764311 -0.47426286 -0.29374975
1.5900398 -0.57358426 -0.40852863
1.5269344 -0.48698941 -0.40462604
0.87039101 -0.39031479 -0.24953946
0.91263503 -0.36871341 -0.26748452
1.3948952 -0.50360131 -0.41872981
1.368489 -0.43640339 -0.42166251
0.78333223 -0.35238448 0.26536188
0.78999645 -0.31962445 0.25311443
0.81288427 -0.293502 0.24754158
0.83743864 -0.26749831 0.24266288
0.82230473 -0.36929536 0.2406759
0.82341504 -0.33339617 0.22742851
0.81450272 -0.29477754 0.21296839
0.87402648 -0.28032896 0.21620005
0.89670098 -0.40268776 0.22323512
0.91138244 -0.36886555 0.21297029
0.90692049 -0.32861844 0.19932462
0.91823953 -0.29523438 0.1896363
0.89207226 -0.40036592 0.18422635
0.94170064 -0.38142323 0.18094301
0.97517723 -0.35390943 0.1745898
8.3718061 -2.6952686 1.3955051
0.86424619 -0.38796803 0.14256048
0.95436525 -0.3871153 0.14466813
0 -0 0
7.8872309 -2.5470121 1.0050477
0.83846271 -0.37656948 0.10392696
0.88027245 -0.35707921 0.098183453
0 -0 0
7.9212556 -2.5622752 0.70319706
0.83948284 -0.37718612 0.0702013
0.87549639 -0.35546216 0.062942795
0 -0 0
7.957696 -2.5769775 0.39768124
0.86393034 -0.38849679 0.037400171
0.84909159 -0.34522495 0.027427914
7.9966774 -2.9173114 0.17503533
7.9565687 -2.5802956 0.091246195
0.83627462 -0.3762008 0.0026087577
0.89285666 -0.3634004 -0.0065785139
8.0036745 -2.9235051 -0.13712956
7.9658408 -2.5865295 -0.21477906
0.83104551 -0.3743718 -0.030873863
0.84009659 -0.34228557 -0.039273921
1.5501511 -0.56729776 -0.08726041
1.5899036 -0.51667535 -0.10429882
0.84375745 -0.38077167 -0.06534797
0.87862831 -0.35852134 -0.076018132
1.5535127 -0.56880468 -0.1482598
1.585989 -0.51592356 -0.1656449
0.82911599 -0.37444299 -0.097898535
1.2136556 -0.49584594 -0.15354775
1.5425857 -0.56526196 -0.20795329
1.6242294 -0.5288021 -0.23328799
0.84030706 -0.38032725 -0.13363855
0.98692483 -0.40385711 -0.16468088
1.5905865 -0.58354408 -0.27856794
2.9945893 -0.97547185 -0.5492726
0.87346214 -0.39614189 -0.17538685
0.87137061 -0.35705096 -0.18140829
3.7193284 -1.3671016 -0.80217201
3.5986495 -1.173492 -0.80593961
0.854954 -0.3887378 -0.20828049
0.90491003 -0.37127367 -0.22651671
1.5700691 -0.57729185 -0.40430006
1.5202298 -0.49514824 -0.40364689
0.8635782 -0.39364174 -0.24827404
0.90500039 -0.3721045 -0.26591107
1.4333245 -0.52743882 -0.4312292
1.3630484 -0.44390067 -0.42081749
0.76725256 -0.35082728 0.26063907
0.78802043 -0.32446575 0.25311443
0.81738335 -0.30080837 0.24946904
0.83761436 -0.2732296 0.24319503
0.83496481 -0.38115466 0.2450612
0.8168754 -0.33659688 0.22618845
0.82087833 -0.30279428 0.21511717
0.88061506 -0.2884132 0.21826346
0.90042317 -0.41101688 0.22478537
0.92898285 -0.3826395 0.21762769
0.91866696 -0.33926597 0.20236
0.91361392 -0.29994482 0.18905756
0.8761878 -0.39971393 0.18144906
0.93661189 -0.38606864 0.180417
0.96928781 -0.35851797 0.17392597
1.0095563 -0.33187273 0.16862027
0.85285306 -0.38915861 0.14107238
0.92908806 -0.38351765 0.14119054
8.4769621 -3.1404865 1.1824344
7.8639121 -2.5928726 1.0040847
0.83884811 -0.38294503 0.10426401
0.8817426 -0.36399195 0.098594695
0 -0 0
7.9205236 -2.6158307 0.70454365
0.83443171 -0.3810873 0.069973126
0.87145448 -0.36006537 0.06280987
0 -0 0
7.9625983 -2.6326549 0.39872602
0.84244573 -0.38506722 0.036571685
0.84418648 -0.34928194 0.027338181
7.9795642 -2.9666717 0.17505589
7.9548249 -2.6337817 0.09140981
0.84031653 -0.38423589 0.0026286717
0.86936104 -0.36007112 -0.0064215576
8.020256 -2.9854655 -0.13772494
7.9687986 -2.6416497 -0.2152918
0.82600665 -0.3782157 -0.030772304
0.85090095 -0.35279077 -0.039879467
1.5419627 -0.57505393 -0.086996466
1.5904926 -0.52767825 -0.10454789
0.83415169 -0.38261461 -0.064784624
0.87365019 -0.36275899 -0.075778581
1.5191987 -0.56683618 -0.14531423
1.5846822 -0.52627254 -0.16584256
0.8457787 -0.38823369 -0.10014538
1.0345044 -0.43007857 -0.13121353
1.5363001 -0.57367527 -0.20757656
1.6181335 -0.5378207 -0.23288202
0.82267296 -0.37844491 -0.13120092
0.85304952 -0.35520053 -0.1427031
1.5832789 -0.5919106 -0.27791896
2.9801342 -0.99103016 -0.54772633
0.83438772 -0.38461056 -0.16801161
0.85738117 -0.35747835 -0.17894915
1.591553 -0.59611219 -0.34404308
3.5988057 -1.1980222 -0.80760562
0.84191787 -0.3890619 -0.2056824
0.88013941 -0.36743614 -0.22087634
1.5737791 -0.589643 -0.40617943
1.5134828 -0.50324321 -0.40266779
0.84183443 -0.3899866 -0.24270622
0.89913911 -0.37616068 -0.26486209
1.4327644 -0.53723723 -0.43204436
1.3994509 -0.46527258 -0.43292937
0.77981538 -0.36237329 0.26565704
0.78866714 -0.33040607 0.25396857
0.81912279 -0.30716828 0.25057045
0.82220346 -0.2737956 0.23920387
0.8413747 -0.39033672 0.2476408
0.81926179 -0.34347564 0.22742851
0.81627804 -0.30680045 0.21440092
0.84098017 -0.28115752 0.20886348
0.88903803 -0.4124302 0.22257072
0.92391354 -0.38719922 0.2169926
0.91931772 -0.34593111 0.20296709
0.92012954 -0.30835104 0.1907938
0.85588771 -0.3968156 0.17774601
0.92605436 -0.38838145 0.17883903
0.98552525 -0.37141398 0.17724515
1.0252913 -0.34403047 0.17159775
0.84237528 -0.39064014 0.13973308
0.91576105 -0.38460964 0.13952129
1.0389861 -0.39218315 0.14525902
0 -0 0
0.83017296 -0.38515756 0.10347755
0.8675704 -0.36438793 0.097258165
0 -0 0
7.9071569 -2.6653357 0.7047962
0.81218022 -0.3769649 0.068299852
0.86095041 -0.36192569 0.062211677
0 -0 0
7.9813128 -2.6932797 0.40048313
0.84550446 -0.39275488 0.036808394
0.84202743 -0.35445517 0.027338181
0 -0 0
7.9612503 -2.6902249 0.091671601
0.83522254 -0.3881205 0.0026201373
0.86437076 -0.36423373 -0.0064010853
8.0214205 -3.0420666 -0.13806286
7.9827418 -2.7007473 -0.21611214
0.82638884 -0.38454181 -0.030873863
0.84964073 -0.35839346 -0.039922718
1.4711933 -0.55896777 -0.083195649
1.5862795 -0.53710729 -0.10448562
0.83269244 -0.38814712 -0.064855047
0.87416255 -0.36927646 -0.076018132
1.5305883 -0.58180952 -0.14674239
1.5823658 -0.53630549 -0.1659414
0.83887541 -0.39131439 -0.099610426
0.84432089 -0.35710451 -0.1073671
1.5364602 -0.58450198 -0.20807886
1.6007286 -0.54296523 -0.23085226
0 -0 -0
0.846304 -0.35850063 -0.14193998
1.5768508 -0.60056061 -0.27743223
3.0420971 -1.0324085 -0.56026834
0.84270173 -0.39473018 -0.17017022
0.85969156 -0.36464959 -0.17989497
1.6052642 -0.61250526 -0.34781289
3.5432301 -1.2037215 -0.79677647
0.83951479 -0.3942205 -0.2056824
0.85993433 -0.36521313 -0.21636406
1.5338069 -0.58542407 -0.39678258
1.5452564 -0.52435964 -0.41196951
0 -0 -0
0.89503831 -0.38091484 -0.26433763
1.3871872 -0.52987826 -0.41927326
1.371128 -0.46521839 -0.42504254
0.76980144 -0.36347979 0.26300046
0.78838873 -0.3359907 0.254538
0.80734414 -0.30841485 0.24754158
0.8223334 -0.27945572 0.23973602
0.83634198 -0.39425603 0.24686691
0.83050531 -0.35419664 0.2311487
0.8125664 -0.31110883 0.21392341
0.85858494 -0.29291233 0.21367811
0.87943405 -0.41455111 0.22079901
0.91612601 -0.39056125 0.2157224
0.9235788 -0.35401902 0.20438361
0.91543496 -0.31303859 0.19021505
0.84721386 -0.39912811 0.17644995
0.92184269 -0.39328361 0.17848834
0.97218013 -0.37321296 0.17525363
0.99886686 -0.34199709 0.16752328
0.84354055 -0.39748752 0.14032832
0.88151109 -0.37660453 0.13465264
1.0171248 -0.39107808 0.14253543
0.94548881 -0.32466179 0.12122208
0.83228809 -0.39236274 0.10403931
0.85891527 -0.36696872 0.096538499
0 -0 0
0.97620219 -0.33574155 0.087194748
0.8224777 -0.38789579 0.069364667
0.86146575 -0.36837852 0.062411074
0 -0 0
7.9806929 -2.7477295 0.40129048
0.84578955 -0.39921495 0.03692675
0.87015903 -0.37259901 0.028325226
0.86561286 -0.33396772 0.019078316
7.9776802 -2.7504306 0.092053384
0.84548503 -0.39921558 0.0026599655
0.85660499 -0.36716682 -0.0063601402
7.9876795 -3.085463 -0.13780539
7.9934239 -2.7591369 -0.2168556
0.82943487 -0.3921684 -0.031076981
0.83640826 -0.35887283 -0.039403681
1.3587732 -0.52581799 -0.077019326
1.5716338 -0.54291981 -0.1037384
0.83750725 -0.39666495 -0.065418385
0.87188029 -0.37463325 -0.076018132
1.5214167 -0.58903253 -0.14620684
1.5771642 -0.54535419 -0.16574372
0.8328647 -0.39475092 -0.099182449
0.85488695 -0.36777347 -0.10899564
1.5124933 -0.58603311 -0.2053162
1.594558 -0.55180484 -0.23044631
0.81975484 -0.38936111 -0.13148771
0.85044169 -0.36642411 -0.14300834
1.5666964 -0.60772669 -0.27629656
3.0115013 -1.042675 -0.55580133
0.82782871 -0.39397538 -0.16765185
0.85292983 -0.36797282 -0.17894915
1.5969077 -0.62056834 -0.34682083
3.6346607 -1.259711 -0.81905955
0.83179325 -0.39684194 -0.20438334
0.86572635 -0.3739596 -0.21839459
1.5546472 -0.60433298 -0.40312544
1.5346801 -0.53129375 -0.41001126
0.83262146 -0.39820084 -0.24144082
0.87408662 -0.37834954 -0.25883061
1.2816637 -0.49860328 -0.38829646
1.3782216 -0.47707525 -0.42814094
0.75635773 -0.36282426 0.2591632
0.78367358 -0.33967811 0.25368387
0.80722839 -0.31405991 0.24809228
0.82242477 -0.28512773 0.24026819
0.84349233 -0.4039709 0.24970448
0.81765133 -0.35465986 0.22817254
0.82330847 -0.32102767 0.21726596
0.82919306 -0.28857708 0.20680006
0.8786329 -0.42078182 0.22124195
0.92088574 -0.39928547 0.217416
0.92503834 -0.36110383 0.20519306
0.92368811 -0.32220462 0.19233713
0.84918094 -0.40644029 0.17737572
0.9139933 -0.39658129 0.17743637
0.97538251 -0.38132554 0.17624938
0.99581724 -0.34779394 0.16736658
0.83573419 -0.40009397 0.13943546
0.87645894 -0.38082239 0.13423534
1.0091662 -0.39514253 0.14175725
1.0634048 -0.37246156 0.13663064
0.82628018 -0.39574528 0.10358989
0.86120886 -0.37421408 0.097052552
0.91304255 -0.35792777 0.092012063
0 -0 0
0.84256238 -0.40370634 0.071266107
0.84820914 -0.36888224 0.061613489
0.87271422 -0.34236443 0.053643584
7.9561429 -2.7939985 0.40091056
0.83701712 -0.40137276 0.036650587
0.84769505 -0.36915138 0.027667198
0.85889465 -0.33744475 0.018975524
7.9785767 -2.8056314 0.092260636
0.84392118 -0.40482837 0.0026628105
0.83416927 -0.36362499 -0.0062100082
7.9955812 -3.1450305 -0.13827205
8.009347 -2.8197505 -0.21775286
0.83331919 -0.40027949 -0.031313952
0.83693755 -0.36519682 -0.03953344
1.1659899 -0.4594602 -0.066250347
1.5814517 -0.55719626 -0.10461015
0.82876545 -0.39876881 -0.064925462
0.83850926 -0.3664054 -0.0733032
1.4390126 -0.5673064 -0.1386198
1.5700345 -0.55369741 -0.1653484
0.81519789 -0.39252102 -0.097363569
0.84988439 -0.37181774 -0.10864666
1.4977946 -0.59093332 -0.20380928
1.5780618 -0.55696189 -0.22855186
0.8209157 -0.39610401 -0.13206126
0.83278883 -0.36489284 -0.14041373
1.5060371 -0.59485364 -0.26623762
3.0143359 -1.0644137 -0.55751938
0.83159506 -0.40204456 -0.16891104
0.85245436 -0.37398839 -0.17932749
1.5803108 -0.62530649 -0.34404308
3.5890543 -1.2686249 -0.81052119
0.82231432 -0.398532 -0.20265129
0.85984766 -0.37769735 -0.21749213
1.4867405 -0.58846211 -0.38644603
1.5505908 -0.54747933 -0.41515172
0.82494134 -0.40076575 -0.23992233
0.86821574 -0.38215068 -0.25778165
1.0638431 -0.42139858 -0.32308221
1.3571727 -0.47913441 -0.42250752
0.78503782 -0.382525 0.26978949
0.78771496 -0.34718663 0.2556769
0.80975497 -0.32077736 0.24946904
0.81793332 -0.28920466 0.23946995
0.8601113 -0.41843748 0.25537959
0.8340736 -0.36788005 0.23338084
0.82583594 -0.32786494 0.21845973
0.82098562 -0.29138052 0.20519517
0.85498857 -0.41592687 0.21592683
0.90321571 -0.39822555 0.21381707
0.94919717 -0.37726253 0.21106151
0.92354268 -0.3285239 0.19272296
0.8404845 -0.40863526 0.17607965
0.89442873 -0.39463112 0.17410503
0.97302437 -0.3873032 0.17624938
1.0048292 -0.35787398 0.16924711
0.84037787 -0.40867409 0.14062594
0.86051863 -0.38019007 0.13214877
0.95514309 -0.38076517 0.1344943
1.0106153 -0.36094874 0.13013016
0.82741052 -0.40254664 0.10403931
0.85798663 -0.3790893 0.096949734
0.88031399 -0.35134438 0.088929422
0 -0 0
0.83558667 -0.40668681 0.070885815
0.84501719 -0.37367627 0.061547022
0.87986863 -0.35141587 0.054214869
7.9416709 -2.8437743 0.40105301
0.85070837 -0.41437727 0.037360717
0.85729545 -0.37960684 0.028056033
0.85216653 -0.34085199 0.018872732
7.9847436 -2.8629718 0.09253335
0.85130984 -0.4148173 0.0026941041
0.83649337 -0.37076253 -0.006244129
0.85302764 -0.34159368 -0.014787851
8.0041256 -2.8732326 -0.21808611
0.83084744 -0.40538511 -0.031313952
0.82372242 -0.36546329 -0.039014403
0.88603199 -0.35543844 -0.050466396
1.5601566 -0.56047815 -0.10342707
0.82719928 -0.40428454 -0.064995877
0.84535468 -0.37559083 -0.074101709
1.1027411 -0.44257405 -0.10648642
1.5647348 -0.5626471 -0.16515073
0.83331674 -0.4075627 -0.099824406
0.84849447 -0.37742922 -0.10876299
1.414048 -0.56794381 -0.19288419
1.57275 -0.56596321 -0.22828121
0.8086943 -0.39634264 -0.13048398
0.83775628 -0.37321323 -0.14163473
1.3000302 -0.52272904 -0.23038234
3.00126 -1.0805533 -0.55631673
0.82116574 -0.40323728 -0.16729207
0.86269844 -0.38481209 -0.18197578
1.4164361 -0.57054007 -0.30912292
3.5775223 -1.2892966 -0.80968815
0.82335711 -0.40529478 -0.20351732
0.85573488 -0.38217163 -0.21704091
1.1900877 -0.47951186 -0.3100965
1.5389919 -0.55402756 -0.41294864
0.83201015 -0.41052881 -0.24270622
0.86761624 -0.38825911 -0.25830612
0.97644562 -0.39372805 -0.29726827
1.3487904 -0.48550305 -0.42081749
0.79466438 -0.3932676 0.27392194
0.78207064 -0.35044542 0.254538
0.80153042 -0.32322314 0.24754158
0.82339799 -0.29683322 0.24159858
0.8557952 -0.42285118 0.25486365
0.8264969 -0.37061265 0.23189276
0.83011103 -0.335473 0.22013101
0.83565748 -0.30237389 0.20932201
0.86028892 -0.42505282 0.21791999
0.89540428 -0.40136155 0.2125469
0.95049572 -0.38454872 0.21187094
0.93719077 -0.33987129 0.19600253
0.84236705 -0.41596022 0.17700541
0.87043184 -0.39044142 0.16989706
0.94686657 -0.38363826 0.17193443
0.98868924 -0.35897675 0.16689645
0.84051436 -0.41513658 0.14107238
0.85274965 -0.38302845 0.13131416
0.9518699 -0.38624582 0.13436459
1.0624852 -0.38684165 0.13711216
0.8338334 -0.41201785 0.10516284
0.83296037 -0.37415722 0.094379492
0.87445199 -0.35524037 0.088555776
0.95207 -0.34716746 0.085595623
0.83754486 -0.41401547 0.071266107
0.82814759 -0.37230808 0.060483575
0.86752224 -0.35267219 0.053586453
0 -0 0
0.84725416 -0.41914624 0.037321266
0.84948134 -0.38239819 0.027876571
0.86580092 -0.35248318 0.019222228
8.0055323 -2.9259851 0.092980571
0.84337103 -0.41737181 0.0026770348
0.8296442 -0.37383416 -0.0062100082
0.87869304 -0.35814306 -0.015270589
8.0079374 -2.930192 -0.21867576
0.84535903 -0.41890684 -0.031957157
0.82055372 -0.37009987 -0.038971148
0.86164612 -0.35180891 -0.049199458
1.5566882 -0.57004052 -0.10342707
0.82470304 -0.40935251 -0.064995877
0.82395691 -0.37215418 -0.072424844
0.86396015 -0.35291207 -0.083636023
1.5603186 -0.57189506 -0.16505189
0.81833386 -0.40647593 -0.098326504
0.83168286 -0.37608072 -0.1069018
1.1993234 -0.49026829 -0.16400181
1.5645967 -0.57389677 -0.22760463
0.81333506 -0.40482512 -0.13163109
0.83004892 -0.37590039 -0.14071898
0.97351205 -0.39839578 -0.172949
2.9733024 -1.0911424 -0.55236512
0.81427461 -0.40607327 -0.16639267
0.87015837 -0.39455885 -0.18405658
0.9014321 -0.36954114 -0.19721963
3.5493457 -1.3038042 -0.80510658
0.82696748 -0.41339487 -0.20503287
0.85603505 -0.38862327 -0.21771774
0.88674498 -0.36362863 -0.23163269
1.5155383 -0.55611217 -0.40756342
0 -0 -0
0.85204166 -0.38758186 -0.25437254
0.94641137 -0.38838559 -0.28884476
1.3511909 -0.49575293 -0.42250752
0.78369933 -0.39384592 0.2709702
0.79124653 -0.36040318 0.25823936
0.80131078 -0.32886514 0.24809228
0.82427561 -0.30287731 0.2423968
0.85404807 -0.42852756 0.25512162
0.85946745 -0.3917487 0.24181329
0.83162934 -0.34203765 0.22108603
0.83469963 -0.30783248 0.20955127
0.85156339 -0.42726225 0.21636975
0.884031 -0.40279579 0.21042989
0.94630718 -0.38962793 0.21146622
