# .PCD v0.7 - Point Cloud Data file format
VERSION 0.7
FIELDS x y z
SIZE 4 4 4
TYPE F F F
COUNT 1 1 1
WIDTH 1488
HEIGHT 1
VIEWPOINT 0 0 0 1 0 0 0
POINTS 1488
DATA ascii
4.9140124 -0.22044761 -0.80877179
1.0323827 -0.008372019 -0.18005559
4.427527 -0.52933204 -0.81541389
4.1875944 -0.34454966 -0.8094328
4.077003 -0.18539409 -0.82617956
1.0230302 -0.0086175911 -0.21783276
3.4971118 -0.42150179 -0.78116012
3.5263069 -0.29175088 -0.81943095
3.3713338 -0.1536589 -0.81564772
1.00445 -0.0081104366 -0.25359502
3.0924358 -0.37568399 -0.81492603
2.9695964 -0.24793521 -0.80979621
2.8619843 -0.13119455 -0.80892837
1.0362383 -0.0083309375 -0.30420542
6.1433043 -0.75367028 1.9121403
1.0268912 -0.0862519 0.306072
1.0323589 -0.047351971 0.29600355
0.97451973 -0.0083035761 0.26900458
7.1247077 -0.86952686 1.9163786
7.4823198 -0.63043684 1.9223537
1.022408 -0.047664501 0.25164652
1.0122502 -0.0098265279 0.2384391
8.0962553 -0.98795491 1.85232
8.0180807 -0.67445093 1.742927
1.015404 -0.047728714 0.21004972
0.98410553 -0.010257593 0.19349462
8.0742235 -0.98340714 1.532504
8.0198641 -0.67671537 1.4333421
1.1179993 -0.053118307 0.18836448
1.0083263 -0.010897266 0.16000119
8.0864315 -0.98561025 1.2259009
7.5543962 -0.64129031 1.06498
2.2739856 -0.10923482 0.29778099
1.0065573 -0.011774217 0.12206473
7.6057272 -0.92836702 0.86635756
7.5425358 -0.64041609 0.78238332
2.2962115 -0.11122638 0.21569121
0.96250105 -0.011729301 0.081303209
7.6120791 -0.93035591 0.5849601
7.5637584 -0.64461142 0.50566924
2.2845528 -0.11122119 0.13088121
0.95784301 -0.011990218 0.045542907
7.6239882 -0.93424243 0.30326486
7.566854 -0.64860016 0.22725986
2.2947397 -0.11288138 0.047243506
0 -0 0
7.6396923 -0.9372496 0.021897065
7.5917449 -0.65353674 -0.052000288
7.4988117 -0.37189436 -0.12082914
0 -0 -0
7.6576672 -0.9435249 -0.26134452
7.5845771 -0.65572023 -0.32958952
7.5459466 -0.37885296 -0.39940247
1.0079476 -0.013655528 -0.062890626
7.6473618 -0.9474045 -0.54397959
7.5879507 -0.66001481 -0.61014134
7.5580931 -0.38065302 -0.67819268
2.3392653 -0.032386236 -0.23235747
7.5944953 -0.94300848 -0.82352465
7.492022 -0.65496469 -0.88080573
6.7702398 -0.34275085 -0.85805845
0 -0 -0
5.4698725 -0.68375063 -0.79867667
5.1636043 -0.45431668 -0.80051094
4.915524 -0.2507461 -0.80925852
2.3689983 -0.03374904 -0.41320008
4.4476199 -0.55943525 -0.81973118
4.1971393 -0.37127608 -0.81170279
3.9935684 -0.20616212 -0.80951321
2.3930957 -0.034844305 -0.50959539
3.5990608 -0.45621079 -0.8045429
3.47399 -0.30889565 -0.80769902
3.3887713 -0.17529619 -0.82011127
2.382982 -0.033865057 -0.60167623
3.0881529 -0.39440662 -0.81441987
2.9920478 -0.26830637 -0.81635225
2.872658 -0.14935248 -0.81218904
1.0160199 -0.014403399 -0.29829028
6.1385641 -0.79135072 1.9121403
1.0234785 -0.092292883 0.30521783
1.0416493 -0.054184914 0.29875708
1.0033659 -0.014706787 0.2769869
7.126905 -0.91421026 1.9184422
7.4985719 -0.67816806 1.927562
1.0337331 -0.054551069 0.25451156
1.0092511 -0.015991131 0.23775129
8.083271 -1.0367455 1.8507698
8.0293655 -0.72504258 1.746314
1.6478131 -0.087591127 0.34097663
0.99677813 -0.01650697 0.19600253
8.0855818 -1.0351774 1.5358367
8.0224237 -0.72653317 1.4345694
2.330822 -0.12508024 0.39282703
1.009228 -0.017100768 0.1601579
8.094945 -1.0370941 1.2281332
7.5670848 -0.68915802 1.0673448
2.3544607 -0.12758516 0.30841604
1.0104364 -0.018020922 0.12254624
7.6097436 -0.97628182 0.86748105
7.5444078 -0.68722552 0.78300017
2.3193455 -0.12661611 0.21793315
0 -0 0
7.6161165 -0.97831553 0.58572066
7.568604 -0.69182712 0.50626749
2.3067553 -0.12649412 0.13219516
0 -0 0
7.6389241 -0.98368472 0.30409336
7.5876155 -0.69730407 0.2280076
2.3169639 -0.12823021 0.047716349
1.0117558 -0.019298634 0.01103899
7.6605759 -0.98756033 0.021973876
7.5945621 -0.70074964 -0.052048057
7.5453067 -0.42062622 -0.12161761
0 -0 -0
7.6537161 -0.99075031 -0.26141226
7.603291 -0.70436561 -0.33058432
7.5384946 -0.42486593 -0.39913851
1.2672901 -0.02494723 -0.079080299
7.6572313 -0.99636936 -0.54510629
7.5986452 -0.70794821 -0.61133909
7.5466652 -0.42651561 -0.67738932
2.3340483 -0.046639688 -0.23186332
7.5589886 -0.98573256 -0.82031482
7.4235845 -0.69490558 -0.8732447
7.2147202 -0.40964991 -0.91469306
2.3427682 -0.047386609 -0.32002673
5.4351549 -0.7133081 -0.79423159
5.1390724 -0.48395291 -0.79715317
4.9050264 -0.2803956 -0.80779833
2.3776107 -0.048464991 -0.41474631
4.3953428 -0.58027732 -0.81073701
4.1879392 -0.39637458 -0.81037861
3.9051428 -0.2256307 -0.79185462
2.3918591 -0.049507171 -0.50938714
3.5778067 -0.47584018 -0.80042928
3.5719228 -0.33970615 -0.83093727
3.4322698 -0.19866976 -0.83091766
2.4263513 -0.049373783 -0.6126914
3.1048524 -0.41591671 -0.81948149
2.9086943 -0.27883297 -0.79406184
2.9005101 -0.16865186 -0.82034081
1.0562036 -0.021455787 -0.31012052
6.1193905 -0.8270818 1.9077127
6.3549132 -0.61239129 1.8962228
1.0480152 -0.060966142 0.30068454
1.0003656 -0.020802924 0.27618867
7.1039252 -0.95560443 1.913799
7.476913 -0.72248846 1.9230977
1.0304707 -0.060721539 0.2537953
1.0198385 -0.022418791 0.24027325
8.0883551 -1.0878839 1.8534273
8.0344944 -0.77523488 1.7484311
2.1575482 -0.12796706 0.44660854
1.0025439 -0.022756374 0.19716004
8.1005058 -1.0876472 1.5399101
8.038394 -0.77773523 1.4382514
7.9832644 -0.47755307 1.3459346
1.0624228 -0.024523696 0.16862027
8.1090107 -1.0895095 1.2312582
7.565671 -0.73586345 1.0677621
2.3546236 -0.1420892 0.30854574
1.0142766 -0.024315676 0.12302776
7.6223211 -1.0254732 0.86961579
7.5677705 -0.73620099 0.7858789
2.3870969 -0.14501055 0.22437866
0 -0 0
7.631711 -1.0279571 0.587394
7.5701747 -0.73883569 0.50666624
2.3208833 -0.14155743 0.13305207
0 -0 0
7.6436372 -1.0320085 0.30452731
7.5891628 -0.74443316 0.22818707
2.3151357 -0.14238305 0.047695793
2.2481518 -0.056683436 0.024532299
7.6573448 -1.0349479 0.021982411
7.6000714 -0.74831569 -0.052116301
7.5475731 -0.4672243 -0.12169806
2.3294721 -0.059588138 -0.059757698
7.660367 -1.0394409 -0.26185232
7.6147337 -0.75257748 -0.33127639
7.5457129 -0.47173637 -0.39966643
2.341665 -0.060472589 -0.14614287
7.6717296 -1.046165 -0.54658508
7.6288762 -0.7580089 -0.61413389
7.5458941 -0.47293767 -0.67756784
2.3307338 -0.060882304 -0.23156682
7.5606785 -1.033172 -0.82117075
7.4320288 -0.74172503 -0.87475687
6.954638 -0.43770868 -0.88204336
2.3434238 -0.061786789 -0.32016206
7.593534 -1.0440078 -1.1105478
5.1281395 -0.514687 -0.79593223
4.9002595 -0.31029993 -0.80731159
2.3861318 -0.063287899 -0.41629261
4.3819551 -0.60588837 -0.80893815
4.2225533 -0.4258076 -0.81756681
3.9134662 -0.25021335 -0.7938388
2.4012876 -0.06444481 -0.51146966
3.5738525 -0.49764955 -0.80021274
3.4583068 -0.35032538 -0.8049916
3.3126431 -0.21214713 -0.80225724
2.6353581 -0.069806136 -0.66556454
3.0390091 -0.42609414 -0.80277807
3.0336509 -0.30960813 -0.82867748
2.8907773 -0.18589008 -0.81789535
1.4061511 -0.037197422 -0.41293067
6.0839276 -0.86033314 1.8982671
6.3348246 -0.64971012 1.8913825
1.0562557 -0.067950957 0.30316272
1.0349087 -0.027875016 0.28576747
7.1007986 -0.99957937 1.914573
7.4549932 -0.76656872 1.9186336
1.6725456 -0.10885855 0.41208908
1.0177356 -0.028621253 0.23981468
8.1056681 -1.1408906 1.8589637
8.0490303 -0.82651561 1.752665
7.9848571 -0.52277786 1.6534837
1.0053278 -0.028992295 0.19773878
8.1102238 -1.1396552 1.5430577
8.0530577 -0.82905972 1.441758
7.9880552 -0.52704781 1.3472623
1.0099293 -0.029513108 0.1603146
8.1197996 -1.1417234 1.2339368
7.6713352 -0.79368573 1.0833417
7.5271144 -0.50059366 0.98672384
1.0408998 -0.031345494 0.12627801
7.6326127 -1.0745788 0.87152582
7.5789409 -0.78426021 0.78752387
7.534987 -0.50415546 0.70853961
2.2549114 -0.069007032 0.19054915
7.6351328 -1.0761566 0.58815455
7.5704608 -0.78578657 0.5069986
2.3090138 -0.15505962 0.13242367
2.2793338 -0.070510998 0.10841966
7.6599174 -1.0821043 0.30543473
7.5904174 -0.7916075 0.22836654
2.3870363 -0.16151282 0.049196564
2.2827425 -0.071573563 0.024914082
7.6627321 -1.0835932 0.022016549
7.6013036 -0.79555923 -0.052157242
7.5705009 -0.51529193 -0.12211643
2.3330591 -0.074007161 -0.059860244
7.6825409 -1.0904977 -0.26283407
7.6209025 -0.80043441 -0.33175218
7.5765491 -0.5203535 -0.40146124
2.3661888 -0.075636826 -0.14769958
7.669116 -1.0937815 -0.54686671
7.6379595 -0.80626953 -0.61525184
7.5875645 -0.52230752 -0.68158448
2.3541863 -0.075952381 -0.23393881
7.5669923 -1.0813726 -0.82256168
7.4480786 -0.78951174 -0.87719971
7.2536874 -0.50123233 -0.920344
2.3311172 -0.075778306 -0.31853822
5.4563599 -0.78431726 -0.79867667
5.1317639 -0.54687607 -0.79700059
4.8539662 -0.33728349 -0.80001074
2.3935754 -0.078185037 -0.41766709
4.3693929 -0.63149774 -0.80731922
4.1847119 -0.44794619 -0.81075692
4.0174508 -0.28162333 -0.81526703
2.4331059 -0.080241486 -0.51834202
3.5630028 -0.51844436 -0.79848069
3.448343 -0.37070552 -0.80318671
3.2443745 -0.2277721 -0.78604764
3.2327917 -0.10548468 -0.81659555
3.0411234 -0.44543415 -0.80404341
2.9990745 -0.32468498 -0.8197614
2.8444624 -0.20044453 -0.80512416
2.7513757 -0.089680128 -0.80811608
6.0842052 -0.89848471 1.9000381
6.3478727 -0.69043338 1.8965075
1.0577369 -0.074565947 0.30371341
1.0212302 -0.033778444 0.28204238
7.1241641 -1.0474871 1.9225698
7.452075 -0.81250727 1.9191296
2.1416292 -0.15259109 0.52788466
1.0369967 -0.035532068 0.24440008
8.1236 -1.1942924 1.8647219
8.0535231 -0.87694591 1.7547821
8.0020123 -0.57323164 1.6577333
0.99826658 -0.034920204 0.19638835
8.1215515 -1.1921088 1.5465755
8.0566263 -0.87941819 1.443336
8.0082769 -0.57775474 1.3512453
1.0186125 -0.036023524 0.16172501
8.1214466 -1.1928173 1.2352761
7.8041334 -0.85585469 1.1028163
7.5278568 -0.54705721 0.98724264
2.2321713 -0.080930822 0.27085367
7.6465206 -1.1244272 0.87388521
7.6076045 -0.8344363 0.79101938
7.5406885 -0.55103278 0.70938033
2.2644033 -0.083207518 0.1913908
7.6412101 -1.1248726 0.58914328
7.5972347 -0.83571452 0.50912547
7.5503483 -0.55359346 0.43320477
2.287842 -0.084828496 0.10884707
7.6640067 -1.1306884 0.30586869
7.5933652 -0.83904475 0.22860582
7.5528431 -0.55761993 0.15573087
2.2792625 -0.085466452 0.024881357
7.6707783 -1.1327819 0.022059223
7.6072121 -0.84339714 -0.05223231
7.5502458 -0.56047565 -0.12184288
2.3505425 -0.089002006 -0.060321696
7.6796598 -1.1382025 -0.26296949
7.6297488 -0.84872663 -0.3323577
7.5851636 -0.56772691 -0.40209472
2.3816371 -0.090762176 -0.14869586
7.6750865 -1.1427274 -0.54778218
7.6388125 -0.85378432 -0.61573094
7.5961356 -0.56974804 -0.68265557
2.3795297 -0.091388911 -0.23650849
7.571032 -1.1293961 -0.82373863
7.439146 -0.83475441 -0.87673438
7.4127183 -0.55794245 -0.94093841
7.37993 -0.28524169 -1.0086594
7.6036401 -1.1406372 -1.1139891
5.1106353 -0.57636017 -0.79425341
4.8429499 -0.36639059 -0.79855061
4.5862703 -0.17798543 -0.800457
4.4558959 -0.67193711 -0.8240484
4.2267675 -0.47869781 -0.81945848
4.0185785 -0.30649224 -0.81586224
3.8057127 -0.14889072 -0.8109377
3.5539632 -0.53941774 -0.79718167
3.4314837 -0.39020607 -0.79980248
3.2855604 -0.25093186 -0.79638416
3.1981738 -0.12400393 -0.80802816
3.0431149 -0.46481615 -0.80530888
2.9385426 -0.33638605 -0.8037647
2.8450983 -0.21804114 -0.80566764
2.7939191 -0.10823195 -0.82079124
6.0984082 -0.93885273 1.9062368
6.346374 -0.72969872 1.8973618
1.0553423 -0.080907725 0.30316272
1.0421944 -0.040875059 0.28789607
7.1233325 -1.0920589 1.9241174
7.4479117 -0.85832798 1.9193776
2.0932117 -0.16205613 0.51618576
1.0299511 -0.041619185 0.24279518
8.1257582 -1.245593 1.8669366
8.0615835 -0.92790949 1.7577459
8.0110359 -0.62330782 1.6603639
1.0107785 -0.041568942 0.19889626
8.1500254 -1.2474203 1.5534261
8.0647717 -0.93041581 1.4457906
8.0212946 -0.62819064 1.3540667
1.0637649 -0.044157192 0.16893369
8.137434 -1.2462199 1.2388476
7.9216971 -0.91797274 1.1202043
7.5421515 -0.59463984 0.98957717
2.3050287 -0.097737774 0.27976176
7.6502814 -1.1729807 0.87512112
7.6053057 -0.88144356 0.79132783
7.5460978 -0.5979991 0.71022099
2.2957072 -0.098466463 0.19408405
7.6430345 -1.1730984 0.58982784
7.6207061 -0.88565487 0.51105297
7.5667138 -0.60149336 0.43434733
2.29127 -0.099037372 0.10903703
7.6737142 -1.180275 0.30653936
7.6119018 -0.88840193 0.22932367
7.5492792 -0.60395277 0.15573087
2.3146589 -0.10101972 0.025274049
7.6804852 -1.1824142 0.022107586
7.6157985 -0.8916862 -0.052327849
7.5556345 -0.60751373 -0.12198771
2.3889015 -0.10513718 -0.061321504
7.6982112 -1.1892698 -0.26384965
7.6492038 -0.89843953 -0.33343905
7.5974622 -0.61554819 -0.40293932
2.3920035 -0.10585932 -0.14938082
7.7004595 -1.1948466 -0.55010599
7.6443195 -0.90192389 -0.61660928
7.596468 -0.6166687 -0.68301266
7.64079 -0.34041855 -0.75963402
7.5757494 -1.1776625 -0.82502252
7.4398022 -0.88108528 -0.87743235
6.9078283 -0.56258655 -0.87727153
7.3166723 -0.32776955 -1.0002695
7.6316986 -1.1927724 -1.1191511
5.1619582 -0.61424708 -0.8028003
4.8288088 -0.39513376 -0.79660374
4.5880442 -0.20625561 -0.8009724
4.3263302 -0.67957413 -0.80084336
4.18085 -0.49949828 -0.81113523
4.0967207 -0.33774757 -0.83213192
3.8213377 -0.17299128 -0.81447798
3.6286957 -0.57356042 -0.81471878
3.4367633 -0.412182 -0.80160743
3.2771778 -0.27052718 -0.79473972
3.1886351 -0.14323364 -0.80582511
3.0602698 -0.48667037 -0.81062359
2.912472 -0.3515195 -0.79720879
2.847543 -0.23581192 -0.80675453
2.7874513 -0.12511495 -0.81910127
6.0878158 -0.97549832 1.904761
6.3360672 -0.76793355 1.8956534
1.0471616 -0.08674673 0.30095989
1.0515536 -0.047705941 0.29055685
7.1174517 -1.1358986 1.9243754
7.4367347 -0.90331048 1.9178895
7.8161521 -0.65339565 1.9284146
1.0666242 -0.04965822 0.25150737
8.1362591 -1.2983479 1.8711443
8.0809641 -0.98041749 1.7632501
8.0256023 -0.67400801 1.6642088
1.014425 -0.04795552 0.19966795
8.1354246 -1.296322 1.5521301
8.0774794 -0.9821406 1.4491221
8.0369425 -0.67905706 1.357386
2.369633 -0.11293299 0.37641811
8.1354933 -1.2970608 1.2397404
8.0348558 -0.98108518 1.137036
7.5403366 -0.64107436 0.98983651
2.3301661 -0.11313099 0.28289163
7.6890588 -1.2272609 0.88040173
7.616539 -0.93014205 0.79307556
7.5551829 -0.64539146 0.71143538
2.3249178 -0.11401505 0.19660902
7.6799998 -1.2270522 0.59325039
7.6299849 -0.93421698 0.51204997
7.5758123 -0.64901835 0.43509001
2.3015935 -0.11363631 0.10955942
7.6781678 -1.2292333 0.3070128
7.6241651 -0.93728632 0.22986206
7.5723262 -0.65258068 0.15628596
2.3309734 -0.11606567 0.025459487
7.694808 -1.2329993 0.022170173
7.6310253 -0.94096905 -0.052471153
7.5677032 -0.65524286 -0.12224517
7.5260611 -0.37750891 -0.19324477
7.7026105 -1.2383865 -0.26425588
7.6554446 -0.94682878 -0.33395809
7.6064754 -0.6632815 -0.40362558
7.5846057 -0.38230348 -0.47379681
7.7038155 -1.2438222 -0.55088055
7.6534796 -0.95065463 -0.61780703
7.6024632 -0.66413492 -0.68390524
7.634582 -0.38709357 -0.75923866
7.625308 -1.2333318 -0.83122814
7.4076452 -0.9234013 -0.8742916
6.9141293 -0.60582751 -0.87852728
5.8252974 -0.29678512 -0.7966162
7.6281438 -1.2402124 -1.1197246
5.1070995 -0.63952327 -0.79486382
4.9059124 -0.43176249 -0.80974519
4.6270294 -0.2364649 -0.80801654
7.6024714 -1.2420318 -1.4086713
4.1952434 -0.52734655 -0.81454021
4.016468 -0.35595638 -0.81625915
3.8123901 -0.19603349 -0.81281191
3.6231813 -0.5954982 -0.81428576
3.4409354 -0.43411541 -0.80318671
3.3306441 -0.29552728 -0.80813026
3.1847916 -0.16264769 -0.80509079
3.0171375 -0.49881104 -0.79999417
2.9361081 -0.37266418 -0.80428922
2.8153677 -0.25054982 -0.79805928
2.7511752 -0.14040656 -0.80867934
6.0713487 -1.0111076 1.9015141
6.3378925 -0.80764472 1.8976464
1.0466095 -0.09317036 0.30095989
1.0637559 -0.054801982 0.29401585
7.1284575 -1.1825533 1.9292767
7.4079895 -0.94597936 1.9119372
7.811028 -0.7012555 1.9281757
1.0488031 -0.055279784 0.24738054
8.1444941 -1.3509595 1.8749093
8.0854597 -1.0313431 1.7655787
8.0417995 -0.72508639 1.6684585
2.4064331 -0.12856391 0.47380137
8.1457386 -1.3492668 1.555648
8.0742311 -1.0320591 1.449648
8.0522661 -0.73013902 1.360705
2.3669229 -0.12736452 0.37610468
8.1595745 -1.3522903 1.2446511
8.0797606 -1.0369225 1.1442693
7.5579853 -0.68931025 0.99268985
2.3869205 -0.13057148 0.28987366
7.7000089 -1.2775071 0.88253647
7.6294341 -0.9792648 0.79502898
7.5748763 -0.69391692 0.71367729
2.3251693 -0.12833324 0.19669318
7.6851134 -1.2762762 0.59423912
7.6389532 -0.98292613 0.51304692
7.5925655 -0.6974082 0.43628973
2.3128209 -0.12842101 0.1101293
7.6803374 -1.2779626 0.30740729
7.6390877 -0.98673868 0.23049018
7.5940638 -0.7014221 0.15682048
2.3551769 -0.13176246 0.025732189
7.7117581 -1.2842975 0.022241294
7.6518841 -0.99124306 -0.05265541
7.585443 -0.70369697 -0.12259918
7.5555415 -0.42547944 -0.19406511
7.7126107 -1.2885901 -0.26486525
7.6574173 -0.99481362 -0.33430412
7.632091 -0.71272701 -0.40520927
7.5731492 -0.42832735 -0.47323641
7.7314539 -1.2970097 -0.5534156
7.6692476 -1.0004343 -0.61956376
7.6141119 -0.71225452 -0.68533337
7.5605311 -0.42986414 -0.75212264
7.6362267 -1.2832272 -0.83326101
7.406764 -0.96948087 -0.87487322
6.5023417 -0.60997236 -0.82666451
5.806551 -0.33156267 -0.79431581
7.636004 -1.2896314 -1.1220188
5.0834823 -0.6682716 -0.79181141
4.805913 -0.45269522 -0.79368335
4.6146731 -0.26423192 -0.80612671
4.2682037 -0.72422117 -0.79166925
4.3048558 -0.56797761 -0.83648324
3.9878633 -0.37809643 -0.81090206
3.7808454 -0.21767941 -0.80635613
3.6550667 -0.62379539 -0.82229656
3.470078 -0.45944017 -0.81063199
3.2823203 -0.31154945 -0.79685402
3.1779256 -0.18185379 -0.80362207
3.0149736 -0.51747811 -0.80024725
2.9203744 -0.38888949 -0.80061787
2.8722181 -0.27338237 -0.81463462
2.7885799 -0.15947619 -0.81994629
6.0772696 -1.0504572 1.9053514
6.3356676 -0.84689909 1.8985004
6.5699129 -0.6255157 1.8902924
1.0605124 -0.061161533 0.29321763
7.0934553 -1.2215155 1.9217957
7.4222093 -0.99411684 1.9171455
7.8104444 -0.74954087 1.9291307
1.0999434 -0.064745449 0.2595318
8.1754532 -1.4076921 1.8839891
8.0847921 -1.0817128 1.766849
8.0527954 -0.77591908 1.6716962
7.9700155 -0.47485849 1.5697564
8.1576443 -1.40272 1.5595362
8.0911655 -1.0847218 1.4538561
8.059413 -0.78067398 1.3626966
7.9727612 -0.47809434 1.2673161
8.1579456 -1.4035046 1.2456928
8.0997438 -1.0900455 1.148025
7.5733509 -0.73759449 0.99528372
2.3771563 -0.14467216 0.28879023
7.6988802 -1.32591 0.88332295
7.6331401 -1.0273867 0.79605711
7.5883121 -0.74212676 0.71535879
2.3949535 -0.14693004 0.20266889
7.6958075 -1.3266256 0.59568423
7.6495886 -1.0320473 0.51417685
7.6000662 -0.74515116 0.43697524
2.3119893 -0.14260979 0.1101293
7.6959829 -1.3291456 0.30835414
7.6536903 -1.0364094 0.23111831
7.614491 -0.75045675 0.15733443
2.348336 -0.14583918 0.025666742
7.7155576 -1.3336356 0.022275433
7.6565571 -1.0396554 -0.052730475
7.6148129 -0.75357503 -0.12314627
7.5587749 -0.47220534 -0.19421893
7.723269 -1.3391336 -0.26550844
7.6640382 -1.0435321 -0.3348664
7.6414857 -0.76092851 -0.40594831
7.5614138 -0.47422501 -0.47267601
7.7380915 -1.3469907 -0.55447191
7.6649399 -1.047743 -0.61972344
7.6353669 -0.76153052 -0.68765414
7.6689825 -0.48325577 -0.76319206
7.6154757 -1.3278378 -0.83187008
7.4420037 -1.0205773 -0.87975878
6.4441833 -0.64442903 -0.81975788
5.8044071 -0.36718473 -0.79431581
5.427784 -0.95097935 -0.79838991
7.5905371 -1.0452662 -1.183291
4.8550811 -0.4873991 -0.80228209
4.600184 -0.29173151 -0.80389321
4.2723994 -0.75193137 -0.79328823
4.2147193 -0.58241808 -0.81964761
4.0010705 -0.40413433 -0.8140766
3.7716296 -0.24037646 -0.80469006
3.624253 -0.64144665 -0.81623435
3.5125477 -0.48701185 -0.82123584
3.3151617 -0.33520377 -0.8053112
3.1844909 -0.20184039 -0.80558032
3.0145991 -0.53647637 -0.8010065
2.9227118 -0.40746745 -0.80192906
2.8867636 -0.29265091 -0.81925392
2.7693546 -0.17543103 -0.81459451
6.0848165 -1.0902545 1.909779
6.312314 -0.88323414 1.8930908
6.6099472 -0.67027754 1.9029586
1.0668513 -0.068097398 0.29508018
7.0591955 -1.2602627 1.914573
7.4246039 -1.0408504 1.9193776
7.813427 -0.79824036 1.9310408
2.1349442 -0.13881838 0.50393188
8.1762619 -1.459543 1.8862038
8.1002645 -1.1344175 1.771718
8.0556755 -0.82611465 1.6733149
8.0012197 -0.52600545 1.5765084
8.190484 -1.4601643 1.5674977
8.1204309 -1.1394094 1.4603434
8.0603561 -0.83071744 1.3636923
8.0169802 -0.53013325 1.2748381
8.1647558 -1.4563127 1.2480737
8.1164379 -1.1430384 1.1513636
7.5795317 -0.78517371 0.99671042
7.5446839 -0.50564748 0.91693002
7.6925559 -1.3734738 0.88354766
7.6483617 -1.0772554 0.79831886
7.60045 -0.79042459 0.71694678
7.4842534 -0.50527143 0.63359272
7.7042093 -1.3768032 0.59697723
7.6470637 -1.0795227 0.51444268
7.6072669 -0.79301244 0.43766078
7.5550795 -0.51256979 0.36002165
7.7053871 -1.3795118 0.30906427
7.6620321 -1.0854551 0.23156697
7.6157093 -0.79778922 0.15745778
7.5599551 -0.51608199 0.082661524
7.7229781 -1.3837742 0.022320952
7.6599345 -1.0880219 -0.052798718
7.6249614 -0.801853 -0.12338764
7.5677032 -0.51939762 -0.19452657
7.7385149 -1.3907403 -0.26632091
7.6960645 -1.0960317 -0.33655328
7.6356792 -0.8076964 -0.4058955
7.5981894 -0.52335536 -0.47516674
7.7502961 -1.3981644 -0.5559507
7.6800761 -1.0978578 -0.62148023
7.642436 -0.80962503 -0.68872529
7.5785122 -0.52425933 -0.75449467
7.6013145 -1.3734798 -0.83122814
7.4670625 -1.0707327 -0.8834812
7.4641323 -0.79271197 -0.95010543
5.8089638 -0.40327334 -0.79526305
5.4432693 -0.98815465 -0.80154443
7.5957189 -1.0935111 -1.1851225
4.8784914 -0.52000397 -0.80666262
7.5790009 -0.52735019 -1.3249891
4.3112531 -0.78607231 -0.80138302
7.6281233 -1.1018456 -1.4847482
3.9634326 -0.42491561 -0.80693388
3.7954516 -0.26528734 -0.81010467
3.5645525 -0.65346223 -0.8036769
3.5104578 -0.50869501 -0.8214615
3.3652318 -0.36113957 -0.81799698
3.2083409 -0.2231252 -0.81194466
3.0074451 -0.55426216 -0.79999417
3.0032351 -0.43749565 -0.82474393
2.8514237 -0.30675545 -0.80974358
2.7433388 -0.19069025 -0.807271
6.0761337 -1.1272212 1.9091886
6.3466144 -0.92777294 1.9050491
6.5894613 -0.70907432 1.8982778
1.0692981 -0.074844114 0.29587844
7.0541797 -1.3040802 1.9153467
7.441083 -1.0897564 1.9253299
7.7948661 -0.8447029 1.9276983
2.1427903 -0.15253755 0.50599521
8.1719475 -1.5105704 1.8873111
8.1105576 -1.1866452 1.7755286
8.0679798 -0.87743372 1.6769575
8.0086079 -0.57586432 1.5786307
8.2006979 -1.5139607 1.5712007
8.1288719 -1.1914984 1.4631486
8.0776548 -0.88262296 1.3675095
8.0313082 -0.58059639 1.2776589
8.1741419 -1.5097958 1.2509011
8.1327848 -1.1962771 1.1547021
7.581471 -0.83242357 0.99761826
7.5404491 -0.55185878 0.91680962
7.7015715 -1.4239002 0.88556999
7.6445603 -1.124599 0.79862732
7.6053538 -0.83813578 0.7178809
7.5267253 -0.55455244 0.63746428
7.7162056 -1.4278594 0.59857446
7.6649737 -1.1300622 0.51610434
7.6092043 -0.840442 0.43806067
7.5607572 -0.55958074 0.36044905
7.7193747 -1.4309541 0.30997166
7.6720371 -1.1349345 0.23207544
7.6166329 -0.8451649 0.15758114
7.5716038 -0.56357259 0.082825147
7.7271237 -1.4335066 0.022357935
7.6679516 -1.1372024 -0.052901078
7.6328163 -0.85006255 -0.12359682
7.571352 -0.56634438 -0.19470602
7.7386789 -1.439842 -0.26662558
7.6980886 -1.1445556 -0.33694255
7.6226406 -0.85364377 -0.4054732
7.5828919 -0.56907082 -0.4744195
7.7572598 -1.4486228 -0.55707735
7.6840396 -1.1465794 -0.62235856
7.6551404 -0.85850096 -0.69033188
7.6644592 -0.57747912 -0.76338971
7.59763 -1.4210086 -0.83176309
7.5300932 -1.1269672 -0.8917402
7.4147635 -0.83350903 -0.94445449
7.4829884 -0.56564504 -1.0248975
5.4400215 -1.0220836 -0.80197465
7.5888662 -1.140097 -1.1851225
4.8908973 -0.55169779 -0.80925852
4.6493025 -0.35217896 -0.81317085
4.2763829 -0.80685699 -0.79580665
4.1946321 -0.63219291 -0.8171885
3.9909403 -0.4526509 -0.81308448
3.8376391 -0.29190904 -0.81947607
3.6899652 -0.69988209 -0.83290541
3.5255723 -0.53299206 -0.82574815
3.3330123 -0.37838247 -0.81071442
3.1866086 -0.24126981 -0.80680424
2.9859312 -0.56926268 -0.79518557
2.9785509 -0.45258072 -0.81871241
2.8867798 -0.32848912 -0.82034081
2.7870855 -0.21092261 -0.82050955
6.0794239 -1.1664628 1.9124354
6.3436451 -0.96713096 1.9059032
6.5964479 -0.75079769 1.9015819
1.0553623 -0.08037892 0.29215333
7.0602798 -1.3500613 1.9192163
7.4313827 -1.1349547 1.9245858
7.7876072 -0.89229435 1.9272207
2.1767507 -0.16838518 0.51424891
8.1749773 -1.5630649 1.8901902
8.1108532 -1.2375677 1.7772223
8.065362 -0.92725688 1.6775645
8.0284014 -0.62682641 1.5832607
8.2057333 -1.5670158 1.5739781
8.1311398 -1.2428414 1.4649019
8.0809031 -0.93318802 1.3690031
8.035471 -0.63048267 1.2789125
8.1783228 -1.562521 1.2529845
8.1341009 -1.2475076 1.155954
7.5909944 -0.88064092 0.99956369
7.5487962 -0.59905809 0.9182542
7.7122092 -1.4748623 0.88781708
7.6581635 -1.1746509 0.80078632
7.6089683 -0.88582176 0.71872163
7.5668859 -0.60421497 0.64116758
7.7249274 -1.4785523 0.59994352
7.6864958 -1.1814684 0.51803184
7.6187792 -0.88885081 0.43891764
7.5691295 -0.60692024 0.36101896
7.7359643 -1.4831842 0.3109974
7.6916013 -1.1861011 0.23288302
7.6261983 -0.89362913 0.15788952
7.5899305 -0.61178792 0.083065122
7.7407708 -1.4852264 0.022423368
7.6934414 -1.1892718 -0.053126279
7.6373873 -0.89804828 -0.12375774
7.5846739 -0.61416227 -0.19514184
7.7483454 -1.4908866 -0.26726881
7.6998062 -1.1931455 -0.33733183
7.6400685 -0.90309554 -0.40668735
7.610096 -0.61809254 -0.47634983
7.7658553 -1.4995975 -0.5583449
7.7192135 -1.200292 -0.62579215
7.6566525 -0.90627533 -0.69095671
7.6835833 -0.62635607 -0.76566285
7.5682683 -1.4636357 -0.82951623
7.5416822 -1.1760573 -0.89395034
7.5425081 -0.89476705 -0.96140718
7.5011015 -0.61332548 -1.0278745
5.4608498 -1.0607275 -0.8059895
5.1114416 -0.8000077 -0.79898471
4.8394079 -0.57598299 -0.80130869
4.5891256 -0.37595424 -0.80303413
4.3592119 -0.8502174 -0.81217605
4.1887341 -0.65761423 -0.81681019
3.9783564 -0.47596604 -0.81110042
3.8084819 -0.31320623 -0.81364501
3.614706 -0.70861208 -0.81688386
3.5203109 -0.55431151 -0.82529694
3.2958837 -0.39466587 -0.80225724
3.1812024 -0.26050138 -0.80582511
3.0146546 -0.59393144 -0.80379039
2.9356859 -0.46451396 -0.80769831
2.8369339 -0.3404623 -0.80675453
2.7876515 -0.22817643 -0.82107294
6.0543461 -1.2002136 1.9068272
6.3347511 -1.0055858 1.9050491
6.6041255 -0.79274809 1.9051614
1.0538886 -0.086773887 0.29188725
7.0708199 -1.3971025 1.9243754
7.4300194 -1.1814442 1.9260739
7.746315 -0.93575245 1.9183869
7.9965572 -0.66796726 1.8900883
8.1948881 -1.6190554 1.8970555
8.1378555 -1.2928319 1.7848436
8.071188 -0.97814143 1.6799928
8.0420036 -0.67755872 1.5867331
8.2123547 -1.6205701 1.5771257
8.1408615 -1.2954947 1.4680579
8.0975399 -0.98549408 1.3728201
8.0462141 -0.68102497 1.2812632
8.2035065 -1.6195679 1.2583417
8.1595421 -1.3027023 1.1606836
7.5874166 -0.92744243 0.99982309
7.5657496 -0.64714205 0.92078215
7.7137375 -1.5242747 0.88905299
7.6773324 -1.2258531 0.80356222
7.5974603 -0.93176568 0.71816117
7.5769348 -0.65182883 0.64234591
7.7333164 -1.5294057 0.60131252
7.6889544 -1.230186 0.51869649
7.6220999 -0.93667793 0.43943179
7.5772052 -0.65438342 0.36158884
7.7620039 -1.5376133 0.31241766
7.6999698 -1.2358079 0.23336159
7.6414089 -0.94297719 0.15832125
7.5940032 -0.65903896 0.083152384
7.7442636 -1.5352228 0.022460351
7.7057447 -1.239632 -0.053262763
7.6337175 -0.94513923 -0.12378992
7.5996847 -0.66233855 -0.19562893
7.7890444 -1.5483391 -0.26899531
7.7278481 -1.2460936 -0.33888894
7.6670852 -0.95402622 -0.40842941
7.6220684 -0.66616595 -0.47734609
7.7887897 -1.5536591 -0.56066871
7.7431917 -1.2527279 -0.6283474
7.6726918 -0.95594776 -0.69292045
7.7073522 -0.67592406 -0.76843023
7.5474453 -1.5077089 -0.82823229
7.5500102 -1.2248549 -0.8958115
7.5723157 -0.94545513 -0.96592796
7.4814053 -0.657951 -1.0257094
0 -0 -0
5.0761986 -0.82643288 -0.79425341
4.8269711 -0.60456252 -0.79984856
7.567029 -0.66667897 -1.3248173
4.3548775 -0.8771432 -0.81235594
4.1371331 -0.67554933 -0.80754113
4.0210657 -0.50612056 -0.82042569
3.8084369 -0.33674103 -0.81406146
3.6495218 -0.73871928 -0.82576066
3.5024223 -0.57353973 -0.82191271
3.3049724 -0.41633946 -0.80507624
3.2577772 -0.2869058 -0.82565254
3.0564594 -0.62167358 -0.81593835
2.9489677 -0.48518148 -0.81215638
2.8137858 -0.35521123 -0.80077654
2.7737734 -0.24418299 -0.81741118
6.0393786 -1.2358073 1.9044658
6.32657 -1.0441239 1.9044795
6.5886459 -0.83193064 1.9021326
1.0312518 -0.091283917 0.28576747
7.0564342 -1.4393034 1.9228277
7.4340997 -1.2289077 1.9290501
7.7404275 -0.98326534 1.9183869
8.019453 -0.71945596 1.8965079
8.2086878 -1.6741798 1.9025922
8.1442327 -1.3451294 1.7880189
8.095149 -1.0314841 1.6862659
8.0376949 -0.7268908 1.5867331
8.2147732 -1.6734797 1.5795325
8.1560707 -1.3492782 1.4722658
8.1030788 -1.0366628 1.3748116
8.0527029 -0.73136544 1.282987
8.2234516 -1.675995 1.2629548
8.1807022 -1.3576074 1.1648567
7.5874839 -0.97473848 1.0006012
7.5833855 -0.69554728 0.9234305
7.7217646 -1.5751514 0.89107531
7.6902733 -1.2763573 0.80572122
7.6152992 -0.9814195 0.72040308
7.5846996 -0.69940573 0.64335585
7.7403946 -1.5802183 0.60260552
7.6891356 -1.2786508 0.51922822
7.6379919 -0.98624134 0.44068858
7.5899558 -0.70242882 0.36239615
7.7622132 -1.5872129 0.31281218
7.7050591 -1.2851686 0.23375043
7.6434116 -0.99087459 0.15848573
7.5967865 -0.70627052 0.083228745
7.7699666 -1.5899286 0.022562766
7.722651 -1.2910123 -0.053433366
7.6476049 -0.99453992 -0.12411175
7.6064258 -0.70997876 -0.19591092
7.7901664 -1.5983123 -0.26936767
7.7289248 -1.2949733 -0.33927822
7.6759396 -1.0029933 -0.40922123
7.6188312 -0.71301454 -0.47740835
7.7927885 -1.6042368 -0.56165451
7.7461729 -1.3020332 -0.62922573
7.6814957 -1.0049466 -0.69425935
7.6822534 -0.7212494 -0.76635468
7.5468163 -1.5557975 -0.82919526
7.5619407 -1.2744591 -0.89813799
6.433187 -0.84334725 -0.8212648
7.4782138 -0.70393652 -1.0258447
0 -0 -0
5.0807762 -0.85921216 -0.79577959
4.8251271 -0.63442618 -0.80017298
7.5412183 -0.71106231 -1.3210374
4.3532653 -0.90464824 -0.81307542
4.1454959 -0.70305604 -0.81000024
3.9819324 -0.52603436 -0.81308448
3.7877982 -0.35835248 -0.81010467
3.5799351 -0.74752879 -0.8110382
3.4671431 -0.58962941 -0.81446743
3.3515007 -0.44310811 -0.81705725
3.1565297 -0.29751837 -0.80043989
3.0175543 -0.63306624 -0.80657429
2.9640086 -0.50635439 -0.81713897
2.8478069 -0.37727243 -0.81110215
2.7531173 -0.25939783 -0.81177777
6.0400963 -1.2746165 1.9071224
6.320044 -1.0829234 1.9044795
6.6081953 -0.87562543 1.9092919
6.8932209 -0.65282267 1.9112363
7.0767789 -1.4887395 1.9308243
7.4092331 -1.2715498 1.9245858
7.7602377 -1.0342047 1.9248332
8.0362043 -0.77069312 1.9015518
8.2144842 -1.7279284 1.906357
8.1570187 -1.3987101 1.7926763
8.11973 -1.0852875 1.6927416
8.0389433 -0.77676165 1.5878905
8.2274323 -1.7287028 1.5839763
8.1563711 -1.4007972 1.4738438
8.107316 -1.0878053 1.3766372
8.070673 -0.78295553 1.2865914
8.2304325 -1.7300831 1.2656333
8.1810017 -1.4092907 1.1661086
7.6255808 -1.027233 1.0064375
7.5829268 -0.74245191 0.92391199
7.7284851 -1.6259795 0.89298534
7.6881785 -1.3245332 0.80633807
7.6505737 -1.0337268 0.72432643
7.5901818 -0.74690723 0.64419746
7.7637272 -1.6346676 0.60519147
7.7017932 -1.3293703 0.52062398
7.6604881 -1.0369724 0.44234532
7.6113482 -0.75153863 0.36363089
7.7650385 -1.6374915 0.31332505
7.7167263 -1.3358316 0.23434864
7.660964 -1.0409857 0.15897912
7.6072354 -0.75435024 0.083392367
7.7708278 -1.6398456 0.022594061
7.7392159 -1.3426465 -0.053603973
7.6740518 -1.0459018 -0.12464276
7.6188374 -0.75832075 -0.19634673
7.7880349 -1.6477367 -0.26963851
7.732645 -1.3444263 -0.33979726
7.7013011 -1.0544078 -0.41091049
7.6282163 -0.76113671 -0.4782801
7.7915807 -1.6538864 -0.56228834
7.7488394 -1.3514222 -0.63010406
7.6919603 -1.0543599 -0.69577676
7.6846147 -0.76906687 -0.76704651
7.5342102 -1.6014544 -0.82887423
7.4473367 -1.3021877 -0.88545871
6.4337883 -0.8836146 -0.82201827
7.5171313 -0.75416064 -1.0317987
0 -0 -0
5.0929303 -0.89344484 -0.79852682
4.8925028 -0.67384899 -0.81201661
4.559864 -0.45819449 -0.79925436
4.3408995 -0.92989999 -0.81181628
4.1420712 -0.7286492 -0.81018937
3.9368825 -0.54468125 -0.80455291
3.7475753 -0.37776157 -0.80198276
3.5533292 -0.76475626 -0.80605853
3.4855263 -0.61478442 -0.81965655
3.3756783 -0.46739697 -0.8236351
3.2482228 -0.32628071 -0.82418382
3.0268517 -0.65443194 -0.81011748
2.9427917 -0.52133334 -0.81215638
2.8349528 -0.3932845 -0.80811322
2.7610209 -0.27724442 -0.81459451
6.0274935 -1.3106388 1.9056466
6.3302693 -1.1247004 1.9096045
6.6055546 -0.91655242 1.9101179
6.8699036 -0.69317091 1.9059147
7.0637345 -1.5313151 1.9297925
7.3726783 -1.3118967 1.9171455
7.7527843 -1.0816671 1.9245945
8.042944 -0.82117426 1.9043031
8.2265987 -1.7832569 1.911672
8.1684895 -1.452327 1.797122
8.1197071 -1.1360387 1.6941582
8.0681887 -0.82958579 1.5946428
8.2339573 -1.7828962 1.5873089
8.1825161 -1.4570309 1.4801558
8.1268559 -1.1412331 1.3811182
8.0725937 -0.83317125 1.2876884
8.2370586 -1.78432 1.2683121
8.1819487 -1.4612029 1.1674997
7.6309161 -1.0756642 1.0079939
7.5772414 -0.78886306 0.92379165
7.7746868 -1.6855813 0.89950186
7.6857815 -1.3727314 0.80695492
7.6529598 -1.0819048 0.72516716
7.5904112 -0.793984 0.64461833
7.7671928 -1.6852341 0.60625625
7.7033134 -1.37836 0.52128863
7.6599121 -1.0847968 0.44268811
7.6234813 -0.799999 0.36443824
7.7743735 -1.6893495 0.31411406
7.7241259 -1.38598 0.23482721
7.6732392 -1.0906461 0.15936974
7.614397 -0.80227053 0.083523266
7.785049 -1.6928077 0.022665182
7.7396894 -1.3917009 -0.053665388
7.6763992 -1.0942391 -0.12478758
7.623982 -0.80610591 -0.19660309
7.7865667 -1.697408 -0.26994318
7.7507973 -1.3966311 -0.34096509
7.7075372 -1.1034821 -0.41159675
7.6363049 -0.80929559 -0.47908959
7.7920046 -1.7040076 -0.56306291
7.7423635 -1.3992974 -0.63026381
7.6942191 -1.1028088 -0.69658005
7.677772 -0.81599396 -0.76684886
7.5611496 -1.6557353 -0.83293998
7.5799375 -1.3733573 -0.9022094
6.4223533 -0.92222887 -0.8212648
5.9448652 -0.63328958 -0.81650794
0 -0 -0
7.6650605 -1.3932022 -1.203132
4.8501854 -0.69837153 -0.80568916
7.5191908 -0.80219257 -1.318804
4.3456788 -0.95884919 -0.81379497
4.1394544 -0.75440294 -0.8105678
3.9043653 -0.56461889 -0.79860055
3.763665 -0.40272635 -0.80593961
3.5542886 -0.78781223 -0.80735749
3.4404793 -0.6286301 -0.80995512
3.3669748 -0.48726565 -0.82222557
3.214344 -0.34281212 -0.81610596
0 -0 -0
2.9347918 -0.53850937 -0.81084526
2.8201048 -0.4088769 -0.80458075
2.7821662 -0.29662183 -0.82135463
6.0109468 -1.3457196 1.90299
6.2779956 -1.1551942 1.895938
6.5798273 -0.9541688 1.9043355
6.8597708 -0.73469496 1.9043183
7.0325174 -1.5697873 1.9238595
7.3702064 -1.3581634 1.9186336
7.7354307 -1.1276759 1.9219681
8.046463 -0.87145257 1.9063665
8.243103 -1.8398613 1.9180945
8.1796093 -1.5061373 1.8015678
8.1174288 -1.186547 1.6951699
8.089283 -0.88194698 1.5998514
8.2487612 -1.8391594 1.592308
8.199563 -1.512031 1.4848899
8.1372633 -1.1936532 1.3841053
8.0781298 -0.88386983 1.2894123
8.251049 -1.8404254 1.2721812
8.1854877 -1.5137197 1.1693079
7.6594882 -1.1276656 1.012663
7.5762053 -0.83577675 0.92427319
7.7797146 -1.7367181 0.90129948
7.7026453 -1.4245679 0.80962801
7.6451921 -1.1286967 0.72507375
7.5992622 -0.84207934 0.64579666
7.7722764 -1.7363393 0.60747319
7.7104082 -1.428509 0.5223521
7.6659508 -1.1336753 0.44343078
7.6372914 -0.84885728 0.36534053
7.7677622 -1.7378931 0.3142719
7.7312002 -1.4362694 0.23530577
7.6931047 -1.1416703 0.15992481
7.6341753 -0.85174835 0.083795957
7.8028145 -1.7468795 0.022747684
7.7428012 -1.4413606 -0.053747278
7.6744852 -1.1420559 -0.12486804
7.6397557 -0.85520601 -0.19714145
7.8033099 -1.7512815 -0.27089107
7.7460103 -1.4448956 -0.34113812
7.7045722 -1.1513443 -0.41180792
7.6490488 -0.8581388 -0.48021042
7.8203292 -1.7605498 -0.56587958
7.7591066 -1.451543 -0.63233989
7.7129192 -1.1538303 -0.69890082
7.6745982 -0.86331099 -0.76704651
7.5770354 -1.7080016 -0.83582878
7.5860109 -1.422587 -0.90395421
7.1357403 -1.069396 -0.91331172
5.7518311 -0.64844334 -0.79052693
0 -0 -0
7.6534543 -1.4396598 -1.2026743
4.8633733 -0.73075777 -0.80860955
4.6625566 -0.5263837 -0.81832504
4.2946281 -0.9752574 -0.80534047
4.1202731 -0.77705818 -0.80773026
3.936686 -0.59397542 -0.80594176
3.7514043 -0.42471188 -0.80385703
1.4239432 -0.32479775 -0.32389563
3.4336855 -0.64918566 -0.80927831
3.31971 -0.50124037 -0.81141919
3.2044725 -0.36165863 -0.81414777
0 -0 -0
2.9342763 -0.55704665 -0.81163192
2.8413317 -0.42977124 -0.81137389
2.7793405 -0.31357971 -0.82107294
6.0016451 -1.3823621 1.9026947
6.2858567 -1.1965616 1.9004935
6.5529375 -0.99136031 1.8982778
6.8321457 -0.77416706 1.8979324
7.0171032 -1.6116109 1.9223117
7.3626857 -1.4035419 1.9188815
7.7254853 -1.1746804 1.9212518
8.0612726 -0.92313391 1.911181
8.2468653 -1.8938977 1.9216379
8.1865349 -1.559407 1.8051667
8.1128988 -1.2367749 1.6957769
8.0866432 -0.93190229 1.6004301
8.2804232 -1.8996264 1.6006399
8.1959333 -1.5634209 1.4859418
8.1453819 -1.2459458 1.3867607
8.0902138 -0.93546158 1.292233
8.2550211 -1.8945572 1.2745621
8.1877174 -1.566149 1.1709772
7.660265 -1.1758456 1.0137005
7.6074181 -0.88649923 0.92872715
7.7805333 -1.7870901 0.90264773
7.7162294 -1.4761022 0.81199259
7.6548514 -1.1781601 0.72666174
7.6117668 -0.89077652 0.64731163
7.7779961 -1.7877936 0.6087662
7.7416763 -1.4834915 0.52507722
7.6835179 -1.1844941 0.44485897
7.654757 -0.89838076 0.36643282
7.7803221 -1.7909018 0.31521872
7.732058 -1.485566 0.23560487
7.7067032 -1.1920621 0.16035654
7.6546249 -0.90161598 0.084079571
7.8016939 -1.7969683 0.022776134
7.7465768 -1.4912999 -0.053835992
7.6801777 -1.1911162 -0.12507722
7.6611691 -0.9052338 -0.19783363
7.814815 -1.8043 -0.27166969
7.7683902 -1.4984522 -0.3425222
7.7141366 -1.2012089 -0.4127053
7.6624708 -0.90728611 -0.48139352
7.8220129 -1.811427 -0.56679505
7.7608194 -1.501207 -0.63321829
7.7175035 -1.2029749 -0.69997191
7.6800265 -0.91167557 -0.7681337
7.5635076 -1.7537876 -0.83550787
7.5761642 -1.4689181 -0.90383792
7.5701375 -1.1820341 -0.9698208
7.5875726 -0.90258074 -1.0435714
0 -0 -0
7.6988025 -1.4971581 -1.2112211
4.7642345 -0.74578238 -0.79287213
4.6357622 -0.55218625 -0.81420171
1.3851379 -0.32349783 -0.2601122
4.1086812 -0.80100977 -0.80640614
3.9697604 -0.62390184 -0.81348139
3.8147676 -0.45560944 -0.81801826
1.4390322 -0.33754182 -0.32779279
3.4497166 -0.67416608 -0.81401622
3.379946 -0.53156716 -0.82692403
3.1983421 -0.3808555 -0.81316864
0 -0 -0
2.9326971 -0.57541215 -0.81215638
2.8548024 -0.44974327 -0.81599325
2.7783167 -0.33074096 -0.82135463
5.9958396 -1.4198221 1.9035803
6.2878022 -1.2369587 1.9033407
6.5676227 -1.0348415 1.9043355
6.8502383 -0.81881958 1.9043183
6.9892168 -1.650418 1.9174105
7.3501329 -1.4479431 1.9178895
7.7440295 -1.2261614 1.9276983
8.0786486 -0.97537971 1.9166836
8.2825432 -1.9556686 1.9327111
8.1988678 -1.6139508 1.8100357
8.1351414 -1.2912908 1.7020501
8.0914879 -0.98280483 1.6025522
8.2858267 -1.9544593 1.6039727
8.2055054 -1.6174889 1.4894485
8.146349 -1.2972974 1.3882544
8.1137333 -0.98866844 1.2969342
8.280776 -1.9540305 1.2803656
8.1973839 -1.6201987 1.1737593
7.6529059 -1.222826 1.0137005
7.592968 -0.93207222 0.92764378
7.7839279 -1.8382226 0.90433306
7.7265434 -1.5272781 0.81404877
7.6730385 -1.2292019 0.72909051
7.6190143 -0.93904924 0.64840573
7.7862868 -1.8400712 0.61028731
7.7471099 -1.5338725 0.52607417
7.6938491 -1.234464 0.44588727
7.651083 -0.94557756 0.3665278
7.7808557 -1.8413688 0.31569216
7.7600532 -1.5403764 0.23674148
7.7189856 -1.242505 0.1607677
7.651926 -0.9489361 0.084112301
7.8216596 -1.8521785 0.022867169
7.7510114 -1.5415347 -0.053931531
7.6895056 -1.2409266 -0.12535077
7.6515021 -0.9517312 -0.19773108
7.8181825 -1.8556787 -0.27217746
7.7835445 -1.5509708 -0.34360355
7.7273216 -1.251873 -0.41381389
7.6686444 -0.95576632 -0.48214072
7.8291888 -1.863777 -0.56813306
7.7661242 -1.5517279 -0.63441604
7.7502866 -1.256843 -0.70363158
7.6910744 -0.96087939 -0.7698139
7.7121863 -1.8381999 -0.85316169
7.6108327 -1.5241532 -0.90907252
7.5647006 -1.2287796 -0.97007191
7.5691109 -0.94752032 -1.0418122
0 -0 -0
0 -0 -0
4.7761259 -0.77769709 -0.79563028
4.5619078 -0.57179892 -0.80183148
1.4003443 -0.33612344 -0.26335013
4.1046519 -0.82639903 -0.80659539
3.9755301 -0.64982915 -0.81546545
3.7294126 -0.46864232 -0.80031675
3.6008768 -0.86797196 -0.8214305
3.4846685 -0.7032218 -0.82326639
3.288368 -0.53786111 -0.8053112
3.1892104 -0.39962912 -0.81145507
3.0192823 -0.73079342 -0.8126483
2.9451897 -0.59665328 -0.81661445
2.8833296 -0.47238618 -0.82496023
2.7762351 -0.34778216 -0.82135463
5.9814448 -1.45523 1.9018092
6.2688208 -1.2732271 1.8999242
6.5744314 -1.0772966 1.9081904
6.8747334 -0.86456501 1.9125665
7.0136981 -1.7017007 1.926955
7.3477554 -1.4943669 1.9196255
7.7631888 -1.2780716 1.9343833
8.0898924 -1.0271378 1.9208102
8.2827082 -2.0094414 1.9355903
8.2117968 -1.6688993 1.8151165
8.1483221 -1.3446908 1.7065021
8.110611 -1.0356662 1.6075679
8.2870493 -2.0085039 1.6065648
8.2214727 -1.6731073 1.4941825
8.1508827 -1.3493516 1.3904119
8.1133928 -1.0391877 1.2978746
8.2820845 -2.0080657 1.282449
8.2261 -1.6783853 1.1793236
7.6658001 -1.2731719 1.0164241
7.6284575 -0.98397809 0.93269968
7.7918148 -1.8906354 0.90658009
7.7560115 -1.5826133 0.81816119
7.7007079 -1.2821463 0.73245341
7.6299081 -0.98795617 0.64983654
7.8000426 -1.8939294 0.61226481
7.7561264 -1.5851752 0.52733701
7.7068095 -1.2850977 0.44708696
7.6659389 -0.99520642 0.36752507
7.8092184 -1.8987554 0.31730965
7.7602472 -1.5899684 0.23704058
7.7181191 -1.2909989 0.16091162
7.653892 -0.99690276 0.084199563
7.8305521 -1.9051006 0.022926912
7.7570796 -1.5922821 -0.054040719
7.7241488 -1.2951952 -0.12604269
7.6574135 -1.0002158 -0.19803871
7.8367496 -1.9109551 -0.27322692
7.7699676 -1.5978956 -0.34343055
7.7519917 -1.3047329 -0.41555592
7.6824279 -1.0053924 -0.4833861
7.8437672 -1.9181787 -0.57003427
7.7837925 -1.6049873 -0.63665187
7.748322 -1.305367 -0.70416713
7.6643143 -1.005335 -0.7677384
7.7123513 -1.8883239 -0.85444558
7.5643764 -1.5631857 -0.90465218
7.5814748 -1.2792993 -0.97321135
7.620131 -1.0014335 -1.0496606
0 -0 -0
0 -0 -0
7.6511459 -1.2940773 -1.2758639
4.5993352 -0.6051771 -0.8090474
0 -0 -0
4.1139255 -0.85456479 -0.8094328
3.9357154 -0.66814083 -0.8081243
3.8185861 -0.50366718 -0.82010078
3.5992739 -0.89098859 -0.82229656
3.4545362 -0.71922868 -0.81717479
3.2792561 -0.5570513 -0.80390167
3.2020791 -0.42121348 -0.81537163
3.018497 -0.75023901 -0.81366062
2.9225814 -0.61076534 -0.81136966
2.8813255 -0.49023047 -0.82523191
2.7807081 -0.365686 -0.82332629
5.9835267 -1.4946827 1.9053514
6.235558 -1.3063606 1.8922367
6.5496907 -1.1145521 1.9029586
6.8568759 -0.9050914 1.9091076
6.995625 -1.7428354 1.9248914
7.3488774 -1.5416116 1.9223537
7.7312713 -1.3215911 1.9284146
8.0998402 -1.0789419 1.9247079
8.2844152 -2.063761 1.938912
8.2262726 -1.7244681 1.8206208
8.1640491 -1.3987972 1.711561
8.1196642 -1.0874965 1.6106546
8.290781 -2.0633492 1.6097124
8.2274323 -1.7269599 1.4971631
8.1609163 -1.4025127 1.3935651
8.1166525 -1.0902659 1.2994417
8.2878389 -2.063385 1.2852764
8.2476254 -1.7355573 1.1839139
7.7018151 -1.327765 1.0222604
7.6458869 -1.0339599 0.93558884
7.81285 -1.9465774 0.91040015
7.7627025 -1.633656 0.81990898
7.7034874 -1.3312378 0.73348093
7.637526 -1.03663 0.6510148
7.8143973 -1.9482666 0.61431843
7.7677336 -1.6372633 0.52879924
7.7046819 -1.3333831 0.44742975
7.6577086 -1.0419557 0.36743009
7.8177795 -1.9517188 0.31813812
7.7640371 -1.6404475 0.23745933
7.729754 -1.3417521 0.1613228
7.6753721 -1.0476339 0.084504984
7.8313279 -1.9562628 0.022963896
7.7716208 -1.6450256 -0.054211322
7.7091608 -1.3413655 -0.12593006
7.673912 -1.0502998 -0.19862834
7.8384495 -1.9624026 -0.27370083
7.7785859 -1.6494789 -0.34425235
7.7448235 -1.3524455 -0.4156087
7.6939125 -1.0549524 -0.48450691
7.8589392 -1.9730722 -0.57200599
7.7923236 -1.6566559 -0.63816905
7.7470345 -1.3540856 -0.7047919
7.7122221 -1.0597943 -0.77317423
7.6215496 -1.9157356 -0.84567213
7.5187001 -1.6019126 -0.90034819
7.5725055 -1.3256233 -0.97308576
7.5628028 -1.0411444 -1.0426241
0 -0 -0
1.2728467 -0.2719323 -0.20100531
4.7497001 -0.83335 -0.79287213
4.5623546 -0.62881351 -0.80320591
4.1969247 -1.0620192 -0.79166925
4.1604538 -0.890894 -0.81964761
3.8958266 -0.68598849 -0.8007831
3.8154237 -0.52708811 -0.82010078
3.593739 -0.91305655 -0.82229656
3.4329126 -0.73673218 -0.81311375
3.2441866 -0.57159615 -0.79614925
3.1005025 -0.42722124 -0.79015899
3.0578959 -0.7799843 -0.82555544
2.9159486 -0.62807685 -0.81058294
2.8754201 -0.50739902 -0.82441676
2.7546487 -0.37946773 -0.81628454
5.9622111 -1.5282847 1.9015141
6.2499137 -1.3494524 1.89907
6.5768104 -1.1607343 1.9128714
6.8483286 -0.94675142 1.9083095
6.9707589 -1.7821374 1.9210219
7.3487482 -1.5887214 1.9248338
7.726841 -1.3696823 1.9293694
8.1142769 -1.131579 1.9297519
8.2933273 -2.1201098 1.9440058
8.2422848 -1.7806898 1.8265483
8.1649542 -1.4505775 1.7135847
8.1478205 -1.1422013 1.6175996
8.3036728 -2.1207476 1.6147115
8.2359257 -1.7815729 1.5006697
8.1676903 -1.4553283 1.3962204
8.1303482 -1.1429354 1.3027326
8.2922688 -2.1186056 1.287955
8.258111 -1.790748 1.1869742
7.7110929 -1.3781375 1.024595
7.6502113 -1.0823845 0.93691301
7.8161621 -1.9984177 0.91219777
7.7768345 -1.6865265 0.82247919
7.6951742 -1.3784804 0.73348093
7.6487799 -1.0859948 0.65252984
7.8274117 -2.002604 0.61629593
7.7702169 -1.6876475 0.52966332
7.7130613 -1.3836298 0.44840094
7.6778717 -1.0927229 0.36871234
7.8085613 -2.0003951 0.3182565
7.7811723 -1.6940094 0.23829682
7.7341676 -1.391457 0.16159005
7.6836481 -1.0968289 0.084668614
7.8521118 -2.0127201 0.02306062
7.8073006 -1.702695 -0.054532059
7.719481 -1.3920141 -0.1262358
7.6871152 -1.1001989 -0.19914107
7.8456211 -2.015435 -0.27437791
7.7868629 -1.7012278 -0.34507415
7.7501369 -1.4024309 -0.41634777
7.6922345 -1.1028497 -0.48481825
7.8640733 -2.0257356 -0.57327354
7.7907748 -1.706357 -0.6388877
7.7611213 -1.4056777 -0.70684487
7.756794 -1.1144546 -0.77831358
7.6086884 -1.9622161 -0.84556514
7.6843214 -1.6865553 -0.92140281
7.6159649 -1.3814466 -0.97974128
7.5582333 -1.0878115 -1.0428947
0 -0 -0
0 -0 -0
4.813427 -0.87500834 -0.80439126
4.5554857 -0.65637434 -0.80269051
4.1874728 -1.0870097 -0.79112965
4.1807995 -0.92211562 -0.82475507
3.9060071 -0.71251822 -0.80375922
3.8324463 -0.55342472 -0.8244741
3.4482496 -0.89865166 -0.7902534
3.4568651 -0.76409006 -0.81988215
3.2779107 -0.59829807 -0.8053112
3.158282 -0.45494661 -0.80558032
2.8995574 -0.7585755 -0.78404993
2.8696454 -0.63655293 -0.79878223
2.9120135 -0.53230077 -0.83582926
2.7551174 -0.39677307 -0.81712949
5.9536452 -1.5650822 1.9018092
6.2433872 -1.3881918 1.8996394
6.5478139 -1.1970905 1.9065382
6.829988 -0.9869619 1.9048504
6.9438047 -1.8207097 1.9166366
7.3322425 -1.632309 1.9230977
7.7202015 -1.4174182 1.929847
8.1235542 -1.1837319 1.9336492
8.2839355 -2.1719458 1.9448917
8.2531452 -1.8361115 1.8314174
8.1703482 -1.5033077 1.7166201
8.1445417 -1.1927426 1.6183712
8.303813 -2.1751442 1.6173036
8.26616 -1.8412784 1.508209
8.180912 -1.5095327 1.4000376
8.1456575 -1.1961008 1.3063369
8.3020706 -2.175462 1.2915266
8.2595329 -1.8441905 1.1887826
7.7083411 -1.4265084 1.0253731
7.660121 -1.1317716 0.93895942
7.8277817 -2.0526402 0.91500658
7.7546906 -1.7316114 0.82124549
7.716918 -1.4312998 0.73637676
7.6419725 -1.1329064 0.65252984
7.8275142 -2.053884 0.61728466
7.769453 -1.7374705 0.53032798
7.7211127 -1.4340295 0.44937211
7.6878181 -1.1423086 0.36951965
7.8376966 -2.0591879 0.31995293
7.7852616 -1.7450011 0.23874548
7.7441583 -1.4423649 0.16198066
7.7044659 -1.1480809 0.084974036
7.8589573 -2.0659468 0.02311752
7.8201227 -1.7558253 -0.054695841
7.7334013 -1.4435737 -0.1266059
7.6891179 -1.1486747 -0.19937178
7.8543692 -2.0691381 -0.2751227
7.8094182 -1.7564287 -0.34654474
7.7561088 -1.452716 -0.41713962
7.7090125 -1.1535726 -0.48631269
7.8630686 -2.0770078 -0.57411855
7.8248882 -1.764213 -0.64256084
7.7709503 -1.4567593 -0.7085408
7.7488256 -1.1618809 -0.77821475
7.7512612 -2.0497899 -0.862791
7.7019234 -1.7400209 -0.9247762
7.6375713 -1.4338257 -0.98363405
7.621963 -1.1447631 -1.0526376
0 -0 -0
0 -0 -0
4.7197213 -0.88792461 -0.78962731
4.5581918 -0.68533921 -0.80389321
1.4933875 -0.39745912 -0.28259769
4.0831351 -0.92688334 -0.80659539
3.930455 -0.74192566 -0.80971158
3.7719162 -0.5683319 -0.81218719
2.9144802 -0.77867389 -0.66900903
1.4410714 -0.32781503 -0.34225681
3.2846842 -0.62038404 -0.8078953
3.15639 -0.47446102 -0.80582511
2.8752255 -0.77109003 -0.77873522
0 -0 -0
2.8547926 -0.53996378 -0.82034081
2.7583241 -0.41452625 -0.81881952
5.9522328 -1.6038208 1.9044658
6.2179313 -1.4226259 1.8945144
