# .PCD v0.7 - Point Cloud Data file format
VERSION 0.7
FIELDS x y z
SIZE 4 4 4
TYPE F F F
COUNT 1 1 1
WIDTH 1663
HEIGHT 1
VIEWPOINT 0 0 0 1 0 0 0
POINTS 1663
DATA ascii
0.65989292 -2.6880202 0.41652063
0.71361291 -2.5068181 0.36612168
0.86063373 -2.650017 0.36444452
1.4994425 -4.103632 0.52978981
0.6654672 -2.7127714 0.31582558
0.75842196 -2.6644022 0.28632557
0.88306618 -2.72281 0.26856312
1.4917837 -4.0888691 0.36763191
0.66567832 -2.7154753 0.21326591
0.76375663 -2.6863482 0.18603684
0.8639006 -2.6659353 0.16035946
1.5005461 -4.117126 0.2083386
0.66885102 -2.7321293 0.11105641
0.77306956 -2.7241647 0.084736399
0.87054944 -2.691097 0.058160085
1.5011092 -4.1240396 0.047875617
0.66209579 -2.7061713 0.0079258438
0.77921468 -2.749656 -0.019503519
0.86831075 -2.6878607 -0.045457758
1.5012432 -4.1291161 -0.11267056
0.66338378 -2.7175992 -0.094754316
0.76280642 -2.6955211 -0.12128202
0.85913801 -2.6650307 -0.14802068
1.0765867 -2.9633682 -0.19670445
0 -0 -0
0 -0 -0
0 -0 -0
0 -0 -0
0 -0 -0
0 -0 -0
0 -0 -0
0.27261904 -0.75166678 -0.10920151
0 -0 -0
0 -0 -0
0.24462481 -0.76091313 -0.13141528
0 -0 -0
0 -0 -0
0.21717933 -0.77331358 -0.15473615
0.24012367 -0.74848109 -0.1591249
0.2664361 -0.73570067 -0.16660249
0 -0 -0
0.21591072 -0.7701388 -0.1852293
0.23954448 -0.74694461 -0.18958172
0.27296823 -0.75291657 -0.20219062
0 -0 -0
0.2130363 -0.76208586 -0.21503657
0.2343324 -0.73135078 -0.21683736
0.26165619 -0.72163641 -0.22533733
0.64328444 -2.7009702 0.85777706
0.75533998 -2.7072506 0.83479357
0.84854585 -2.6485577 0.79659373
1.4842134 -4.0995493 1.2034695
0 -0 0
0.75871617 -2.7221041 0.72345579
0.85188061 -2.6658504 0.68808848
1.4858642 -4.1193762 1.0314783
0 -0 0
0 -0 0
0.84943467 -2.6617208 0.57733315
1.4805912 -4.1139784 0.85963315
0.44263485 -1.8513296 0.35863963
0.72315681 -2.5957513 0.47988471
0.82735401 -2.5970685 0.45871311
1.4823548 -4.123848 0.69532353
0 -0 0
0.68946368 -2.4796648 0.36153123
0.840451 -2.6429639 0.36275849
1.4474367 -4.0379949 0.52015942
0.63657647 -2.6655798 0.30987084
0.74046052 -2.6632555 0.2857087
0.86121994 -2.7120452 0.2669751
1.4777474 -4.1289053 0.37040934
0.64992976 -2.7233882 0.21357015
0.74298763 -2.6756017 0.1849734
0.84269547 -2.6559598 0.15944541
1.4782822 -4.1347208 0.20876603
0.64512509 -2.7070217 0.10987286
0.74806356 -2.6989963 0.083809175
0.85130388 -2.6878097 0.057975058
1.4801475 -4.1454148 0.048017424
0.64895386 -2.7247746 0.007968517
0.7492584 -2.7071619 -0.019169135
0.85029447 -2.6883714 -0.045377303
1.4778941 -4.1438994 -0.11282438
0.65039319 -2.7371759 -0.095295966
0.74039757 -2.6789656 -0.12033045
0.84427232 -2.6750135 -0.14828463
1.0583836 -2.969918 -0.19670445
0 -0 -0
0 -0 -0
0 -0 -0
0 -0 -0
0 -0 -0
0 -0 -0
0.23766585 -0.75412685 -0.1000838
0 -0 -0
0 -0 -0
0 -0 -0
0.23935886 -0.7605173 -0.13109079
0.26205927 -0.73698819 -0.13641615
0 -0 -0
0.20983334 -0.76516181 -0.15284452
0.23552656 -0.7499404 -0.1591249
0.26584569 -0.74838144 -0.16910154
0 -0 -0
0.21864067 -0.79869878 -0.1917721
0.2361214 -0.75210994 -0.1905214
0.26054639 -0.73265254 -0.19631584
0 -0 -0
0.20759393 -0.76058584 -0.21424985
0.23329677 -0.74379402 -0.22009808
0.2552942 -0.71780413 -0.22364731
0.63036561 -2.72069 0.862795
0.73644686 -2.70351 0.8322311
0.83745706 -2.6702259 0.80155015
1.4580632 -4.1058536 1.2026712
0 -0 0
0.7358945 -2.7042739 0.71750343
0.83318794 -2.6636128 0.68617845
1.4589372 -4.1238279 1.0303321
0 -0 0
0 -0 0
0.83075058 -2.6594045 0.57571423
1.4592396 -4.134089 0.86194819
0 -0 0
0.56665128 -2.0833416 0.38450387
0 -0 0
1.4596504 -4.1403174 0.69657719
0 -0 0
0.6822778 -2.5134749 0.36584345
0.82598639 -2.6537516 0.36353666
0.98112613 -2.7908969 0.35873067
0 -0 0
0.72749245 -2.6802285 0.28704524
0.83244711 -2.6782973 0.26314515
1.4560152 -4.1482377 0.37133518
0 -0 0
0.72733963 -2.6829991 0.18517278
0.83644998 -2.6934979 0.16138777
1.4677566 -4.186131 0.21090306
0 -0 0
0.72835606 -2.6919575 0.08345025
0.83479571 -2.6929827 0.057975058
1.4755027 -4.2138753 0.048704632
1.6373237 -7.066772 0.02063678
0.72533065 -2.6846783 -0.018978057
0.83555692 -2.6992691 -0.045473851
1.4669609 -4.1944089 -0.11395237
1.138429 -4.9252439 -0.17122807
0.72524697 -2.6882811 -0.12054671
0.83845246 -2.7144921 -0.15018503
1.4148415 -4.0485606 -0.2675654
0 -0 -0
0 -0 -0
0 -0 -0
0 -0 -0
0 -0 -0
0.21447283 -0.79803431 -0.096781611
0.2394667 -0.77642733 -0.10284647
0.26011077 -0.74560058 -0.10784833
0 -0 -0
0 -0 -0
0.23294517 -0.7563135 -0.13011734
0.26045138 -0.74695414 -0.13796243
0 -0 -0
0 -0 -0
0 -0 -0
0.25964001 -0.74538034 -0.16806027
0 -0 -0
0.20568931 -0.7699067 -0.18455245
0.23178755 -0.75447375 -0.19075632
0.25572675 -0.73332196 -0.19607106
0 -0 -0
0.20019104 -0.75158793 -0.21136522
0.23239948 -0.75717163 -0.2236305
0.25309688 -0.72569907 -0.22561902
0 -0 0
0.71024007 -2.6718469 0.82112706
0.82472372 -2.6872613 0.80512965
1.4414018 -4.1393023 1.2098554
0 -0 0
0.71655262 -2.6984391 0.71477532
0.81370229 -2.6584611 0.68355215
1.4371153 -4.1428175 1.032854
0 -0 0
0.62339401 -2.3462961 0.52586305
0.81613475 -2.6700709 0.57692838
1.4380177 -4.1550193 0.86445606
0 -0 0
0.53946173 -2.0325403 0.37450996
0.79599726 -2.608912 0.45904502
1.4345411 -4.1501288 0.69673389
0 -0 0
0.64250153 -2.4257164 0.35248947
0.79408896 -2.6075482 0.35653308
0.95363152 -2.7668309 0.35487852
0 -0 0
0.71026915 -2.681757 0.28673682
0.80875593 -2.6595407 0.26080981
1.4259955 -4.1439023 0.37015685
0 -0 0
0.71086335 -2.6874115 0.18517278
0.8077175 -2.6584592 0.15898839
1.4329515 -4.1686087 0.20957334
0 -0 0
0.71718264 -2.716671 0.084078364
0.80984145 -2.6703084 0.057378862
1.4418272 -4.200151 0.048442833
0 -0 0
0.70986366 -2.692946 -0.019005354
0.8068071 -2.6641531 -0.044798017
1.4207705 -4.1437569 -0.11233731
1.1263719 -5.0130711 -0.17403786
0.71382433 -2.7120037 -0.12141178
0.80618292 -2.6679661 -0.14733443
1.3731526 -4.0080681 -0.26432744
0 -0 -0
0 -0 -0
0 -0 -0
0 -0 -0
0 -0 -0
0 -0 -0
0.23441154 -0.77693224 -0.10272089
0.25553095 -0.74718255 -0.10784833
0 -0 -0
0 -0 -0
0.23057745 -0.76528698 -0.13141528
0.2600055 -0.76065648 -0.14019595
0 -0 -0
0 -0 -0
0.22658807 -0.75371277 -0.1593233
0.25569367 -0.74881065 -0.16847678
0 -0 -0
0.21177104 -0.81263453 -0.19447948
0.22911206 -0.762398 -0.19240078
0.25028145 -0.73212487 -0.19533671
0 -0 -0
0.19460501 -0.74906611 -0.21031626
0.23771149 -0.79176563 -0.23341264
0.24677683 -0.72179085 -0.22392897
0 -0 0
0.69623834 -2.6854339 0.82397425
0.80904865 -2.6950333 0.80595571
1.4128623 -4.1389456 1.2071946
0 -0 0
0 -0 0
0.80071712 -2.6745672 0.68641722
1.4022678 -4.1239114 1.0259759
0.28953415 -1.3192096 0.30672684
0.66954106 -2.58376 0.57815295
0.79833359 -2.6703372 0.57591665
1.3979958 -4.1210213 0.85558194
0 -0 0
0.5003351 -1.9328778 0.35557404
0.77095073 -2.5835087 0.45373434
1.3970062 -4.1233072 0.69077891
0 -0 0
0.66178453 -2.561928 0.37168583
0.775244 -2.6028688 0.35523614
0.9344126 -2.7660465 0.35403588
0 -0 0
0.69355214 -2.6851017 0.286634
0.77965027 -2.6215088 0.25660625
1.3581883 -4.0269961 0.35896295
0 -0 0
0.69884652 -2.7091136 0.18636917
0.78712475 -2.6490099 0.15813145
1.3445213 -3.9908435 0.20021781
0.26884991 -1.2279335 0.04963018
0.70697916 -2.7461882 0.084856041
0.78917724 -2.6608491 0.057070479
0.92148662 -2.7389722 0.031524386
0.26097828 -1.192778 0.0034736022
0.69631416 -2.7088728 -0.019087246
0.78845751 -2.6623425 -0.044685379
0.89062184 -2.6504455 -0.071704112
0.25487784 -1.1678246 -0.040488094
0.6991573 -2.7240741 -0.1217578
0.77678031 -2.6288097 -0.14490613
0.8929866 -2.6596351 -0.17503521
0.22180954 -1.0195544 -0.073657297
0 -0 -0
0 -0 -0
0 -0 -0
0 -0 -0
0 -0 -0
0.22992072 -0.77930748 -0.10284647
0 -0 -0
0 -0 -0
0 -0 -0
0.22448309 -0.76195472 -0.13060407
0.25408167 -0.75850105 -0.13950871
0 -0 -0
0.19910474 -0.78221691 -0.15549281
0.22417042 -0.76261163 -0.16091058
0.25078386 -0.74943793 -0.16826852
0 -0 -0
0.19478658 -0.76670754 -0.18319876
0.22908823 -0.77964342 -0.19639444
0 -0 -0
0 -0 -0
0.19782333 -0.78111655 -0.21897016
0.22851172 -0.77843475 -0.22906503
0.24386753 -0.72784048 -0.22533733
0 -0 0
0.68726397 -2.7193959 0.83308524
0.78924805 -2.6888778 0.80265152
0.89203465 -2.6666002 0.77614868
0.24760762 -1.1622899 0.31728977
0 -0 0
0.79056555 -2.7008655 0.69190854
0.88431692 -2.6539948 0.65891725
0.25847241 -1.2131861 0.28170145
0 -0 0
0.77863669 -2.6639056 0.5734883
0.87127477 -2.6211054 0.54305816
0.26341349 -1.235003 0.23792046
0.47353238 -1.8767266 0.34470344
0.72442782 -2.4831104 0.43531278
0.86756879 -2.6133082 0.43690825
0.25052175 -1.1750633 0.18080477
0.65499842 -2.6014719 0.37683266
0.77117825 -2.6485133 0.36081305
0.89527494 -2.7048144 0.34548894
0.25318855 -1.188589 0.13740829
0.68070632 -2.7037759 0.28817618
0.76910949 -2.6453643 0.2584745
0.87886 -2.6595776 0.2365873
0.2534613 -1.1907873 0.09286651
0.68464357 -2.7230275 0.18703382
0.77085596 -2.6537898 0.15813145
0.87541378 -2.6521006 0.13278203
0.25341707 -1.1924191 0.048131019
0.69133186 -2.755322 0.085005596
0.77450609 -2.6714029 0.057193831
0.88400316 -2.681896 0.030804452
0.26009467 -1.2246805 0.0035617936
0.6799227 -2.7140644 -0.019094069
0.77016062 -2.6604073 -0.044572741
0.87621784 -2.6615577 -0.071857929
0.25081408 -1.1840324 -0.040995888
0.69188416 -2.7661119 -0.12344468
0.76146692 -2.6364045 -0.14506449
0.87322015 -2.6546354 -0.17435026
0.23224121 -1.0999523 -0.079361171
0 -0 -0
0 -0 -0
0 -0 -0
0 -0 -0
0 -0 -0
0 -0 -0
0.24819715 -0.75591016 -0.10866024
0 -0 -0
0 -0 -0
0.22417235 -0.77848929 -0.13319993
0.2518802 -0.76753396 -0.14088318
0 -0 -0
0 -0 -0
0.22246391 -0.77433485 -0.16309309
0.24161051 -0.73702145 -0.16514473
0 -0 -0
0.20435777 -0.82557446 -0.19696124
0.22671483 -0.78944266 -0.19850874
0.24279007 -0.73974723 -0.19656062
0 -0 -0
0.19672547 -0.79730612 -0.22316599
0.21444207 -0.74744529 -0.21955462
0.23700304 -0.72202992 -0.22308397
0 -0 0
0.66712755 -2.7095995 0.82881451
0.77512026 -2.7019866 0.80512965
0.87535572 -2.6711075 0.7758826
0.23929827 -1.1581104 0.31574202
0 -0 0
0.77291012 -2.7019308 0.69095349
0.86741167 -2.6575203 0.65845871
0.25299701 -1.2242991 0.28391609
0.57192707 -2.3241572 0.51845354
0 -0 0
0.86216277 -2.6478612 0.54749525
0.25463617 -1.230822 0.23680954
0.50078291 -2.0373454 0.37363327
0.7345928 -2.576653 0.45091301
0.84632534 -2.6026154 0.43424419
0.2475123 -1.1969142 0.1839298
0.64869529 -2.6448746 0.38253593
0.76468158 -2.6875284 0.36548209
0.87223244 -2.6904256 0.34296098
0.2460918 -1.1910932 0.13752064
0.67784512 -2.7639337 0.29413912
0.7661956 -2.6969624 0.26305175
0.86129725 -2.661128 0.23625064
0.23244138 -1.1259172 0.087694578
0.66768515 -2.726208 0.18696736
0.7741853 -2.7276206 0.16224471
0.86373329 -2.6716785 0.13349438
0.24266656 -1.1773146 0.04746034
0.66895455 -2.7371798 0.084317654
0.77526772 -2.7367067 0.058489017
0.86568749 -2.68156 0.030739002
0.25257528 -1.2262534 0.0035617936
0.66301966 -2.7172136 -0.019087246
0.77123898 -2.7266586 -0.045602579
0.86171091 -2.6725924 -0.072011746
0.24515316 -1.193381 -0.04126671
0.66236544 -2.7188592 -0.12115226
0.74961525 -2.6564045 -0.14590912
0.8575272 -2.6618433 -0.17447479
0.24509527 -1.1971266 -0.086262137
0 -0 -0
0 -0 -0
0 -0 -0
0 -0 -0
0 -0 -0
0 -0 -0
0.24173447 -0.75175947 -0.10784833
0.20474198 -1.005654 -0.14869438
0 -0 -0
0.2201931 -0.78269982 -0.13368665
0 -0 -0
0 -0 -0
0 -0 -0
0 -0 -0
0.23379502 -0.72824621 -0.16285396
0 -0 -0
0.20020142 -0.83060122 -0.1978637
0.2200287 -0.78426778 -0.19686429
0.24151014 -0.75137675 -0.19925323
0 -0 -0
0.19070251 -0.79380667 -0.22185479
0.21738361 -0.77562028 -0.22743466
0 -0 -0
0.22795776 -1.1421592 0.35981771
0.64624345 -2.69593 0.82340485
0.76215845 -2.7196515 0.80898464
0.8586551 -2.6755104 0.77561659
0.23711981 -1.1841879 0.32244894
0 -0 0
0.75840759 -2.7141044 0.69286358
0.85316348 -2.6692827 0.66006362
0.23877823 -1.192362 0.27616489
0 -0 0
0.51348877 -1.8403424 0.39480439
0.84321707 -2.6446879 0.54575902
0.2364542 -1.1793668 0.22662619
0.431907 -1.8048408 0.33050153
0.66162717 -2.3759151 0.41506568
0 -0 0
0.2339457 -1.1673837 0.17916787
0.60140657 -2.5187728 0.36375687
0.74445987 -2.6787951 0.36366636
0.84819901 -2.6720719 0.33995149
0.23273125 -1.1623765 0.13403769
0.65509838 -2.7438533 0.29156891
0.73925096 -2.664197 0.25940862
0.84856486 -2.6777616 0.23726062
0.24235025 -1.2114071 0.094235547
0.6423828 -2.6943417 0.18450813
0.74063218 -2.6717083 0.15864561
0.85094112 -2.6883557 0.13406426
0.24267936 -1.2150365 0.04892005
0.65700507 -2.7616534 0.084945776
0.74699742 -2.6999779 0.057605002
0.84771073 -2.6820543 0.030684464
0.23623878 -1.1836505 0.0034337735
0.63732249 -2.6832874 -0.018821102
0.74198121 -2.6860423 -0.044846293
0.84499502 -2.6768761 -0.071986109
0.23704569 -1.1909419 -0.041131295
0.65005016 -2.7413423 -0.12197407
0 -0 -0
0.83007067 -2.6318369 -0.17217088
0.21523221 -1.0851072 -0.078093641
0 -0 -0
0 -0 -0
0 -0 -0
0 -0 -0
0 -0 -0
0 -0 -0
0.23890229 -0.75889903 -0.10866024
0 -0 -0
0 -0 -0
0.21956865 -0.79926014 -0.1362825
0.23859879 -0.75835079 -0.13864966
0 -0 -0
0 -0 -0
0.21449924 -0.78267819 -0.16428356
0.24691722 -0.78565174 -0.17534913
0.20221654 -1.0348105 -0.2338284
0.1979932 -0.84414423 -0.20079668
0.22214644 -0.81091487 -0.20320718
0.23544011 -0.74822015 -0.19802931
0 -0 -0
0.18758546 -0.80247927 -0.22395271
0.21287443 -0.77786785 -0.2277064
0.22927693 -0.72854495 -0.22421066
0.22330157 -1.1557317 0.363655
0.61052871 -2.6176915 0.79834962
0.73860598 -2.6992409 0.80155015
0.83904409 -2.6706126 0.77268964
0.23113647 -1.19226 0.32425469
0.27254239 -1.1699324 0.3075369
0.73765033 -2.7037175 0.68904346
0.83909416 -2.6818988 0.66189772
0.23628342 -1.2186954 0.28192291
0.39515293 -1.6951867 0.37703788
0.62857026 -2.307394 0.49416319
0.83574331 -2.6779118 0.55154651
0.2312732 -1.1914072 0.22866283
0.40765288 -1.7508841 0.3201569
0.57201022 -2.1039684 0.36693731
0.80403793 -2.5798032 0.42875931
0.22376469 -1.1532649 0.1767869
0.45127496 -1.9426942 0.28015542
0.72774947 -2.6823556 0.36353666
0.83384931 -2.6838622 0.34079412
0.23656237 -1.2203622 0.14055417
0 -0 0
0.72549295 -2.6782928 0.26034278
0.83270878 -2.6848214 0.23742895
0.22827668 -1.1786095 0.091573529
0 -0 0
0.7158795 -2.645364 0.1568175
0.84181917 -2.7173796 0.13525151
0.23123592 -1.1959007 0.048091568
0 -0 0
0.72676718 -2.6909978 0.057317182
0.83626145 -2.703445 0.030869901
0.23940527 -1.2390789 0.0035902425
1.2252594 -5.3031702 -0.037144039
0.72236228 -2.6789596 -0.044653196
0.83858651 -2.7144852 -0.072857738
0.23786424 -1.2345732 -0.042586971
0.97901684 -4.2444744 -0.18858401
0.2832565 -1.0530465 -0.057645712
0 -0 -0
0.23189078 -1.2078812 -0.086825483
0.23738801 -1.031649 -0.084801741
0 -0 -0
0 -0 -0
0 -0 -0
0 -0 -0
0 -0 -0
0 -0 -0
0.20036305 -1.0498919 -0.15486011
0 -0 -0
0 -0 -0
0.23655017 -0.76827419 -0.14019595
0.1989022 -1.0466014 -0.19481432
0.19035029 -0.83281612 -0.16457269
0.20766675 -0.77640486 -0.16269627
0.22857845 -0.74321353 -0.16556123
0.18371247 -0.97175944 -0.21932237
0.18241118 -0.7997517 -0.1899672
0.21992822 -0.82259202 -0.20579131
0.23113003 -0.75057739 -0.19827411
0 -0 -0
0.18116081 -0.79702818 -0.22211705
0.21082911 -0.78938699 -0.23069538
0.23214512 -0.75378025 -0.23153411
0.21357353 -1.1429921 0.35922733
0 -0 0
0.71682107 -2.6842172 0.79576766
0.82944047 -2.6978242 0.77907556
0.22417267 -1.1955551 0.3247706
0 -0 0
0 -0 0
0.82119787 -2.6823435 0.6607514
0.23149723 -1.2344993 0.28524488
0.2765145 -1.2200458 0.27097613
0.61364573 -2.308368 0.49355608
0.81757683 -2.6773589 0.55038899
0.22939882 -1.2217789 0.23421742
0.27670109 -1.2223535 0.2231981
0.52495265 -1.9787619 0.34453273
0.80000478 -2.6234207 0.43518445
0.2216088 -1.1808574 0.18080477
0 -0 0
0.70011181 -2.6445949 0.35783005
0.81303495 -2.6746809 0.33898845
0.22321042 -1.1905379 0.13695888
0.27738512 -1.2283617 0.13015734
0.71184409 -2.6932821 0.2613703
0.81072193 -2.6717632 0.2358298
0.23095435 -1.2329109 0.095680639
0.27412793 -1.2157152 0.083015367
0.6993795 -2.6487415 0.15676038
0.80224174 -2.646975 0.1314998
0.22830173 -1.2208697 0.049038406
0.2729204 -1.2131225 0.037208643
0.7099871 -2.6944396 0.057296626
0.81386507 -2.6893837 0.030651739
0.22849177 -1.2228308 0.0035390344
0.27083835 -1.2059318 -0.0084346924
0.70667404 -2.6862423 -0.044701468
0.81005764 -2.6803455 -0.071806654
0.22863707 -1.2271669 -0.042282298
0.25113419 -1.1201173 -0.049697947
0 -0 -0
0 -0 -0
0.22756994 -1.2259543 -0.088022582
0 -0 -0
0 -0 -0
0 -0 -0
0.20184387 -1.0890588 -0.11919013
0 -0 -0
0.21520969 -0.82150239 -0.10749277
0.24300838 -0.80636054 -0.11502018
0.19822656 -1.0744594 -0.15830146
0 -0 -0
0.2079961 -0.79521197 -0.13514683
0.23154756 -0.76876789 -0.14002414
0.191588 -1.0429646 -0.19391491
0 -0 -0
0.21081692 -0.80801237 -0.1690454
0.22457744 -0.74647534 -0.16597775
0 -0 -0
0.19078147 -0.86077738 -0.2041809
0.20702738 -0.79382819 -0.19827382
0.23351158 -0.77519071 -0.20439367
0.17557493 -0.96613246 -0.25687888
0.18022098 -0.81602836 -0.2270996
0.20622416 -0.79159701 -0.2309671
0.23000669 -0.76345897 -0.23406915
0.21096912 -1.1687275 0.36690187
0 -0 0
0.70542651 -2.7081015 0.80155015
0.808707 -2.6890159 0.77508438
0.2170049 -1.1978587 0.32502857
0.26711753 -1.2138721 0.31820151
0 -0 0
0.8069576 -2.6947913 0.66258556
0.22096267 -1.2195842 0.28147998
0.26460958 -1.2016757 0.26653042
0.60487759 -2.3329451 0.49800801
0.74778068 -2.5036912 0.513735
0.22610772 -1.2463696 0.23866105
0.25397018 -1.1547982 0.21057418
0.51996464 -2.0096316 0.34934554
0.73421133 -2.4617057 0.40760344
0.22600321 -1.246413 0.19062626
0.2582657 -1.1771699 0.16928953
0.6444605 -2.4961894 0.33720845
0.77539164 -2.6082516 0.32995999
0.22068328 -1.2182845 0.13999242
0.24597047 -1.1212219 0.11864263
0.69157755 -2.6831374 0.25996912
0.79006088 -2.6623583 0.23456734
0.21628214 -1.1950582 0.092638336
0.23100854 -1.0546029 0.071915634
0.69431663 -2.6964903 0.15933114
0.78598511 -2.6518478 0.1314998
0.22720136 -1.2576464 0.050458666
0.24370471 -1.1151706 0.034157772
0.69866604 -2.7190802 0.057728354
0.7877003 -2.6617265 0.030280862
0.22045138 -1.2212574 0.0035304998
0.26322067 -1.2065939 -0.0084278677
0.69614089 -2.7137721 -0.045087658
0.78934616 -2.6708851 -0.071422115
0.22411241 -1.2452682 -0.042857796
0.25616115 -1.1763035 -0.052120123
0 -0 -0
0 -0 -0
0.20965733 -1.1693978 -0.08386793
0.23846367 -1.0978004 -0.089992061
0 -0 -0
0 -0 -0
0.20269075 -1.1323611 -0.12379083
0 -0 -0
0 -0 -0
0.23497534 -0.79738212 -0.11353168
0.21280657 -1.1945232 -0.1757949
0 -0 -0
0 -0 -0
0.22988759 -0.78056914 -0.14191402
0.18655917 -1.0518692 -0.19535398
0.18715505 -0.86772496 -0.17100427
0.20851283 -0.81973928 -0.1712279
0.21916485 -0.74502432 -0.16535299
0.17804773 -1.0095141 -0.22733317
0.1883658 -0.87526554 -0.2073395
0 -0 -0
0 -0 -0
0.1721506 -0.98148501 -0.2606751
0.17561516 -0.81900591 -0.22762407
0.19923106 -0.78445262 -0.22852157
0.22992726 -0.7805028 -0.23885758
0.20395793 -1.1709414 0.36719707
0.22738323 -1.0630182 0.32287037
0.69045293 -2.7189012 0.80347759
0.79001671 -2.6865292 0.77295578
0.21098198 -1.2067814 0.3270922
0.25581893 -1.197488 0.31348923
0 -0 0
0.79368949 -2.710902 0.66533679
0.21532284 -1.2314836 0.28391609
0.25682262 -1.2013652 0.26610702
0.38826182 -1.5362207 0.32741851
0 -0 0
0.21404947 -1.2225659 0.2338471
0.25818557 -1.2092893 0.22021745
0 -0 0
0.7080341 -2.4282379 0.40133503
0.21443069 -1.2253727 0.18720362
0.2483563 -1.1661413 0.1674812
0.62719619 -2.492404 0.33617088
0.75771081 -2.6072404 0.3292377
0.21457276 -1.2274463 0.14089124
0.2511026 -1.1791373 0.1246056
0.68383402 -2.7220929 0.26333201
0.765104 -2.6374888 0.23195823
0.20740141 -1.1875228 0.091953814
0.25815102 -1.2141078 0.082683042
0.68383348 -2.7249084 0.16075936
0.76997685 -2.6575801 0.13154729
0.21467541 -1.2314544 0.049354021
0.24930191 -1.1753128 0.0359524
0.67881161 -2.7107081 0.057461094
0.77830011 -2.6905236 0.030553566
0.21707211 -1.2462311 0.0035987771
0.25601932 -1.2091646 -0.0084346924
0.68093139 -2.7238126 -0.045184206
0.77682728 -2.6891241 -0.071781024
0.21390259 -1.2318496 -0.042350002
0.24955842 -1.1807857 -0.052249886
0.68807203 -2.7595394 -0.1503434
0.28090802 -0.97330439 -0.063201971
0.21369852 -1.2355351 -0.08851552
0.21445192 -1.0173118 -0.083284579
0 -0 -0
0 -0 -0
0.19556972 -1.1326035 -0.12368383
0 -0 -0
0 -0 -0
0.22843291 -0.7930963 -0.11271977
0.19893683 -1.1577669 -0.17020273
0 -0 -0
0 -0 -0
0 -0 -0
0.18540837 -1.0840214 -0.20111026
0.1848443 -0.88327384 -0.17384171
0.20795891 -0.83907861 -0.17499769
0.22269726 -0.77455491 -0.17160058
0.17332311 -1.0192497 -0.22928174
0.18916447 -0.90596801 -0.21433353
0 -0 -0
0.230419 -0.80035949 -0.21026845
0.16386706 -0.96916813 -0.25713193
0.17255181 -0.82951581 -0.23024647
0.18979059 -0.76697636 -0.22308706
0 -0 -0
0.20104004 -1.1976117 0.37516677
0.25143349 -1.2117565 0.36757109
0.67791319 -2.7398841 0.80843389
0.77538145 -2.6978111 0.7748183
0.20453663 -1.2137696 0.32863998
0.24944931 -1.203778 0.3147293
0 -0 0
0.77704078 -2.7157209 0.66533679
0.20776254 -1.2327816 0.28391609
0.2474619 -1.1933486 0.26399001
0 -0 0
0 -0 0
0.21030521 -1.2461435 0.2381056
0.2489638 -1.2021743 0.21863946
0.4606781 -1.8750861 0.32494944
0.58432215 -2.0507016 0.33833751
0.20592107 -1.2208149 0.18631077
0.24540322 -1.188009 0.17040236
0.4933846 -2.0127585 0.27106375
0.75254637 -2.6500392 0.33405289
0.20654194 -1.2258002 0.14055417
0.24044232 -1.1640956 0.12285783
0.66924852 -2.7349412 0.2641727
0.76276487 -2.6910269 0.23625064
0.20126963 -1.1956559 0.092486218
0.25029349 -1.2137145 0.082550116
0.67231631 -2.7503889 0.16201618
0.77406156 -2.7343371 0.13510904
0.20479749 -1.2189527 0.048801698
0.2575936 -1.2522073 0.038255509
0.66595685 -2.7303631 0.05779003
0.77292734 -2.7347007 0.031000799
0.20693803 -1.2327465 0.0035561034
0.24799182 -1.2077742 -0.0084142201
0.65923822 -2.7075384 -0.044846293
0.76601481 -2.7140436 -0.072319381
0.20848429 -1.2459532 -0.042790089
0.2431109 -1.1862094 -0.052422896
0.66594261 -2.7423608 -0.14918205
0 -0 -0
0.20939285 -1.2565022 -0.089923881
0.22736947 -1.1123633 -0.090950266
0 -0 -0
0 -0 -0
0.19351141 -1.1632057 -0.12689362
0 -0 -0
0.19491054 -0.80411291 -0.1047301
0.2243674 -0.79734427 -0.11312573
0.19441491 -1.174588 -0.17249696
0 -0 -0
0 -0 -0
0.2202915 -0.78333145 -0.14191402
0.17971277 -1.0909624 -0.20218956
0 -0 -0
0.20418616 -0.84605551 -0.17618816
0.21291515 -0.75801569 -0.16764377
0.17763564 -1.0848453 -0.24378777
0.17877036 -0.88324028 -0.20869318
0 -0 -0
0 -0 -0
0.15589668 -0.95774192 -0.25384185
0.17318058 -0.85893798 -0.23811367
0.19026591 -0.78964525 -0.22933675
0.21929267 -0.77957094 -0.23773089
0.19323067 -1.1959931 0.37428123
0.23227583 -1.1550092 0.3499186
0 -0 0
0.76194036 -2.7136548 0.7780112
0.19863221 -1.2245387 0.33121955
0.23881568 -1.1891396 0.31051308
0.31766057 -1.3228781 0.33449408
0.75669461 -2.7073135 0.66212702
0.20003825 -1.2330706 0.28369462
0.24263841 -1.2073009 0.26674214
0.36915252 -1.5399173 0.32721615
0 -0 0
0.1999761 -1.2309206 0.23495802
0.24177642 -1.2046444 0.21881479
0.40236664 -1.6822252 0.29109362
0.52909362 -1.9010599 0.31310716
0.20286407 -1.2493857 0.19047746
0.23869224 -1.1924055 0.17081968
0 -0 0
0.71292341 -2.5704248 0.32345948
0.19885759 -1.2260635 0.14044182
0.24188498 -1.2084646 0.12738147
0.64299548 -2.6992867 0.26034278
0.73480719 -2.654362 0.23263155
0.20046817 -1.2372233 0.095604584
0.24675205 -1.2347963 0.083879419
0.64941877 -2.7292099 0.16053085
0.7418313 -2.6831956 0.13235462
0.19651672 -1.2152543 0.04860444
0.24091737 -1.2086719 0.036879625
0.64180082 -2.70327 0.057132155
0.74735302 -2.707583 0.030640829
0.20064612 -1.2418907 0.0035788626
0.24291776 -1.221042 -0.0084961094
1.2093662 -5.1029735 -0.084398568
0.74058145 -2.6868894 -0.07147339
0.19749868 -1.226488 -0.042079177
0.24069233 -1.2121773 -0.053504232
0.65461582 -2.7697191 -0.15044898
0 -0 -0
0.19883637 -1.2400343 -0.088656351
0.23312555 -1.1772959 -0.096140586
0 -0 -0
0 -0 -0
0.19532757 -1.2203317 -0.13299222
0 -0 -0
0 -0 -0
0 -0 -0
0.18518113 -1.163053 -0.1706329
0.19348894 -0.98225635 -0.15460773
0 -0 -0
0.21730703 -0.79131812 -0.1431167
0.17316929 -1.093016 -0.20236944
0 -0 -0
0.19899102 -0.84729242 -0.17618816
0.21524516 -0.78477526 -0.17326659
0.16581313 -1.0531251 -0.23642649
0.18534131 -0.94550598 -0.22313248
0 -0 -0
0 -0 -0
0 -0 -0
0 -0 -0
0.18409903 -0.78517604 -0.2277064
0.21399689 -0.77905136 -0.23716755
0.18544878 -1.1943239 0.37339574
0.23654445 -1.2147506 0.36757109
0.26836002 -1.1446867 0.33675566
0.73813868 -2.6922488 0.7705611
0.19022179 -1.2200067 0.32967183
0.22966559 -1.1810731 0.30803296
0 -0 0
0.66472918 -2.435832 0.59472209
0.19772723 -1.2679982 0.29144585
0.23727952 -1.2193197 0.2690708
0.33144605 -1.421032 0.30151644
0.46041375 -1.6919049 0.34474066
0.19423912 -1.2437757 0.23717983
0.23832422 -1.2264004 0.22249678
0.35672247 -1.5329084 0.26487198
0.52725977 -1.9404877 0.31906211
0.19077179 -1.2222729 0.18616195
0.22892191 -1.1812091 0.16901132
0 -0 0
0.70492166 -2.6034977 0.32707089
0.19163701 -1.2292243 0.14066654
0.23730399 -1.2245741 0.12892362
0 -0 0
0.71642685 -2.6511252 0.23195823
0.18934384 -1.2157699 0.093855262
0.22855787 -1.1814281 0.080157354
1.7460077 -7.5428915 0.44303086
0.71988797 -2.6674449 0.13135733
0.18967018 -1.2203866 0.048762247
0.23292844 -1.207183 0.036789894
1.6879773 -7.3090324 0.15425065
0.7244823 -2.6889455 0.030379036
0.19378942 -1.2480391 0.003593087
0.23693377 -1.2303652 -0.0085507035
1.1814011 -5.1249127 -0.084639929
0.72278255 -2.6865563 -0.07134521
0.19058071 -1.2316275 -0.042214591
0.22797032 -1.1861603 -0.05229314
0.24810815 -1.0793036 -0.058543131
0 -0 -0
0.18788245 -1.2195417 -0.087107159
0.21032473 -1.097448 -0.089512952
0 -0 -0
0 -0 -0
0.18874277 -1.2274034 -0.13363418
0.20442596 -1.0691923 -0.12749116
0 -0 -0
0.21738911 -0.8105644 -0.11461423
0.18252972 -1.1935161 -0.17493457
0.20244756 -1.0620604 -0.16697025
0 -0 -0
0.21474285 -0.80120051 -0.14466298
0.16645941 -1.094058 -0.20236944
0.18616228 -0.97913444 -0.19200148
0.19793475 -0.86665225 -0.17995796
0.21548414 -0.80497742 -0.17743167
0.16197477 -1.0714984 -0.24032363
0.18262237 -0.96289706 -0.22696793
0.19382839 -0.84908223 -0.21048974
0 -0 -0
0.14528157 -0.96723664 -0.25586653
0.17265691 -0.91409969 -0.25279909
0.18141717 -0.79567385 -0.23042366
0.21070351 -0.78591043 -0.23885758
0.17727222 -1.1897693 0.37162468
0.22376296 -1.1879179 0.35902956
0 -0 0
0.72409719 -2.7060392 0.77322185
0.1825894 -1.2201954 0.32941386
0.22062357 -1.1729394 0.30555281
0.29387322 -1.2935334 0.32613769
0.37849018 -1.4212165 0.34642449
0.18200485 -1.216144 0.27926534
0.22690071 -1.2053852 0.26568362
0.3517437 -1.5510168 0.32863268
0.49182785 -1.8521239 0.37676471
0.18354474 -1.2245352 0.23329166
0.22861223 -1.2162288 0.22039279
0.27919722 -1.234018 0.21292654
0.52445537 -1.9780542 0.32470369
0.18546593 -1.2380897 0.1883941
0.22586605 -1.204978 0.17221072
0 -0 0
0.64836335 -2.4542062 0.30781019
0.18453214 -1.2333252 0.14100361
0.22831973 -1.2181857 0.12810114
0.27088639 -1.2024519 0.11564562
0.71030819 -2.6940122 0.23532483
0.17952219 -1.2011303 0.092638336
0.22864458 -1.222039 0.082815968
0.27046043 -1.2019308 0.07049647
0.69740313 -2.6486292 0.13021757
0.18232585 -1.2225158 0.048801698
0.22533359 -1.207607 0.036759984
0.27308324 -1.2164611 0.025636489
0.70644432 -2.6875377 0.030313587
0.18745428 -1.2581065 0.0036186911
0.2284646 -1.2268804 -0.0085165827
0.27436617 -1.2244756 -0.02019451
0.70831478 -2.6986761 -0.071550295
0.18536828 -1.2485911 -0.042756237
0.2276243 -1.2248621 -0.053936761
0.25541678 -1.1431786 -0.061921638
0 -0 -0
0.1815626 -1.2285658 -0.087670498
0.21829753 -1.1781077 -0.095980875
0 -0 -0
0 -0 -0
0.18323916 -1.2423091 -0.13513207
0.2092351 -1.1319565 -0.13481958
0 -0 -0
0 -0 -0
0.17936766 -1.2230103 -0.17909285
0.19324067 -1.0487036 -0.16468088
0.1899482 -0.8533774 -0.1437456
0.21331148 -0.81584632 -0.14706829
0.16315112 -1.1184201 -0.20668666
0.18228078 -0.99184752 -0.19427143
0.19558643 -0.88124615 -0.1827357
0.21523599 -0.824265 -0.18138847
0.15553713 -1.0734383 -0.24054015
0.17846727 -0.97358197 -0.22922407
0 -0 -0
0 -0 -0
0.13796571 -0.95853406 -0.25333568
0.17207006 -0.94267213 -0.26040405
0.17861333 -0.8061679 -0.23314092
0 -0 -0
0.1702386 -1.1927263 0.37221503
0.21715648 -1.1930411 0.36016846
0.25262934 -1.140385 0.33455285
0.7067492 -2.707633 0.77242362
0.17660728 -1.231813 0.33225143
0.22087139 -1.2152562 0.31621739
0.25327682 -1.147385 0.28889209
0 -0 0
0.1764771 -1.230752 0.28236586
0.22387284 -1.2307937 0.27097613
0.27858073 -1.2643219 0.26751995
0.48906446 -1.8883525 0.38351676
0.17546885 -1.2217474 0.23255104
0.21797854 -1.2001728 0.2172368
0.26759773 -1.2174082 0.20977329
0.52046776 -2.0127892 0.32987514
0.17744417 -1.2362679 0.18794768
0.22040936 -1.21706 0.17374086
0.26885262 -1.2261788 0.16419458
0.62462395 -2.4244914 0.30359688
0.17541006 -1.2236146 0.13976771
0.21605533 -1.1931366 0.12532528
0.26222613 -1.1982559 0.11508514
0.69971973 -2.7214813 0.23734479
0.17539957 -1.2249111 0.094387658
0.22309428 -1.2342197 0.083547093
0.26435956 -1.2094196 0.070839234
0.69206828 -2.6954281 0.13230713
0.17651713 -1.2354816 0.049275119
0.2179196 -1.2089669 0.036759984
0.25581592 -1.1731794 0.024690798
0.70061618 -2.7334728 0.030782634
0.17874207 -1.2523034 0.0035987771
0.22199449 -1.2341642 -0.0085575273
0.26387095 -1.212458 -0.019969231
0.69669962 -2.7223406 -0.072063014
0.17840707 -1.2546523 -0.042925499
0.22222248 -1.2380359 -0.054455798
0.24691519 -1.1378928 -0.061552107
0 -0 -0
0.17751525 -1.2543488 -0.089430951
0.22230273 -1.242223 -0.10109134
0 -0 -0
0 -0 -0
0.17561305 -1.24341 -0.13513207
0.2103142 -1.1781957 -0.14017048
0 -0 -0
0 -0 -0
0.17144725 -1.2211477 -0.17866269
0.18957232 -1.0654377 -0.16712287
0 -0 -0
0 -0 -0
0.15750973 -1.1281683 -0.20830563
0.18374011 -1.0354884 -0.20259465
0.18604575 -0.86326718 -0.17876749
0.20510699 -0.80566543 -0.17701516
0.14948396 -1.0782405 -0.24140617
0.17656471 -0.99768215 -0.23463883
0.18482701 -0.85804844 -0.2121342
0 -0 -0
0.12970656 -0.94211131 -0.24878021
0.16812469 -0.95416421 -0.26328868
0.1732586 -0.80536699 -0.23259747
0.19796129 -0.77634996 -0.23519585
0.1581367 -1.1587217 0.36129358
0.20468991 -1.1650823 0.35134217
0.25007489 -1.1625903 0.34061062
0.70058221 -2.7530224 0.78413099
0.16812696 -1.2261729 0.33044568
0.21240628 -1.2108634 0.3147293
0.25192976 -1.175504 0.2955772
0 -0 0
0.16892202 -1.2318118 0.28236586
0.21124668 -1.2032657 0.2646251
0.25914106 -1.2114217 0.25598544
0.4126212 -1.6344486 0.33142948
0.17037624 -1.2403253 0.23588377
0.21316007 -1.2160336 0.2198668
0.24201299 -1.1341583 0.19516881
0.47865918 -1.8991064 0.31075647
0.1712001 -1.2471302 0.18943578
0.21191454 -1.2125365 0.17290623
0.25946614 -1.219077 0.16302733
0.63076955 -2.5120454 0.3140699
0.16816872 -1.2266366 0.13999242
0.21215492 -1.2140368 0.12738147
0.24928322 -1.173547 0.11256298
0.68373442 -2.7286232 0.23759729
0.16774507 -1.2249763 0.094311602
0.21363106 -1.2247528 0.082815968
0.24553747 -1.1573044 0.067697175
0.68521523 -2.7383838 0.13420673
0.16906828 -1.2375314 0.049314566
0.21238144 -1.2211137 0.037088998
0.25378773 -1.19918 0.025204759
0.67631876 -2.7076461 0.030444484
0.17430001 -1.2771559 0.003667054
0.21356268 -1.2305769 -0.0085234065
0.25559998 -1.2101412 -0.019904867
0.68022442 -2.7275341 -0.072088651
0.16760893 -1.232946 -0.042146884
0.21189433 -1.2236255 -0.053763747
0.25206903 -1.1970398 -0.064666666
0.24537559 -0.98492116 -0.063326508
0.17075136 -1.2623339 -0.089923881
0.21179372 -1.2268651 -0.099733874
0 -0 -0
0 -0 -0
0.16917734 -1.2533321 -0.13609502
0.20223831 -1.17457 -0.13958886
0 -0 -0
0 -0 -0
0.16329329 -1.2172723 -0.17794573
0.1932276 -1.1259975 -0.17643291
0 -0 -0
0 -0 -0
0.1477236 -1.1076622 -0.20434816
0.1753955 -1.0249817 -0.20032467
0.18816774 -0.89988917 -0.18610865
0.19804032 -0.79836506 -0.17514087
0.14440277 -1.0907515 -0.24400428
0.1727341 -1.0121914 -0.23779741
0 -0 -0
0 -0 -0
0.1319917 -1.0042779 -0.26497748
0.16598415 -0.97705936 -0.26932019
0.17126313 -0.82054603 -0.23667337
0.19342533 -0.77848125 -0.23547752
0.15386181 -1.1814613 0.36808261
0.19449574 -1.1483585 0.34593251
0.24372223 -1.1678671 0.341712
0 -0 0
0.15984792 -1.2214336 0.32889795
0.20384189 -1.2054576 0.31299323
0.25439799 -1.2236145 0.30727616
0.3536649 -1.4336127 0.34780011
0.16211993 -1.2386265 0.28369462
0.20695829 -1.2228483 0.2686474
0.25210097 -1.2149067 0.25639015
0.38407233 -1.5616767 0.31618911
0.16531768 -1.2608348 0.23958682
0.20733492 -1.227026 0.22162011
0.23924668 -1.1559008 0.19865397
0.46676201 -1.9010485 0.31059977
0.16174603 -1.2344304 0.18735243
0.20364808 -1.2089313 0.17221072
0.25218159 -1.2216171 0.16315702
0.64907116 -2.6537638 0.33128417
0.16489355 -1.2601594 0.14370008
0.20387566 -1.2104113 0.12686743
0.24348404 -1.1818805 0.11321687
0.66178119 -2.7114704 0.23574565
0.16074246 -1.2299373 0.094615832
0.20594667 -1.2250565 0.082749501
0.24748613 -1.2027938 0.070267946
0.65704703 -2.6959543 0.13192721
0.16250516 -1.2464722 0.04963018
0.20686759 -1.2342235 0.037447926
0.2516509 -1.2261784 0.025739282
0.65756494 -2.7030005 0.030346312
0.16491058 -1.2663019 0.0036329157
0.20600799 -1.2318641 -0.0085234065
0.2493736 -1.2175639 -0.020001413
0.66158825 -2.7238853 -0.071883567
0.1626115 -1.2537738 -0.042823944
0.20931511 -1.2544658 -0.05506134
0.2475162 -1.2122619 -0.065405719
0.24968199 -1.0290847 -0.066066295
0.16185379 -1.2544539 -0.089290112
0.20802327 -1.2507573 -0.10157045
0.20865478 -1.0227497 -0.09354382
0 -0 -0
0.16376899 -1.2720968 -0.13802089
0.19584009 -1.1806879 -0.14017048
0 -0 -0
0.20419113 -0.84358209 -0.11853844
0.15946244 -1.2467197 -0.18210402
0.17970692 -1.0871848 -0.17017534
0 -0 -0
0.19941632 -0.82442206 -0.14792734
0.1515929 -1.1924695 -0.21981817
0.17996141 -1.0919222 -0.21318784
0 -0 -0
0.20140542 -0.83379149 -0.18263799
0.14430556 -1.1439217 -0.2556957
0.16288641 -0.99112183 -0.23260827
0.19879517 -0.9812398 -0.24196924
0 -0 -0
0.13039386 -1.0415471 -0.27459463
0.15764922 -0.96377426 -0.26538661
0.16450754 -0.81309205 -0.23422782
0.19360936 -0.8001706 -0.24167429
0.14414063 -1.1624714 0.36188394
0.19176562 -1.1760215 0.35390463
0.23693296 -1.1712251 0.34226272
0.30045408 -1.2443691 0.35335121
0.15330626 -1.2300613 0.33096161
0.19815375 -1.2172034 0.31572136
0.24535058 -1.2175368 0.30536613
0.29780418 -1.2398418 0.30034155
0.15379308 -1.2337919 0.28236586
0.19835094 -1.2173429 0.26716551
0.24560714 -1.2212312 0.25740194
0.378824 -1.5821346 0.31985453
0.15952665 -1.2774276 0.24254926
0.19806333 -1.217586 0.21969146
0.2420408 -1.2066575 0.20711793
0 -0 0
0.155883 -1.2491372 0.18943578
0.20003046 -1.2336185 0.17554922
0.24409765 -1.2202246 0.16276793
0.63438529 -2.6644566 0.3321268
0.15617524 -1.2532591 0.14280125
0.19469374 -1.2008388 0.1257365
0.23837155 -1.1940923 0.11424442
0.57419229 -2.4168837 0.20982288
0.15220752 -1.2229847 0.094007373
0.19539781 -1.2075826 0.081486665
0.24459097 -1.226809 0.0715819
0.60383373 -2.5454032 0.1243763
0.15657723 -1.2613285 0.050182506
0.20040488 -1.2423772 0.037657298
0.2433425 -1.2237771 0.025657047
1.7328235 -7.3181992 0.082039759
0.15603013 -1.2583582 0.0036073115
0.19749223 -1.2271813 -0.0084824618
0.24442799 -1.2318208 -0.0202106
1.2297001 -5.2018704 -0.13707611
0.15687482 -1.2706183 -0.04336559
0.19876315 -1.2379708 -0.054282788
0.24007325 -1.2137579 -0.065405719
0 -0 -0
0.15415357 -1.2554234 -0.089290112
0.19609223 -1.2254344 -0.099414468
0.2058513 -1.0415987 -0.095150486
0 -0 -0
0.15583956 -1.2720908 -0.1379139
0.18984389 -1.1897138 -0.14110108
0.2026556 -1.0268419 -0.13248232
0 -0 -0
0.15408087 -1.2663406 -0.1848284
0.18265425 -1.1487806 -0.17963801
0.20498778 -1.0407625 -0.17440917
0.200223 -0.85056204 -0.15239435
0.14746089 -1.2197449 -0.22467506
0.17125958 -1.080398 -0.2107287
0 -0 -0
0.20165713 -0.85786253 -0.18763606
0.13623767 -1.1360615 -0.25374711
0.16106038 -1.0190462 -0.23892547
0.19351926 -0.98625636 -0.24290892
0 -0 -0
0.12960063 -1.0894004 -0.28699568
0.14648497 -0.93135846 -0.25620821
0.17598508 -0.89813912 -0.25841144
0.18935575 -0.80414546 -0.24251932
0.13890487 -1.1794649 0.36690187
0.19211796 -1.2254753 0.36842525
0.22789371 -1.1632227 0.33950919
0.26966149 -1.1476576 0.32541305
0.14598307 -1.2328978 0.33147752
0.19217931 -1.2279675 0.31820151
0.23210976 -1.189473 0.29796475
0.32851398 -1.4056188 0.34000495
0.14759596 -1.2463331 0.28502342
0.19057523 -1.2166059 0.26674214
0.23885794 -1.2265601 0.25821137
0.41163009 -1.7669539 0.35670146
0.14879075 -1.2539858 0.23792046
0.18891549 -1.2080789 0.21776281
0.23670042 -1.2187685 0.20894349
0.29037875 -1.2486428 0.20340995
0.1474005 -1.2431962 0.1883941
0.19062732 -1.223081 0.17387995
0.23321234 -1.204177 0.16043341
0 -0 0
0.14591235 -1.2324847 0.14032948
0.18793455 -1.2059423 0.12614776
0.23387395 -1.2101955 0.11564562
0 -0 0
0.14879806 -1.2585528 0.096669391
0.18859786 -1.2127025 0.081752524
0.23819397 -1.2341684 0.071924672
0 -0 0
0.14462261 -1.2265409 0.048762247
0.1886438 -1.2169141 0.036849719
0.23507312 -1.22132 0.025574813
1.67128 -7.2565861 0.081232563
0.15263359 -1.2960379 0.0037125724
0.19423769 -1.2560405 -0.0086735385
0.23497921 -1.2234782 -0.020049687
1.1890227 -5.1713223 -0.1360763
0.14942463 -1.2745348 -0.043467149
0.18979245 -1.2302806 -0.053893507
0.23449874 -1.225016 -0.065933608
0.26496062 -1.153663 -0.07384979
0.14667852 -1.2583274 -0.089430951
0.18660043 -1.2138066 -0.098376416
0.22415443 -1.1719745 -0.10693272
0 -0 -0
0.14734219 -1.2670975 -0.13727194
0.18735594 -1.222272 -0.14482345
0.22296563 -1.1674153 -0.15043963
0.19493 -0.8508532 -0.11921503
0.1429027 -1.2377682 -0.18052675
0.1788843 -1.1713727 -0.18299572
0.20247751 -1.0623561 -0.17781623
0 -0 -0
0.14154287 -1.2343086 -0.22719343
0.1724595 -1.1328788 -0.2207544
0.19480172 -1.0254886 -0.21130674
0.19529974 -0.85431635 -0.1865948
0.13510992 -1.1882877 -0.26522201
0.16766843 -1.1047758 -0.25877956
0.19761686 -1.0409027 -0.25606453
0 -0 -0
0.12735772 -1.1295906 -0.29737207
0.14278464 -0.94559836 -0.25987956
0.16814058 -0.88691008 -0.254879
0 -0 -0
0.13907997 -1.2467638 0.38756412
0.17731959 -1.1782862 0.35390463
0.22737639 -1.1995466 0.34969723
0.26626492 -1.165266 0.32993636
0.13830768 -1.23281 0.33121955
0.18377753 -1.2233754 0.31671342
0.23165199 -1.2271354 0.30703738
0.29637179 -1.3041494 0.31501472
0.13994582 -1.2472153 0.28502342
0.18252538 -1.2138864 0.26589531
0.23023969 -1.2222284 0.25699723
0.35114357 -1.5502992 0.31252372
0.14328964 -1.2744063 0.24162349
0.18193769 -1.212136 0.21828879
0.22084282 -1.1756157 0.20130934
0.28336519 -1.253291 0.20388009
0.14219847 -1.2656964 0.19166794
0.18136111 -1.2124751 0.17221072
0.22892267 -1.2221535 0.16263823
0.27803254 -1.2348142 0.15348376
0.14011948 -1.2491564 0.14212714
0.18156141 -1.213959 0.12686743
0.22479774 -1.2027997 0.1148049
0.26274437 -1.1695824 0.10125028
0.14096195 -1.2584513 0.096593335
0.18203698 -1.2197582 0.082151316
0.2311663 -1.238551 0.072096065
0.26058888 -1.1617887 0.056608073
0.14075425 -1.2601757 0.05006415
0.18514392 -1.2447429 0.037657298
0.22355017 -1.2011154 0.025122523
0.26234648 -1.1719232 0.013100618
0.14412406 -1.291981 0.0036983478
0.18520632 -1.2483063 -0.0086121215
0.2272851 -1.2239139 -0.020033596
0.26489875 -1.1853622 -0.031147836
0.14292479 -1.2873476 -0.043873381
0.1812162 -1.224504 -0.053590737
0.22770466 -1.2303596 -0.066144764
0.2439611 -1.0929255 -0.069864638
0.14114308 -1.2790337 -0.090839311
0.18074867 -1.2257763 -0.099254765
0.22040002 -1.1919365 -0.10862864
0 -0 -0
0.14032611 -1.2748957 -0.13802089
0.18187514 -1.2371558 -0.14645198
0.21615855 -1.1707126 -0.15069078
0 -0 -0
0.13885173 -1.2710875 -0.18525858
0.17197993 -1.174404 -0.18330099
0.18630047 -1.0111759 -0.16905521
0 -0 -0
0.13523948 -1.2468894 -0.22935204
0.17061059 -1.1688951 -0.22756431
0.18390375 -1.0016005 -0.20614807
0.19238734 -0.86600143 -0.18888558
0.13073769 -1.2162737 -0.27128425
0.15022621 -1.0325148 -0.24163286
0.17789307 -0.96943587 -0.23821048
0 -0 -0
0.12196162 -1.1447809 -0.30116832
0 -0 -0
0.16425648 -0.89644462 -0.25732455
0.18009873 -0.80921835 -0.24336432
0.13112706 -1.2447431 0.38667858
0.1722758 -1.1945328 0.35846013
0.2239963 -1.2226682 0.35603034
0 -0 0
0.13308263 -1.2557334 0.33715263
0.17902823 -1.2436576 0.32167369
0.22742932 -1.2466848 0.31157371
0.27745074 -1.256519 0.30309275
0.13383226 -1.2625965 0.28834537
0.17437674 -1.2101468 0.26483682
0.22168359 -1.2178372 0.25578305
0.25474221 -1.1576104 0.23304237
0.13588256 -1.2791703 0.24236409
0.17659912 -1.2278469 0.22091879
0.21626692 -1.1915028 0.20379873
0 -0 0
0.13516022 -1.2734284 0.19270962
0.17560388 -1.2253281 0.17387995
0.22141936 -1.2235352 0.16263823
0 -0 0
0.13517448 -1.2756841 0.14504832
0 -0 0
0 -0 0
0 -0 0
0.13544071 -1.2801154 0.098190546
0 -0 0
0 -0 0
0 -0 0
0.13941346 -1.3216319 0.052470699
0 -0 0
0 -0 0
0 -0 0
0.14069878 -1.3356042 0.0038206778
0 -0 -0
0 -0 -0
0 -0 -0
0.13804443 -1.3170258 -0.044855118
0 -0 -0
0 -0 -0
0 -0 -0
0.13535896 -1.2997186 -0.092247672
0 -0 -0
0 -0 -0
0 -0 -0
0.13373342 -1.2875999 -0.1393048
0 -0 -0
0.213673 -1.1983873 -0.15408133
0.19766572 -0.9141919 -0.12774006
0.13267279 -1.2876669 -0.18755281
0.16600543 -1.1842456 -0.18467459
0.19512902 -1.0968202 -0.18317018
0.19410293 -0.89839733 -0.16029756
0.12818655 -1.2535672 -0.23043133
0.16275591 -1.1650574 -0.22661848
0.18990143 -1.0712301 -0.22023518
0.19305132 -0.89489192 -0.19492492
0.12455128 -1.2296799 -0.27409884
0.15275502 -1.0971011 -0.2565234
0.17431532 -0.98390865 -0.24149938
0 -0 -0
0.11406583 -1.1368442 -0.29889059
0 -0 -0
0.1662966 -0.9400804 -0.2695522
0.17513005 -0.81030816 -0.24336432
0.12207302 -1.2312626 0.38225096
0.16703922 -1.2107612 0.36301562
0.2091229 -1.1823668 0.34391484
0.25072619 -1.1627921 0.3283399
0.12604657 -1.263256 0.33895832
0.16716525 -1.2140223 0.31373727
0.21741776 -1.2346677 0.30823115
0.26647109 -1.24297 0.2994245
0.12637311 -1.266305 0.28900975
0.16908337 -1.2266849 0.26822403
0.21556266 -1.2268908 0.25740194
0.2537843 -1.1879386 0.23882985
0.12842239 -1.2838913 0.24310471
0.1700011 -1.2357346 0.22214611
0.21592833 -1.2326323 0.21060309
0.24448369 -1.1465579 0.1860151
0.12685239 -1.2693139 0.19196557
0.16875444 -1.2312882 0.17457549
0.21339598 -1.2219405 0.16224915
0.2585291 -1.2177402 0.1509558
0.12773906 -1.2804446 0.14549774
0.16570525 -1.2091972 0.12614776
0.20967883 -1.203506 0.11461808
0.25374001 -1.1980641 0.10343856
0.1266941 -1.2719927 0.097506031
0.16664949 -1.2189343 0.081951916
0.21560773 -1.2393273 0.071981803
0.2516849 -1.190308 0.057842813
0.12912956 -1.3005872 0.051602766
0.16958524 -1.2449404 0.037597477
0.21084416 -1.2155893 0.025369229
0.26074526 -1.2357148 0.01377692
0.13111977 -1.3225107 0.0037808495
0.17216206 -1.2673299 -0.0087281326
0.21616974 -1.2492712 -0.020403694
0.24992052 -1.1865673 -0.031096565
0.12819521 -1.2999451 -0.044245765
0.16818783 -1.2414858 -0.054239534
0.21275878 -1.2340453 -0.066197552
0.25457016 -1.2101088 -0.077149987
0.12533949 -1.2796766 -0.090768889
0.16809233 -1.2456834 -0.10069209
0.21285743 -1.2357768 -0.11237754
0 -0 -0
0.12505718 -1.2804799 -0.13844885
0.16998941 -1.2639031 -0.14936008
0.20228028 -1.1762102 -0.15106751
0 -0 -0
0.12314769 -1.2717106 -0.18511519
0.16031015 -1.1969963 -0.18650606
0.19123216 -1.11453 -0.18592827
0.19707625 -0.94006658 -0.16751353
0.11908148 -1.2396424 -0.22773308
0.15560418 -1.1660341 -0.22661848
0.1872887 -1.0955617 -0.22499704
0.18214644 -0.87021172 -0.18930209
0.11460084 -1.2051518 -0.26846963
0.14627731 -1.0999491 -0.25697464
0.17073028 -0.99933177 -0.24502322
0 -0 -0
0.10618137 -1.1278907 -0.29635972
0.12396364 -0.93754292 -0.2569949
0.15906887 -0.93254501 -0.26710668
0.17310889 -0.82545376 -0.24758941
0.1131894 -1.2177184 0.37782335
0.15860553 -1.2041601 0.36073789
0.20541975 -1.2044762 0.34997258
0.24200752 -1.1567605 0.32621127
0.1186531 -1.2678534 0.3399902
0.16110179 -1.2255905 0.31646541
0.20366141 -1.199598 0.29915851
0.2550737 -1.2264751 0.29506838
0.11751026 -1.2554055 0.28635219
0.1620634 -1.2315751 0.2690708
0.20672217 -1.2204659 0.25578305
0.25644568 -1.2375135 0.24847566
0.12008313 -1.2797631 0.24217896
0.16151826 -1.2299216 0.22091879
0.20097229 -1.1901776 0.20313489
0.24744582 -1.1963953 0.19385062
0.11906164 -1.2700684 0.19196557
0.16093932 -1.2303365 0.17429727
0.20556512 -1.2212713 0.16198976
0.2486499 -1.2076356 0.14951125
0.11913943 -1.2732894 0.1445989
0.16112062 -1.2318897 0.12840956
0.20080651 -1.195933 0.11377735
0.24598309 -1.1976464 0.10327023
0.11888691 -1.2727461 0.097506031
0.16007075 -1.2268597 0.082417175
0.2033771 -1.2130574 0.070382208
0.24979378 -1.2182497 0.059125043
0.12179521 -1.3083194 0.051878925
0.15782058 -1.2142385 0.036640342
0.20750184 -1.2415129 0.02588319
0.24955019 -1.2196579 0.013580574
0.12402061 -1.3342431 0.0038121431
0.16296884 -1.2574539 -0.0086530661
0.2065271 -1.2387389 -0.0202106
0.25223657 -1.2350922 -0.032327097
0.11911274 -1.2887651 -0.043839533
0.16082312 -1.2444761 -0.054326039
0.20371021 -1.2264614 -0.065722451
0.24634239 -1.2077361 -0.076900914
0.11702947 -1.2754549 -0.090416804
0.16515356 -1.2832716 -0.10364658
0.19956434 -1.2026695 -0.10925347
0 -0 -0
0.11592997 -1.2673614 -0.13695095
0.16185199 -1.2619669 -0.14901111
0.19830227 -1.1970041 -0.15357903
0.20223165 -0.99422234 -0.13856548
0.11543164 -1.2734281 -0.18525858
0.15872051 -1.2430524 -0.19352676
0.18310274 -1.1078939 -0.18463033
0.19679826 -0.96828914 -0.17232418
0.11252956 -1.2521067 -0.2298917
0.15464219 -1.2156717 -0.23607667
0.1827921 -1.1102296 -0.22777477
0 -0 -0
0.1087602 -1.2233362 -0.27236679
0.14785527 -1.1665469 -0.2723164
0.16096567 -0.97830081 -0.23962003
0.20589282 -1.0128551 -0.26093853
0.1003607 -1.1410494 -0.2996498
0.12448096 -0.98807251 -0.2706314
0.16239165 -0.98858303 -0.28286678
0.16517314 -0.81239623 -0.24336432
0.10340296 -1.1917377 0.36955848
0.15133329 -1.2060617 0.36102259
0.19693473 -1.1990736 0.34804511
0.23739606 -1.1705049 0.32967031
0.11280625 -1.2906948 0.34592324
0.15791163 -1.2611609 0.32539389
0.20225012 -1.2372427 0.30823115
0.24773574 -1.2289714 0.29529765
0.10904071 -1.2473596 0.28435901
0.15426044 -1.2306069 0.2686474
0.20017536 -1.2275107 0.25699723
0.24691556 -1.2294437 0.24654651
0.11351541 -1.2951602 0.24495624
0.15372415 -1.2289356 0.22056811
0.19746308 -1.2147487 0.20711793
0.25194025 -1.2569625 0.20340995
0.10928259 -1.2481178 0.18854292
0.15399918 -1.2362143 0.1749928
0.19886057 -1.2274035 0.16263823
0.246868 -1.2373712 0.15300223
0.10985394 -1.2571683 0.1426889
0.15355887 -1.2328552 0.12840956
0.19425881 -1.2020569 0.11424442
0.24096362 -1.2108606 0.10428021
0.1115951 -1.2794117 0.097962379
0.15192477 -1.222868 0.082084849
0.19704333 -1.2211819 0.07078211
0.24581738 -1.2373946 0.059979863
0.11324614 -1.3030692 0.051642213
0.15601362 -1.2608155 0.038016222
0.19908635 -1.2378272 0.025780398
0.24303395 -1.2260704 0.013635115
0.11453488 -1.3200351 0.0037694699
0.15671945 -1.2703397 -0.0087349564
0.19955598 -1.2439319 -0.020274965
0.24407138 -1.2336746 -0.032250185
0.11034408 -1.2795144 -0.043501001
0.15391591 -1.251389 -0.054585561
0.19996275 -1.2513547 -0.066989392
0.23467104 -1.1876842 -0.075531021
0.10877599 -1.2711794 -0.090064712
0.15582241 -1.2723877 -0.10268836
0.19830455 -1.2422299 -0.11273457
0.194912 -0.98800284 -0.10001947
0.10874286 -1.2749835 -0.1376999
0.15651169 -1.2826544 -0.15133759
0.19454497 -1.2207319 -0.15646726
0.22083485 -1.1208471 -0.15602148
0.1072827 -1.2701677 -0.18468502
0.15204354 -1.2518514 -0.19474775
0.18358274 -1.1547987 -0.19225568
0 -0 -0
0.10139906 -1.2116026 -0.22233656
0.15071805 -1.2458429 -0.24175161
0.17505668 -1.105522 -0.22658433
0 -0 -0
0.10157385 -1.2278725 -0.27323282
0.14605671 -1.2119242 -0.28269464
0.15359259 -0.97062939 -0.23750572
0.20154729 -1.0236125 -0.26338634
0.094382502 -1.1541787 -0.30293989
0.13287367 -1.1095455 -0.3036736
0.15602243 -0.98765969 -0.28232333
0.16222467 -0.8237502 -0.24646272
0.095781654 -1.1885402 0.36837775
0.14858408 -1.2459942 0.37269601
0.18792388 -1.1898141 0.34501624
0.23485458 -1.1955864 0.33632225
0.10394601 -1.2798069 0.34282774
0.15234505 -1.2803836 0.33010617
0.1914884 -1.2183151 0.30321735
0.24298748 -1.2447983 0.29873666
0.10375381 -1.2771642 0.2910029
0.14855641 -1.2470579 0.27203462
0.19263972 -1.2287159 0.25699723
0.24142745 -1.2415304 0.24866857
0.10524715 -1.2919143 0.24421561
0.14583206 -1.2269229 0.22004214
0.19046254 -1.2188605 0.20761581
