# .PCD v0.7 - Point Cloud Data file format
VERSION 0.7
FIELDS x y z
SIZE 4 4 4
TYPE F F F
COUNT 1 1 1
WIDTH 1592
HEIGHT 1
VIEWPOINT 0 0 0 1 0 0 0
POINTS 1592
DATA ascii
0 0 0
0 0 0
7.1724839 3.7284999 0.31916389
0 0 0
0 0 0
0 0 0
1.2316251 0.64002198 0.0039486974
1.2859372 0.72852445 -0.010086145
1.2746794 0.78461552 -0.024088589
2.0785894 1.3857718 -0.064064562
1.2144045 0.63026583 -0.046344649
1.2363418 0.69982862 -0.061506074
1.25568 0.77186334 -0.077916734
1.2757441 0.85007381 -0.095643565
1.239072 0.64202529 -0.098514877
1.2035432 0.68043119 -0.11075331
1.2177423 0.74827963 -0.12808719
1.2192087 0.81188005 -0.14548287
1.3994269 0.7246176 -0.1695838
1.3075995 0.73850745 -0.17588197
1.2756985 0.7834326 -0.18949366
1.1143323 0.74164915 -0.18281442
1.4841119 0.76692396 -0.24204062
2.0960379 1.1822588 -0.37163854
2.1345778 1.3097594 -0.41176787
1.1392361 0.75796574 -0.23864235
1.4617434 0.75394315 -0.30076596
1.5082499 0.8497836 -0.33349615
2.130218 1.3052938 -0.50574732
1.9987353 1.328909 -0.5110532
1.4575311 0.75000006 -0.36351657
1.4772344 0.83142579 -0.3925688
2.0265381 1.241472 -0.57438332
1.9938266 1.3266492 -0.6046136
1.4372931 0.73787373 -0.42264795
1.5160418 0.8517701 -0.47255597
1.532362 0.93818444 -0.50731248
1.9547062 1.3007177 -0.68925059
5.4669623 2.7984738 1.8973817
5.5282855 3.1023767 1.882841
5.6261258 3.4443691 1.8894664
5.1794801 3.4429812 1.7167333
6.368175 3.2648456 1.9107035
6.5178967 3.6554856 1.9131771
5.815805 3.5544946 1.675813
0 0 0
7.2111135 3.6971636 1.8403609
7.0438933 3.9517777 1.7494894
5.8990731 3.6022758 1.4282571
6.864532 4.5442886 1.6185642
7.2161937 3.7018361 1.5280603
5.9845738 3.3554168 1.2218913
5.8645444 3.5771172 1.1560766
0 0 0
7.2555633 3.7212324 1.2270914
0 0 0
5.9147563 3.6034963 0.90592349
0 0 0
7.2852635 3.7348595 0.92568016
6.6393318 3.7179573 0.7864958
5.9209471 3.6040099 0.65034312
5.1341996 3.3858147 0.51946527
7.2471471 3.7138813 0.62116361
6.6915884 3.7444592 0.51078713
5.9261804 3.6052108 0.39692825
5.1511288 3.3945286 0.29329821
1.2487142 0.63942224 0.055390123
6.5935678 3.6853793 0.22603351
5.9338832 3.6057832 0.14277899
5.1288323 3.376755 0.066986591
1.2355289 0.63245285 0.0039486974
1.2807796 0.71525723 -0.01001108
1.3059651 0.79286504 -0.024587419
1.8523746 1.2186058 -0.056860827
1.2173589 0.62234759 -0.046310794
1.24323 0.69368982 -0.061635833
1.2441678 0.75430751 -0.076913744
1.3184634 0.86690474 -0.098445624
1.2412112 0.6335035 -0.098374046
1.2059542 0.67206311 -0.11059362
1.2018679 0.72840399 -0.12594496
1.2491164 0.82077754 -0.14844787
1.4056183 0.71692079 -0.16979779
1.3181809 0.73385203 -0.17669624
1.260116 0.76325482 -0.18647984
1.1304564 0.74241221 -0.18470886
1.4852619 0.75600749 -0.24146707
1.5461282 0.85962307 -0.27319628
2.1240017 1.2853976 -0.40819854
1.95503 1.2835004 -0.40787399
1.449679 0.73649442 -0.29734817
1.4722303 0.81762904 -0.32441625
1.5744909 0.9515326 -0.37241572
2.0232074 1.3273504 -0.51521826
1.4542682 0.73707044 -0.361568
1.4908271 0.82707214 -0.39482495
1.5474268 0.93495542 -0.43695417
2.0311072 1.3335475 -0.61342579
1.4417936 0.72904074 -0.42264795
1.4764973 0.8176738 -0.45865726
1.5438565 0.93224663 -0.50921458
1.9947331 1.3097653 -0.70051748
5.4917088 2.7687478 1.9000381
5.59587 3.0953093 1.8993547
5.6636133 3.4197211 1.8949735
5.2899776 3.469821 1.746268
6.3932624 3.2283227 1.9122514
6.5393558 3.6149552 1.9129292
5.8940592 3.5528321 1.6920482
0 0 0
7.6784768 3.8774688 1.9535286
7.0158367 3.8796327 1.7365758
5.9177094 3.5639911 1.4274476
6.8618913 4.4822288 1.6114264
7.7027626 3.8919261 1.6260058
7.0054603 3.8715003 1.4254521
5.8990583 3.5486906 1.158566
0 0 0
7.6683874 3.8737178 1.2928658
6.9149637 3.8169205 1.1094933
5.9563041 3.5788822 0.90890652
0 0 0
7.5927725 3.8338573 0.96174568
0 0 0
5.909658 3.5476265 0.64670002
5.1423492 3.346096 0.51820272
7.4852133 3.7780714 0.63956958
6.7301645 3.7120039 0.51198351
5.9610314 3.5764852 0.39778516
5.172698 3.3634026 0.29334572
1.2374473 0.6240989 0.054719448
1.1442618 0.6303854 0.039093003
5.9790506 3.5831821 0.14333408
1.9026402 1.2360052 0.02475046
1.2447439 0.62756097 0.0039657666
1.2430944 0.68423945 -0.0096835177
1.2661968 0.75812775 -0.023750674
1.7508105 1.1364602 -0.053528134
1.2345445 0.62160826 -0.046818588
1.2334563 0.67834544 -0.060943779
1.231631 0.73640996 -0.07585796
1.37567 0.89247686 -0.10230624
1.2530961 0.62990773 -0.099007808
1.23015 0.67568839 -0.11243019
1.2046049 0.71999377 -0.12576644
1.256634 0.81472164 -0.14874437
1.3922215 0.69935644 -0.16765793
1.3357201 0.73291671 -0.17844109
1.2690341 0.75805241 -0.18710773
1.2189716 0.78988075 -0.19837599
1.41821 0.71095508 -0.22985254
1.5331731 0.84014654 -0.26999119
2.0216978 1.2065998 -0.38710722
2.0637405 1.3368218 -0.42883465
1.4093053 0.70513731 -0.28817409
1.4815263 0.81093758 -0.32536209
1.565145 0.93282163 -0.36884436
2.0395246 1.3202261 -0.51730078
1.4421667 0.71984917 -0.35745433
1.4736494 0.80575722 -0.38895896
1.5539695 0.92594051 -0.43718907
2.0351827 1.318424 -0.61220187
1.4445077 0.71931785 -0.42214182
1.4569223 0.79519147 -0.45105231
1.534664 0.91389292 -0.50432348
2.0373592 1.3199348 -0.71262938
5.508594 2.7349992 1.9000381
5.5987654 3.0521975 1.8939451
5.7001834 3.3942506 1.9002053
5.3451576 3.4592941 1.7574434
6.3939185 3.1795692 1.9065762
6.5631151 3.5756893 1.9134252
6.2838645 3.7354259 1.7973386
0 0 0
7.7091093 3.8337555 1.9553005
7.0292115 3.830899 1.7340354
5.9512539 3.5346148 1.4302806
6.8463764 4.4124002 1.6013948
7.858469 3.9102566 1.6537786
7.0187082 3.8227918 1.4233481
6.8137913 4.0422354 1.3333217
0 0 0
7.912466 3.9362633 1.3299196
6.9443431 3.7777319 1.110467
6.0634565 3.5928135 0.92187607
0 0 0
7.8964205 3.9265618 0.99713695
6.9763007 3.7949593 0.82083422
6.0855303 3.6025934 0.66351438
5.4638138 3.5077398 0.54841793
7.7573686 3.8558974 0.66078973
7.0175614 3.8145475 0.53205603
5.9330282 3.5103557 0.3944717
0 0 0
1.2439381 0.61782777 0.054837801
6.9861555 3.7930546 0.23787808
6.0060883 3.54948 0.14345743
1.9093466 1.223768 0.024739552
1.2387187 0.61501986 0.0039344728
1.2411166 0.6732614 -0.0096357483
1.2966546 0.76559514 -0.02423341
1.5262462 0.97743624 -0.046478212
1.2508711 0.62023723 -0.047292531
1.2244201 0.66362345 -0.060294982
1.2438684 0.73340374 -0.076333068
1.2642756 0.80922991 -0.093650997
1.2596195 0.62353462 -0.099219061
1.2377791 0.67002571 -0.11274958
1.2141484 0.71562338 -0.126302
1.2079595 0.77267832 -0.14241903
1.3920305 0.68859655 -0.16712296
1.340192 0.72470713 -0.17844109
1.2804999 0.75427961 -0.18811232
1.2112734 0.7743811 -0.19634621
1.3781744 0.68033582 -0.2226831
1.5382993 0.83072335 -0.26999119
1.5553883 0.9153986 -0.29673895
2.1084282 1.347476 -0.43639424
1.4294887 0.70430231 -0.29141203
1.4735107 0.79483914 -0.32252461
1.591964 0.93561578 -0.3738046
2.1036398 1.3434851 -0.53146195
1.429033 0.70237386 -0.35312417
1.4442602 0.77821499 -0.3799344
1.5462128 0.90850943 -0.43343031
2.0898013 1.3356744 -0.62615448
1.4349959 0.70362622 -0.41809249
1.4388276 0.77389491 -0.44397184
1.5419024 0.90543383 -0.5048669
2.0866516 1.3337638 -0.72699457
5.5261302 2.7015672 1.9003333
5.6199212 3.0191474 1.8947991
5.7242188 3.3611579 1.9013065
5.4954634 3.5089149 1.7997497
6.3933501 3.1305048 1.9006432
6.5644469 3.5243537 1.907473
6.6719303 3.9109066 1.9014353
5.5590672 3.5402465 1.552376
0 0 0
7.071528 3.7978699 1.7386929
5.9787455 3.5014963 1.4316971
6.8128767 4.3318753 1.5873119
1.3043059 0.63904876 0.27365482
7.0671892 3.7931561 1.4284328
6.8835788 4.026741 1.3421177
0 0 0
8.0963182 3.9659402 1.3567054
7.0546699 3.7818387 1.1243774
6.1710005 3.6055629 0.93484557
0 0 0
8.1184855 3.9750419 1.0220795
7.0722198 3.7910881 0.82936746
0 0 0
5.5559459 3.5189347 0.55548781
1.2224796 0.59832281 0.10381882
7.116477 3.8119345 0.53777212
0 0 0
0 0 0
1.2459103 0.60930544 0.054758895
7.1247535 3.811888 0.24179636
0 0 0
1.9151292 1.2109605 0.024717735
1.2415708 0.60696846 0.0039316285
1.2505156 0.66846186 -0.0096766939
1.2926868 0.75259387 -0.024072498
1.2744511 0.80519795 -0.038659208
1.2384874 0.60465783 -0.046683177
1.217894 0.65045017 -0.059775945
1.2457551 0.72425199 -0.076174699
1.2514952 0.79026663 -0.092343368
1.2831488 0.62540901 -0.10076826
1.2462646 0.66476387 -0.11314884
1.2211 0.70966142 -0.12656978
1.1899559 0.75091332 -0.13975053
1.3801397 0.67220569 -0.16519709
2.1063273 1.1223454 -0.27952671
1.292825 0.75089288 -0.18924251
1.2436576 0.78437662 -0.2008117
1.3760923 0.66883832 -0.22167939
1.4953828 0.79573482 -0.26159692
1.5609758 0.90583771 -0.29673895
2.1316564 1.3439707 -0.43948677
1.431128 0.69422984 -0.29087237
1.4636198 0.77794808 -0.31930885
1.5662981 0.90764767 -0.36646342
2.1300492 1.3420224 -0.53604352
1.4236492 0.68891448 -0.35074261
1.4524499 0.77116591 -0.38083684
1.5416654 0.89315778 -0.43061125
2.1233823 1.3388577 -0.63374281
1.4445137 0.69733155 -0.41961098
1.4571916 0.77228218 -0.44816768
1.5274408 0.88438272 -0.49834552
2.1280725 1.3419188 -0.73854315
5.5365763 2.6647081 1.8982671
5.6485071 2.989989 1.8982158
5.742239 3.3245265 1.9004805
5.5707216 3.5090382 1.8173108
6.3993831 3.0849237 1.8967737
6.5910864 3.4867268 1.9089611
6.684031 3.8630917 1.8980927
5.60706 3.5226398 1.5597126
0 0 0
7.1439371 3.7804646 1.7507597
5.995029 3.4618073 1.430483
6.6656017 4.1810203 1.5469923
1.3046621 0.62932587 0.2729142
7.1408072 3.7764161 1.438602
6.9004683 3.9799938 1.3406239
0 0 0
8.2870617 3.9965129 1.384533
7.1495438 3.7764065 1.1357839
0 0 0
0 0 0
8.3289042 4.0149002 1.045449
7.1358075 3.7689919 0.83409667
0 0 0
5.7210946 3.5745375 0.56979579
1.2324158 0.59384042 0.10435123
7.1803241 3.7896202 0.54082948
0 0 0
0 0 0
1.2595289 0.60641736 0.055192865
7.1356297 3.761574 0.24137761
0 0 0
1.6196369 1.0102593 0.020823548
1.248876 0.60107362 0.0039430079
1.238668 0.65238845 -0.009553859
1.253922 0.71976 -0.023267936
1.277671 0.79630542 -0.038607933
1.246678 0.59921199 -0.04685244
1.2218621 0.64296508 -0.059775945
1.2484428 0.71560133 -0.076069117
1.2656394 0.7883774 -0.093028314
1.2707738 0.60975635 -0.099500738
1.2556143 0.65988684 -0.11362795
1.2254313 0.70215559 -0.12656978
1.2334017 0.76778835 -0.14429685
1.3716869 0.65770644 -0.16369919
2.0885513 1.0964732 -0.27626961
1.2887988 0.73801619 -0.18798676
1.2518121 0.77882451 -0.20135297
1.3837411 0.66209078 -0.22225294
1.4976113 0.78516763 -0.26113904
1.5545138 0.88938242 -0.29446754
2.13568 1.3282645 -0.43862775
1.4122814 0.67441434 -0.28619537
1.4753247 0.77259719 -0.32082215
1.5258826 0.8717649 -0.35574928
2.1307671 1.3242807 -0.53416926
1.4243238 0.6784867 -0.34987658
1.4588808 0.76314247 -0.38128808
1.5344563 0.87645006 -0.42708746
2.1249709 1.3217068 -0.6317845
1.4452699 0.6867941 -0.41859862
1.4430836 0.7535001 -0.4423984
1.5261521 0.87117714 -0.49617171
2.1085649 1.3116046 -0.7289663
5.5450516 2.6270046 1.8956106
5.674397 2.9592636 1.9007782
5.7533455 3.283988 1.8974516
5.677299 3.5277011 1.844983
0 0 0
6.6269608 3.4538302 1.9131771
6.697484 3.8162374 1.8952277
5.7601199 3.5696948 1.5961663
0 0 0
7.2077303 3.7577949 1.7607096
6.0144553 3.4239883 1.4300783
5.9384933 3.6743584 1.3729823
1.3280288 0.63058197 0.27698755
7.2171049 3.7602797 1.4492974
6.8878984 3.9166186 1.3334877
0 0 0
0 0 0
7.2305584 3.7626374 1.1449647
6.5105186 3.6975219 0.9793312
0 0 0
8.5419054 4.053175 1.0690432
7.2417445 3.7682977 0.84376091
6.558672 3.7213883 0.70751202
0 0 0
1.2468472 0.59139496 0.10526392
7.228229 3.7583795 0.54269052
0 0 0
5.7231708 3.5245767 0.31956017
1.2523906 0.59354246 0.054719448
1.223256 0.63528317 0.041246556
0 0 0
1.376271 0.84677243 0.017627476
1.2507331 0.59254307 0.003937318
1.255074 0.65122354 -0.0096493969
1.2139344 0.68693864 -0.022447282
1.2689072 0.78007418 -0.03819776
1.2494278 0.59112382 -0.046818588
1.2178016 0.63131744 -0.059386663
1.2519407 0.70743626 -0.076016329
1.2551463 0.77119195 -0.091907494
1.2735893 0.60152155 -0.099430315
1.2676064 0.65629482 -0.1143466
1.2297167 0.69462323 -0.12656978
1.2194333 0.74875075 -0.14212252
1.3729993 0.64800441 -0.16337821
2.0767136 1.0740559 -0.27382681
1.3010783 0.73448366 -0.18911694
1.2641675 0.77579296 -0.20257084
1.3850917 0.65232283 -0.22182277
1.4901075 0.76961446 -0.2590023
1.5479091 0.8730408 -0.29219618
2.1295147 1.3063778 -0.43570697
1.3727705 0.6452325 -0.27738106
1.4617115 0.75407612 -0.31684971
1.5013133 0.84555179 -0.34880495
2.1221755 1.300958 -0.5300042
1.4205047 0.66600454 -0.34792802
1.453144 0.7488215 -0.37858072
1.4805167 0.83363473 -0.41064292
1.8528776 1.1367604 -0.54880315
1.4319302 0.66971588 -0.413537
1.4631263 0.75257641 -0.4471187
1.4803081 0.83300698 -0.47959644
1.5416307 0.94588107 -0.53095108
5.5593338 2.5921237 1.8950201
5.6591935 2.9073067 1.8896742
5.766685 3.244853 1.8952488
5.7982836 3.5537496 1.8771783
0 0 0
6.6419954 3.4100058 1.9114411
6.7165408 3.7726929 1.894034
5.8450322 3.5728657 1.6135906
0 0 0
7.2410846 3.7188561 1.7632501
5.9917965 3.362577 1.4197578
5.8436685 3.5662904 1.3459741
1.3069448 0.61077189 0.27180329
7.2155161 3.7033379 1.4443879
6.9152412 3.87621 1.3341515
5.8740606 3.5817437 1.0916438
1.3142896 0.61406451 0.21830504
7.24646 3.714587 1.143852
6.6818972 3.7408166 1.0016389
5.9278493 3.6073072 0.84145212
8.7259722 4.0751081 1.0889298
7.2585335 3.7206161 0.84304124
6.6126642 3.6985714 0.71087492
5.9152408 3.5956745 0.58469301
1.2531629 0.58499867 0.10549209
7.2644753 3.7207804 0.54368752
0 0 0
5.9222636 3.5972543 0.32943809
1.2523867 0.58415717 0.054561637
1.2315803 0.63004166 0.041396108
0 0 0
1.4310222 0.86839974 0.018260146
1.2552518 0.58528018 0.0039401632
1.251923 0.63986951 -0.0095948037
1.2425764 0.69311541 -0.022897838
1.2745246 0.77279192 -0.038223393
1.2639036 0.58850878 -0.047224823
1.2287705 0.62746817 -0.05973269
1.2475339 0.69488192 -0.075488441
1.2351013 0.74847543 -0.090101719
1.2826836 0.59621841 -0.09985283
1.2813776 0.65348613 -0.11522496
1.2426577 0.69191009 -0.12746237
1.2325165 0.74640912 -0.14311086
1.348094 0.62616485 -0.15995444
1.400053 0.71323949 -0.18402465
2.0675709 1.1505117 -0.29949796
1.2731421 0.77058679 -0.20324743
1.3890681 0.64381176 -0.22182277
1.4595678 0.74253213 -0.25289735
1.5032158 0.83571726 -0.28278619
1.8298469 1.1071472 -0.37299678
1.3588477 0.62853783 -0.27378339
1.4453011 0.73441702 -0.31230977
1.4824795 0.82300371 -0.34324947
1.5659925 0.94683051 -0.38964158
1.4112673 0.65114081 -0.3446804
1.4498928 0.73592263 -0.37655017
1.470306 0.81604415 -0.40641436
1.5595261 0.94366431 -0.46019176
1.4316183 0.65889472 -0.41227159
1.4668558 0.74314857 -0.4468565
1.482025 0.82204103 -0.47850952
1.534271 0.92845571 -0.52644438
5.5794764 2.5599558 1.8964961
5.696599 2.8824825 1.8962228
5.8049817 3.2196662 1.9013065
5.8686519 3.5475266 1.8928769
0 0 0
6.6757622 3.3757446 1.9151614
6.7557044 3.7403469 1.8985702
5.9310317 3.5756302 1.6312443
0 0 0
7.6483655 3.8689039 1.8566098
6.9935164 3.8685055 1.6514601
5.9293327 3.5688233 1.3606356
1.2553127 0.57728475 0.26032385
7.6967454 3.8908465 1.5359116
6.9760113 3.8542123 1.3412879
5.8908491 3.5425797 1.0907036
1.3144387 0.60433632 0.21770978
7.6872468 3.8811607 1.2096481
0 0 0
5.9362526 3.5626931 0.83952606
1.2198048 0.56056881 0.15178953
7.595562 3.8347044 0.87943596
6.7869463 3.7415645 0.7271288
5.9440293 3.5634103 0.58536631
1.2467619 0.57271993 0.10465545
7.2916231 3.6783834 0.54401982
0 0 0
5.9579349 3.5690613 0.33019796
1.2523149 0.57479441 0.054403834
1.2389935 0.62427199 0.041515749
0 0 0
5.9066024 3.5349498 0.075091302
1.2560927 0.576316 0.0039316285
1.2486801 0.62857884 -0.0095402105
1.2538153 0.68933177 -0.023026569
1.2680886 0.75828737 -0.037890125
1.2720339 0.58282405 -0.047394089
1.2209944 0.6140812 -0.059170399
1.2526495 0.68769467 -0.075541228
1.2379572 0.73985893 -0.089977182
1.2917606 0.59082621 -0.10027533
1.2862539 0.64605886 -0.11530482
1.2503724 0.68618894 -0.1278194
1.2712464 0.75924224 -0.14706419
1.3455807 0.61498815 -0.15920548
1.3795463 0.69216412 -0.18076757
2.100687 1.1521156 -0.30326521
1.2735926 0.76022124 -0.20257084
1.3893906 0.63363391 -0.22124922
1.4296367 0.71629691 -0.24694502
1.5360068 0.84165144 -0.2879779
1.5650487 0.93386126 -0.31784621
1.3770039 0.62670803 -0.27666152
1.4497802 0.72553504 -0.31230977
1.4883611 0.81436229 -0.34344786
1.5642121 0.93269575 -0.38776731
1.4072353 0.6388371 -0.3427318
1.4508954 0.72527003 -0.37564772
1.4522607 0.79441226 -0.40007147
1.5569609 0.92910898 -0.45774391
1.4453286 0.65448797 -0.41505548
1.4722514 0.73456496 -0.4471187
1.4684637 0.80277616 -0.47253156
1.5308757 0.91361523 -0.52334595
5.6046581 2.5299966 1.8997431
5.7227583 2.8517501 1.89907
5.8170362 3.179837 1.8988284
5.8795447 3.5050337 1.8894179
0 0 0
6.6616621 3.3174453 1.9052408
6.8202968 3.7216163 1.9102693
6.7803197 4.0311232 1.8579907
0 0 0
7.7900581 3.8807335 1.8851894
7.0403371 3.8381777 1.6569239
5.9468999 3.5298703 1.3596711
1.2534593 0.56714088 0.25921294
7.827116 3.8966372 1.5571268
6.9995289 3.8113358 1.3412879
0 0 0
1.3316367 0.60237306 0.21994193
7.8944678 3.9251828 1.2384428
6.9711995 3.7911792 1.0379536
6.0622277 3.5878875 0.85421234
1.2458569 0.56330818 0.15459837
7.9342513 3.9447906 0.91583055
6.9943681 3.8001416 0.74683905
0 0 0
1.265699 0.57204026 0.10594843
1.2188604 0.60552162 0.090658896
7.0610442 3.8341334 0.45976949
0 0 0
1.2558182 0.56709957 0.054403834
1.2428007 0.61665791 0.041515749
7.0124016 3.8031259 0.16403653
1.3296211 0.78470391 0.016842093
1.2650738 0.57106644 0.0039486974
1.2417622 0.61557555 -0.0094583202
1.2369224 0.67019361 -0.022640377
1.2451621 0.73424345 -0.037069771
1.2755861 0.57500803 -0.047394089
1.2372732 0.6127854 -0.059775945
1.2401578 0.67096698 -0.074538231
1.239894 0.73072875 -0.089790381
1.2980905 0.584117 -0.10048658
1.2866198 0.63638663 -0.11498541
1.2966114 0.70124704 -0.13210386
1.2330089 0.72617811 -0.14212252
1.3475152 0.60590482 -0.1589915
1.3891101 0.68632609 -0.18146552
2.1033528 1.1368457 -0.30263734
1.27311 0.74937671 -0.20175892
1.3941553 0.62550193 -0.2213926
1.3834869 0.68258667 -0.23824549
1.5064123 0.81345677 -0.28148827
1.5732964 0.92573941 -0.31836161
1.373641 0.61503124 -0.27522245
1.4039991 0.69188452 -0.30152744
1.4726253 0.79405046 -0.33868602
1.5564154 0.91514844 -0.38443527
1.413803 0.63138473 -0.34338135
1.4360889 0.7068885 -0.37068421
1.4417068 0.77718413 -0.39584288
1.5534406 0.91412908 -0.4550513
1.4387125 0.64088327 -0.41201848
1.4819276 0.72807074 -0.44869217
1.4420136 0.77686238 -0.46247765
1.5347989 0.90323144 -0.52278262
5.6192031 2.4951718 1.8994479
5.7504754 2.8216493 1.9024866
5.830513 3.140893 1.8969009
5.9508004 3.4982018 1.9053825
0 0 0
6.538373 3.2061324 1.8643185
6.8378725 3.6769383 1.9088367
6.7553844 3.9603992 1.8444638
0 0 0
1.3205675 0.64777726 0.31860864
7.0663428 3.7962968 1.6575308
5.9921579 3.5071924 1.3650727
1.2488353 0.5558427 0.25754657
1.3401566 0.65695113 0.26580387
7.1192355 3.8200705 1.3597094
0 0 0
1.3226594 0.58856267 0.2178586
8.1265249 3.9785604 1.270993
7.0555081 3.7811189 1.0470322
6.2281723 3.634685 0.87443608
1.2647244 0.562518 0.15650837
8.147706 3.988754 0.93762636
7.0825067 3.7919288 0.75375158
0 0 0
1.2719185 0.5654785 0.10617661
1.2225529 0.5980314 0.090658896
7.1143665 3.8067501 0.46171188
0 0 0
1.252882 0.55654383 0.054127671
1.2402743 0.60594916 0.041306376
7.0664663 3.7765203 0.16475606
1.3128046 0.76395738 0.016569391
1.2612425 0.56004679 0.0039259386
1.2401241 0.60531288 -0.0094173755
1.2304271 0.65694034 -0.022447282
1.2289029 0.71452987 -0.036454502
1.2854856 0.57000619 -0.047631059
1.24101 0.60518211 -0.059775945
1.2363207 0.6591168 -0.074063137
1.2426286 0.72210425 -0.089665845
1.2943529 0.57291114 -0.099923238
1.2878119 0.62717074 -0.11474586
1.2833102 0.68390936 -0.13031867
1.2537913 0.7280935 -0.14400035
1.343024 0.5940057 -0.15802857
1.3897227 0.67605186 -0.18100023
2.1024079 1.1197212 -0.30150715
1.2896812 0.74851388 -0.20365338
1.3934399 0.61493796 -0.22067565
1.371648 0.66631198 -0.23549826
1.4774019 0.78612119 -0.27516088
1.5661654 0.9086529 -0.31578448
1.3584836 0.59826535 -0.27144489
1.4029171 0.68068486 -0.30039245
1.4722764 0.78224039 -0.33749557
1.5611552 0.90509063 -0.38422701
1.3908349 0.6109193 -0.33688611
1.4298788 0.69296503 -0.36797681
1.4490236 0.76969129 -0.39654765
1.5581816 0.90409356 -0.45480651
1.437301 0.62971407 -0.41050002
1.4863671 0.71896404 -0.44869217
1.4459033 0.7675485 -0.46220595
1.5361625 0.89138925 -0.52137429
5.6597996 2.4717352 1.9080079
5.7780385 2.7913158 1.9059032
5.8590159 3.1100163 1.8999298
5.9796591 3.4659734 1.9077773
0 0 0
0 0 0
6.859447 3.6344581 1.9085979
6.7795577 3.9188745 1.8444638
0 0 0
1.3174766 0.63626206 0.31691504
7.1674008 3.7941024 1.6757432
6.0110154 3.468888 1.364494
1.2900323 0.56472099 0.26532298
1.2980566 0.62646425 0.2566866
7.1320796 3.7707849 1.3577179
6.898798 3.9776866 1.263555
1.3108454 0.57369584 0.21532881
8.3407936 4.0202055 1.3006221
7.1522293 3.7766478 1.0579268
6.2873564 3.6176903 0.87961239
1.2845389 0.56191552 0.15853073
8.3637829 4.0311065 0.95962763
7.1884174 3.7920671 0.76253241
0 0 0
1.2808458 0.56006038 0.10663296
1.2387849 0.59657973 0.091589406
7.1932282 3.7923586 0.46531096
0 0 0
1.2590203 0.55004591 0.054246027
1.2493737 0.60092717 0.041485842
7.0797749 3.7279663 0.16452992
1.3183347 0.75638545 0.0165803
1.2600731 0.55029631 0.0039117141
1.2465189 0.59899151 -0.009437847
1.2468234 0.65589523 -0.02267256
1.2428041 0.7124449 -0.036736503
1.2889589 0.56210786 -0.047631059
1.2591103 0.60447419 -0.060467999
1.2244285 0.64315975 -0.073112927
1.2288499 0.70404673 -0.088358216
1.3051608 0.56814343 -0.10048658
1.3033208 0.62485927 -0.11578392
1.3174649 0.69176525 -0.13335349
1.2634168 0.72335333 -0.14459336
1.3366143 0.58139145 -0.15685165
1.3714499 0.6567871 -0.17809212
2.1215377 1.1132537 -0.30326521
2.1301372 1.2188922 -0.33518234
1.3744905 0.59652621 -0.21709093
1.3757106 0.65788317 -0.23549826
1.4856933 0.77887386 -0.27580982
1.5511886 0.88728678 -0.31166109
1.3476861 0.58366364 -0.26856673
1.4088395 0.67291033 -0.30077076
1.4692334 0.76910096 -0.33570987
1.5199763 0.86879957 -0.37277308
1.3936609 0.60198665 -0.33666959
1.4244319 0.67956412 -0.36549509
1.4519967 0.75988436 -0.39607781
1.5275108 0.87381381 -0.44428086
1.4286989 0.61552405 -0.40695682
1.4881368 0.70858574 -0.44790542
1.4710524 0.76936638 -0.46872735
1.5241133 0.87194085 -0.51545918
5.6546674 2.4282897 1.9012189
5.7803402 2.7488115 1.9010631
5.8762846 3.0731165 1.899379
5.9832373 3.4191737 1.9021896
0 0 0
0 0 0
6.9091654 3.6066806 1.916238
6.9480872 3.959614 1.8836689
0 0 0
1.3151772 0.62522888 0.31543314
7.227015 3.7690723 1.6842424
6.0296283 3.4304841 1.3639152
1.2032096 0.51793969 0.24680775
1.3276645 0.63073915 0.26177123
7.2101817 3.7556524 1.3681732
6.9196401 3.9333291 1.2629281
1.3116159 0.56446916 0.21488239
8.5880814 4.0746493 1.3352591
7.243 3.7679269 1.0679132
6.5391212 3.7093334 0.91163331
1.2751833 0.54852617 0.15695779
8.4809246 4.0236268 0.97021705
7.2380533 3.7616625 0.7653349
0 0 0
1.2925023 0.55573541 0.10731747
1.2478318 0.59153193 0.091988206
7.2349682 3.7578139 0.46651065
0 0 0
1.2678801 0.54467678 0.054482736
1.2485204 0.59111124 0.041336287
1.2211748 0.63348877 0.028288538
0 0 0
1.262507 0.54215968 0.0039088693
1.2492667 0.59090424 -0.0094310232
1.2357329 0.64041138 -0.022399008
1.2384491 0.69988739 -0.03648014
1.2951393 0.55537003 -0.047732618
1.2664087 0.59844446 -0.060641009
1.2239174 0.63333994 -0.072848983
1.2461821 0.70385587 -0.089292236
1.3113734 0.56130201 -0.10069785
1.2909039 0.60919303 -0.1143466
1.3154922 0.68046516 -0.13272868
1.273031 0.71852225 -0.14518636
1.3310149 0.56926936 -0.15578172
1.3781494 0.64963013 -0.17844109
2.0948393 1.0829033 -0.29849333
2.1211796 1.1965498 -0.33261129
1.3844966 0.59080029 -0.21809465
1.3770388 0.64816695 -0.2350404
1.4711564 0.75978178 -0.27224052
1.551455 0.8748489 -0.31063023
1.3476218 0.57384187 -0.26784721
1.395169 0.6558978 -0.29698747
1.4573737 0.75153637 -0.33194008
1.4963067 0.84313196 -0.36569247
1.3973285 0.59342396 -0.33666959
1.4206382 0.66708446 -0.36346453
1.4454005 0.74517047 -0.39302382
1.4982175 0.84489775 -0.43424475
1.4431387 0.61127412 -0.40999386
1.5046899 0.70517451 -0.4515768
1.481734 0.7634111 -0.47062948
1.5060335 0.84937483 -0.50757235
5.6641793 2.3913178 1.8994479
5.7736554 2.7023201 1.8933755
5.8847752 3.0317192 1.8960748
5.9990654 3.3795581 1.900593
0 0 0
0 0 0
6.9208021 3.5588899 1.9133729
6.9883757 3.9259648 1.8880249
0 0 0
1.3083661 0.61217695 0.31289274
7.2238736 3.7112319 1.6781716
6.0248899 3.3790231 1.3581278
1.28872 0.54540074 0.26365659
1.3056465 0.61048794 0.2566866
7.2111559 3.7000864 1.3640243
6.9548454 3.8970735 1.2649654
1.3259832 0.5610345 0.21666811
8.6864967 4.0562339 1.3466656
7.2518644 3.7161787 1.0658381
6.6319418 3.708385 0.92138404
1.2876769 0.54456186 0.15808132
1.2527901 0.58497447 0.14290577
7.2707467 3.7221706 0.76636243
0 0 0
1.289459 0.54507673 0.10678507
1.2514379 0.58386421 0.091988206
7.2196712 3.6937966 0.46405411
0 0 0
1.2684368 0.53572065 0.054364379
1.2475938 0.58132845 0.041186735
1.2357223 0.63144302 0.028535239
1.1615777 0.64763165 0.014507762
1.2658098 0.53440291 0.0039088693
1.2501493 0.58196169 -0.0094105508
1.239639 0.63281703 -0.022399008
1.2435935 0.69276172 -0.036505774
1.2902342 0.54391861 -0.047427937
1.269151 0.59024131 -0.060597755
1.2331185 0.62853914 -0.073165715
1.2356532 0.68794286 -0.08823368
1.3129539 0.55247122 -0.10055701
1.2973297 0.60252035 -0.11458616
1.3001186 0.66243279 -0.13076496
1.2739375 0.70876235 -0.14479102
1.3418151 0.56417459 -0.15663767
1.3749015 0.63781798 -0.1775105
1.405678 0.71575361 -0.19966529
2.1284816 1.183512 -0.33261129
1.3579792 0.56966043 -0.21336281
1.3765062 0.63762844 -0.23427728
1.473152 0.74939847 -0.27175382
1.5464611 0.85956967 -0.30856854
1.3601915 0.56936049 -0.26964605
1.3768876 0.63701713 -0.29225838
1.4453543 0.7341466 -0.32817027
1.4937565 0.82966077 -0.36381823
1.3865285 0.5788213 -0.33320546
1.4238204 0.65794641 -0.36323896
1.4447455 0.73364699 -0.39161429
1.4830347 0.82438314 -0.42836997
1.4334654 0.59682977 -0.40619758
1.4730601 0.6793589 -0.44082499
1.4829575 0.75256288 -0.46954253
1.483542 0.8247329 -0.49827719
5.6778631 2.3561521 1.8991528
5.7814212 2.6628327 1.8905284
5.9341288 3.0112147 1.9059876
6.0129471 3.3389413 1.8984644
0 0 0
0 0 0
6.9277821 3.5088985 1.9093142
7.0140367 3.883954 1.8884835
0 0 0
0 0 0
7.692153 3.8923392 1.7813753
7.0416451 3.8926606 1.5819103
1.2702664 0.52842438 0.25921294
1.2610714 0.58024305 0.24721864
7.7292323 3.9061894 1.4574597
6.9864073 3.8586233 1.2663758
1.3239224 0.55060947 0.21577524
1.3137469 0.60367453 0.2030918
7.6790638 3.8757889 1.125109
0 0 0
1.290994 0.53665054 0.15808132
1.2427981 0.57104683 0.14136362
7.6695008 3.8671002 0.80587626
0 0 0
1.2863338 0.53447634 0.10625267
1.272226 0.58408451 0.09325105
1.2214471 0.61550128 0.078265935
0 0 0
1.2772373 0.53022629 0.054601092
1.2556802 0.57574546 0.041336287
1.2377874 0.62294996 0.028494123
0 0 0
1.2801485 0.53122532 0.0039430079
1.2500601 0.57261419 -0.0093832547
1.239032 0.62295318 -0.022318553
1.2416868 0.68175024 -0.036326323
1.3046271 0.5405826 -0.047834177
1.279108 0.58535302 -0.060900532
1.2315973 0.6182729 -0.072848983
1.2206014 0.6697852 -0.086863793
1.3172408 0.54478592 -0.10062742
1.3091619 0.59827769 -0.11530482
1.3397672 0.67231172 -0.13433534
1.3105462 0.71863502 -0.14844787
1.3231983 0.54681712 -0.15406983
1.3616222 0.62153357 -0.17530034
1.3869861 0.69555223 -0.19640033
2.1339657 1.1694771 -0.33234066
1.3312556 0.54886872 -0.20863098
1.3758963 0.62712091 -0.23351416
1.4150848 0.70896345 -0.26023468
1.5387465 0.84296495 -0.30599141
1.3609302 0.55988103 -0.26910639
1.3602152 0.61919957 -0.28790763
1.4428192 0.72175628 -0.326583
1.4747969 0.80732942 -0.35798714
1.3593446 0.55770355 -0.32584423
1.4127541 0.64234269 -0.35940349
1.4413956 0.72085541 -0.38949999
1.4617051 0.80082601 -0.4207817
1.4209834 0.58142835 -0.40164211
1.4798372 0.6715039 -0.44161171
1.5047642 0.75205421 -0.47497708
1.4742694 0.80777657 -0.49348879
5.6860204 2.3187435 1.8970865
5.7819343 2.6201861 1.8854034
5.9361548 2.9665816 1.9007559
6.0054164 3.2867117 1.889684
0 0 0
0 0 0
6.9509201 3.4671915 1.9097917
7.0069771 3.8240571 1.8802297
0 0 0
0 0 0
7.856132 3.9149542 1.8137528
7.0662584 3.8498499 1.582103
1.2489246 0.51057965 0.25421384
1.2968959 0.58711123 0.25353062
7.8289781 3.8964772 1.4717321
7.0194936 3.8208766 1.2680995
1.3025612 0.53237438 0.21175736
1.3201333 0.59682602 0.20350911
7.9459906 3.9495246 1.1606456
7.0110598 3.8082001 0.96748942
1.297942 0.53022212 0.15853073
1.2752829 0.57652253 0.14465353
7.9124532 3.9288948 0.82885587
7.0646257 3.8328257 0.67887336
1.2905122 0.52695048 0.10632873
1.2803324 0.57832098 0.093583383
1.2439811 0.61731464 0.07946562
7.0681281 3.8316927 0.382247
1.286943 0.52502137 0.054877251
1.2564558 0.56679684 0.041246556
1.2406907 0.6148994 0.028473567
7.0412464 3.8133044 0.087352
1.2889398 0.52562612 0.0039600772
1.2581084 0.56698745 -0.0094173755
1.241039 0.61445159 -0.02228637
1.2370545 0.66936123 -0.036069963
1.3106962 0.53369808 -0.047935732
1.2835865 0.57790369 -0.060943779
1.2407389 0.61335957 -0.073165715
1.2220544 0.66085881 -0.086676985
1.3242553 0.53819555 -0.1009091
1.3028076 0.58573729 -0.11442646
1.3063639 0.64554596 -0.13058645
1.3385681 0.72335356 -0.15111637
1.3265285 0.53868783 -0.15406983
1.3500075 0.60625017 -0.17332284
1.373437 0.67824316 -0.19388881
2.1227939 1.146474 -0.32949898
1.3300121 0.53883195 -0.20791404
1.3815219 0.61947548 -0.2338194
1.3946306 0.68804318 -0.25569195
1.4892772 0.8040235 -0.29516745
1.354308 0.54746467 -0.26712766
1.3720545 0.61445385 -0.28961009
1.4287568 0.7037946 -0.32241639
1.4745579 0.79547876 -0.35673761
1.3274274 0.53511655 -0.3174004
1.4237833 0.63684434 -0.36120841
1.4396875 0.70899159 -0.38785553
1.4486749 0.78216863 -0.41564125
1.4209337 0.57125491 -0.40062979
1.4425135 0.6439234 -0.42928642
1.5188487 0.74748141 -0.47796607
1.4310734 0.77272975 -0.47743347
5.6832895 2.2770596 1.8914782
5.7908983 2.581537 1.8831258
5.9525208 2.9292533 1.9002053
6.0594072 3.2681048 1.900327
0 0 0
0 0 0
0 0 0
7.0114503 3.7708485 1.875186
1.2886933 0.51729226 0.31536388
1.3381593 0.59634495 0.31733844
1.2853473 0.63071299 0.29585034
7.0612192 3.7911031 1.5757369
1.3240738 0.53184313 0.26884085
1.3004739 0.57914257 0.25353062
1.3583786 0.6656962 0.25458246
7.0958972 3.8062119 1.2776589
1.3103914 0.52621448 0.21250142
1.2966255 0.57664251 0.19933599
8.1259317 3.9769738 1.1833423
7.0649276 3.7815058 0.97170269
1.3113148 0.52631956 0.15976663
1.2769786 0.56787831 0.14444792
8.1045675 3.9624858 0.84641761
7.1143737 3.8035002 0.68139839
1.2937212 0.51902211 0.10632873
1.2847687 0.57085925 0.093649842
1.2468485 0.60923183 0.079408497
7.1100073 3.7981348 0.38324428
1.2947776 0.51897377 0.055074509
1.257169 0.55786043 0.041156825
1.2480342 0.60902888 0.028555799
7.1227355 3.8011 0.088071935
1.2912124 0.51733547 0.003957232
1.2633921 0.56006771 -0.0094310232
1.2456846 0.60726327 -0.022302462
1.2252601 0.65329218 -0.035608515
1.3055949 0.52230477 -0.047631059
1.2871083 0.57001686 -0.060943779
1.2579474 0.61229056 -0.073957548
1.2304903 0.65569478 -0.086988322
1.3312383 0.5315395 -0.10119077
1.3063771 0.57773238 -0.11442646
1.3317955 0.6479764 -0.13272868
1.3579131 0.72307771 -0.15279655
1.3251915 0.52869612 -0.15353486
1.3555191 0.59875792 -0.17355549
1.3731118 0.66763413 -0.19326092
2.1297886 1.1334271 -0.32949898
1.3296152 0.5291971 -0.20734049
1.3771589 0.60739762 -0.23244579
1.3961633 0.6781795 -0.25520521
1.4907037 0.79301965 -0.2944802
1.3676983 0.54313821 -0.26910639
1.3623195 0.60008603 -0.28677264
1.4295208 0.69330382 -0.32162273
1.4604112 0.77631617 -0.35215604
1.3751631 0.54457492 -0.32800931
1.3955617 0.61397284 -0.35308629
1.438763 0.69760007 -0.38644603
1.4397513 0.76597863 -0.41172472
1.4298111 0.56465763 -0.40214828
1.4322999 0.62885308 -0.42509058
1.5190762 0.73604965 -0.47660744
1.4239289 0.75762457 -0.47349009
5.6891527 2.2389953 1.8888215
5.7978501 2.5421066 1.8802785
5.9721122 2.8935125 1.9007559
6.0793457 3.2308636 1.900327
0 0 0
0 0 0
0 0 0
6.9708109 3.6940289 1.8582201
1.3816553 0.5447883 0.3372888
1.3525347 0.59283102 0.31987882
1.2944839 0.62537038 0.29706451
7.1129699 3.7628462 1.582103
1.296232 0.51144564 0.26254568
1.2390734 0.54271299 0.24090667
1.2896086 0.6222102 0.24097374
7.1531725 3.7805991 1.2837707
1.3163552 0.51925278 0.21294785
1.3237288 0.57899362 0.2029527
8.35742 4.0268936 1.2134317
7.1582451 3.7751324 0.98133302
1.3098974 0.51644129 0.15920486
1.2877297 0.56322104 0.14527039
1.2389112 0.59633756 0.12900372
7.1604996 3.7718499 0.68358666
1.3089411 0.51582664 0.10731747
1.2772757 0.55817074 0.092852257
1.2460648 0.59940588 0.079122856
7.1915169 3.7851427 0.38637862
1.2960781 0.51028728 0.054995608
1.2532394 0.54693758 0.040917538
1.2490442 0.60006082 0.028494123
1.23288 0.64824778 0.015194971
1.3055288 0.51379758 0.003991371
1.2658881 0.55190545 -0.0094241994
1.2421757 0.59614748 -0.022173731
1.2416354 0.65227062 -0.035967421
1.3087752 0.51428401 -0.047631059
1.2887497 0.56131071 -0.060857274
1.2697858 0.60844409 -0.074432656
1.222119 0.64163703 -0.086116567
1.3381894 0.524818 -0.10147244
1.3254369 0.57646424 -0.11578392
1.3150858 0.62989658 -0.13067572
1.3773046 0.72259134 -0.1544767
1.3321135 0.52200598 -0.15396282
1.3455029 0.5844934 -0.17181063
1.3736031 0.65748298 -0.19275863
2.136703 1.1203377 -0.32949898
1.326385 0.51850647 -0.20633675
1.3618197 0.59067762 -0.2292407
1.3816038 0.66066068 -0.25179815
1.46762 0.76922345 -0.2889823
1.3719218 0.53509337 -0.26928627
1.3488562 0.58429974 -0.28317851
1.4036756 0.67016184 -0.31487682
1.459082 0.76416421 -0.35069826
1.3530018 0.52621818 -0.32194707
1.4046675 0.6077193 -0.35443997
1.4298581 0.68247837 -0.3829222
1.4358366 0.75262868 -0.4092769
1.4143072 0.54852748 -0.39683354
1.4334736 0.61890531 -0.42430386
1.5504912 0.73955882 -0.48503095
1.4404483 0.75511009 -0.47743347
5.7384315 2.2178228 1.9006284
5.7948532 2.4985137 1.8742994
6.0088434 2.8659184 1.9068136
6.1152811 3.2019963 1.9053825
0 0 0
0 0 0
0 0 0
6.9924827 3.6507363 1.8579907
0 0 0
0 0 0
1.3009501 0.61867756 0.29767159
7.2577429 3.7826207 1.6091113
1.2938478 0.50135207 0.26143476
1.3156208 0.56664515 0.25510859
1.368227 0.64982277 0.25491437
7.213027 3.7557943 1.2903525
1.3195165 0.51116598 0.21294785
1.298146 0.55833989 0.19850136
8.6337156 4.0949397 1.249876
7.2772946 3.781028 0.99445438
1.3325011 0.51592857 0.16156428
1.2893337 0.55452305 0.14506477
1.2479453 0.59128231 0.1295642
7.1985431 3.7356453 0.68501741
1.3111517 0.50742561 0.10724142
1.2852602 0.55229264 0.093184583
1.2470123 0.59046715 0.078951471
7.2137194 3.740485 0.38633111
1.3029128 0.50376648 0.055153415
1.260246 0.54081434 0.041037183
1.255414 0.59366775 0.028555799
1.2421618 0.64343029 0.015260421
1.315186 0.50830084 0.004011285
1.2628171 0.54136968 -0.00937643
1.2440021 0.58766031 -0.022141548
1.242063 0.64280188 -0.035864875
1.3277571 0.51236045 -0.048206557
1.2940063 0.55417913 -0.060943779
1.2762047 0.60191935 -0.074591026
1.2304655 0.63641876 -0.086427912
1.3385917 0.51552165 -0.10126119
1.3289491 0.56832069 -0.11578392
1.3396468 0.63158447 -0.13272868
1.3808284 0.71366984 -0.15437788
1.3362193 0.51417953 -0.15406983
1.3435836 0.57388574 -0.17111269
1.3731241 0.64692819 -0.19213076
2.1215293 1.0958384 -0.32611603
1.3249218 0.50858486 -0.20561981
1.3699638 0.58424896 -0.2300038
1.3820604 0.65049005 -0.25114921
1.4565563 0.75206846 -0.28588974
1.3797723 0.52842444 -0.27018571
1.3460921 0.5733189 -0.28185439
1.4051 0.66028589 -0.31428158
1.4628741 0.75474858 -0.35049
1.3343161 0.50954747 -0.31675088
1.3895439 0.59108078 -0.34970209
1.4225818 0.66831911 -0.37986821
1.4499041 0.74869788 -0.41196951
1.4013723 0.53364199 -0.39227805
1.4372442 0.610098 -0.42430386
1.6037842 0.75293422 -0.5002476
1.4765984 0.76254749 -0.48785535
5.7706914 2.1896889 1.9068272
5.7738886 2.4475706 1.8626261
5.9975982 2.8155138 1.8977269
6.1433802 3.1688323 1.9080434
0 0 0
0 0 0
1.2671424 0.59368753 0.34404424
7.1783481 3.6919024 1.9013225
1.3672718 0.51982164 0.33219513
1.2625216 0.53500515 0.29701525
1.2940781 0.60570168 0.29524326
7.2232051 3.7084389 1.5963789
1.3455793 0.51192385 0.27124783
1.3127269 0.55587476 0.25388128
1.3587883 0.63515145 0.25242499
7.2218761 3.7042534 1.2878451
1.3226281 0.50305998 0.21294785
1.3051958 0.55190682 0.19905779
8.7736855 4.095572 1.2664771
7.2871017 3.7295198 0.99264866
1.3440009 0.51092058 0.16257545
1.2945443 0.54737622 0.14527039
1.2714014 0.59287095 0.13161929
7.2293153 3.6954877 0.68577492
1.3263576 0.50397509 0.10823017
1.2858673 0.54323113 0.092985183
1.2605659 0.58744329 0.079579882
1.2542734 0.64063609 0.066960894
1.3059794 0.49576247 0.055153415
1.2635407 0.5330714 0.041037183
1.2554073 0.58426613 0.028473567
1.2380701 0.6317063 0.015162248
1.3229549 0.50199527 0.0040255096
1.267958 0.53438771 -0.0093900785
1.2484913 0.58043772 -0.022157641
1.2415307 0.63289857 -0.035736695
1.3402219 0.50774461 -0.048545085
1.29462 0.54506582 -0.060814019
1.2834971 0.59575909 -0.074802175
1.2352366 0.62930983 -0.086490177
1.3417298 0.50729853 -0.10126119
1.3241411 0.55667889 -0.11506527
1.3118745 0.60868055 -0.12960459
1.3789737 0.70202363 -0.15368605
1.3393492 0.50597095 -0.15406983
1.3342589 0.56024754 -0.16948414
1.3779677 0.63890797 -0.19225632
1.8085399 0.92015558 -0.27713096
1.3187566 0.49695587 -0.20418592
1.3543828 0.56780785 -0.22679871
1.3815489 0.63992405 -0.25033799
1.4506063 0.73775804 -0.28382805
1.3728602 0.51614046 -0.26820698
1.3541133 0.56694478 -0.2828002
1.3948914 0.64506954 -0.31110701
1.4596301 0.74177033 -0.34861574
1.3209625 0.49518228 -0.31285375
1.3922457 0.58216774 -0.34947646
1.4090101 0.65141964 -0.37516978
1.447557 0.73627079 -0.41001126
1.4236506 0.53214663 -0.39759278
1.44007 0.60089618 -0.42404163
1.6337095 0.75478464 -0.50812769
1.4838152 0.75477797 -0.48870036
5.7849135 2.1545727 1.9071224
5.7666764 2.402879 1.8555081
5.9597797 2.7532606 1.8803798
6.1687241 3.1341341 1.9099059
0 0 0
0 0 0
0 0 0
7.1991296 3.6469076 1.9008639
0 0 0
1.2549541 0.52273875 0.29447481
1.2532955 0.57726502 0.28512526
7.7090311 3.8982818 1.6984315
1.2704432 0.47443545 0.25550991
1.2924811 0.53797317 0.24932262
1.2667989 0.58270758 0.23466727
0 0 0
1.3256899 0.49493501 0.21294785
1.3103865 0.54464805 0.19933599
9.0968943 4.178659 1.3094064
7.6821666 3.8724146 1.043208
1.3452487 0.50196958 0.16235076
1.3015527 0.5409497 0.14568163
1.2551073 0.57592362 0.1295642
7.6630416 3.8580787 0.72465909
1.3266222 0.49478191 0.108002
1.2937838 0.53724426 0.093317516
1.2714067 0.58302677 0.080036908
1.2510421 0.62933683 0.066580974
1.315551 0.49018198 0.055429578
1.270481 0.52683991 0.041156825
1.2507876 0.57280546 0.028288538
1.2392424 0.62275076 0.015129524
1.331633 0.49596247 0.0040425789
1.2878424 0.53348625 -0.0095129134
1.2538477 0.57359809 -0.022189822
1.2310964 0.61809206 -0.035326514
1.3451858 0.50020832 -0.048612796
1.303479 0.53940403 -0.061073542
1.2880368 0.58828741 -0.07485497
1.2471035 0.6257472 -0.087050594
1.3485579 0.50044441 -0.10154285
1.3155556 0.54359496 -0.1140272
1.3255512 0.60516971 -0.13058645
1.3708017 0.68730503 -0.15230238
1.3433608 0.49808902 -0.15417683
1.3239 0.54636669 -0.16773929
1.375544 0.62755841 -0.1913773
1.3836451 0.69332153 -0.21136649
1.3264221 0.49057126 -0.20490286
1.3523587 0.55722773 -0.22588296
1.3827558 0.6302073 -0.24985126
1.426039 0.71428418 -0.27815837
1.3806157 0.50940961 -0.26910639
1.3448535 0.55339408 -0.2801519
1.3934705 0.63406289 -0.30991656
1.439664 0.72054309 -0.34278464
1.3258085 0.48774183 -0.31328675
1.3876818 0.57028133 -0.34744594
1.4165196 0.64437181 -0.37610945
1.4416448 0.72216386 -0.40707389
1.4032741 0.51473898 -0.39101264
1.477658 0.6059621 -0.43400675
1.6829913 0.76505744 -0.52198571
1.4952815 0.74909741 -0.49095371
5.8007169 2.1200206 1.9080079
0 0 0
6.0439496 2.7472713 1.9015819
6.1611147 3.0828526 1.9016575
1.2574362 0.46045807 0.3575314
0 0 0
0 0 0
0 0 0
1.3991874 0.51239336 0.3383961
1.2011554 0.49170244 0.28113773
1.2889256 0.58411646 0.29241022
7.8636756 3.9160798 1.7271757
1.2613353 0.46223542 0.25310293
1.2875566 0.52667791 0.24774465
1.3071852 0.59159404 0.24147162
0 0 0
1.3259163 0.48577088 0.21250142
1.3182875 0.53846973 0.20003152
9.2325974 4.1725821 1.3252293
7.9245257 3.9337902 1.0728214
1.3464372 0.49302253 0.16212605
1.3103726 0.53521007 0.1462985
1.280396 0.57804358 0.13180611
7.8561921 3.8950849 0.74065036
1.3408695 0.49074495 0.10891469
1.2961322 0.52891868 0.09325105
1.2786003 0.57685691 0.080265425
1.2620406 0.62519598 0.066960894
1.3297954 0.48621827 0.055902995
1.2736897 0.5190345 0.041156825
1.2624826 0.5688163 0.028473567
1.2466251 0.61690915 0.015173156
1.3374686 0.48881215 0.004051113
1.2827561 0.52218091 -0.0094514964
1.2582555 0.56630421 -0.022205915
1.2393464 0.61274183 -0.035454698
1.3548018 0.49434304 -0.048849765
1.3067641 0.53139585 -0.061073542
1.293444 0.58119166 -0.074960545
1.2598674 0.62250453 -0.087673277
1.3487912 0.49113649 -0.1013316
1.328102 0.53926271 -0.11482571
1.3219709 0.59376025 -0.12987237
1.3776698 0.6802026 -0.15259887
1.3482604 0.49051678 -0.15439081
1.3290684 0.53897965 -0.16797194
1.373033 0.61626279 -0.19049826
1.3869847 0.68438017 -0.21123117
1.3321981 0.48343605 -0.20533304
1.347508 0.54558134 -0.22450936
1.3784931 0.61807758 -0.24839108
1.4233268 0.70203453 -0.27678391
1.3374683 0.48418647 -0.2601122
1.3555065 0.54807651 -0.28166521
1.3740757 0.61508912 -0.30475789
1.4238799 0.70175123 -0.33799481
1.3471423 0.48622653 -0.31761694
1.3721845 0.55409563 -0.34270802
1.4035895 0.62812418 -0.37164593
1.4356141 0.70815736 -0.40413645
1.4164193 0.50972241 -0.39379656
1.4455454 0.58245772 -0.42351717
2.1594238 0.96569127 -0.66790259
1.5179201 0.74882299 -0.49686882
5.8100185 2.0830984 1.9068272
0 0 0
0 0 0
6.186832 3.048399 1.9037861
0 0 0
0 0 0
0 0 0
1.3305522 0.6536333 0.34917572
1.36376 0.4899506 0.32909462
1.2948239 0.52079314 0.30230772
1.3130579 0.5853681 0.29706451
1.302112 0.63850582 0.28512967
1.3113105 0.4714433 0.26254568
1.3035529 0.52390766 0.25019929
1.2729534 0.56671709 0.23450132
1.2576745 0.61611646 0.22221519
1.328872 0.47762606 0.21250142
1.3252428 0.53184599 0.20058793
1.2811557 0.56956518 0.18338951
8.1144047 3.9661767 1.095212
1.3531775 0.48609537 0.16257545
1.3108624 0.5260483 0.14599006
1.2820988 0.56936818 0.13161929
1.2213913 0.59625506 0.11480081
1.3466707 0.48351914 0.10914286
1.2965747 0.51984185 0.093051657
1.2939788 0.57426548 0.081008092
1.2550797 0.61218566 0.066391014
1.3242888 0.47501335 0.05554793
1.2879858 0.51566774 0.041515749
1.2558947 0.55660307 0.028247422
1.249488 0.60881042 0.015162248
1.3357362 0.47890893 0.0040368889
1.2933636 0.51727092 -0.0095060887
1.2626208 0.55897778 -0.022222005
1.2538688 0.61037642 -0.035762332
1.3606324 0.48703125 -0.048951324
1.3164945 0.52596229 -0.061376311
1.2951591 0.57243693 -0.07485497
1.2672532 0.61650884 -0.087922342
1.3489614 0.4818446 -0.10112035
1.3397186 0.53442746 -0.11554436
1.3283224 0.5868451 -0.13014016
1.371078 0.66651583 -0.15141287
1.3503083 0.48190057 -0.15428381
1.3268143 0.52860886 -0.16727398
1.3586371 0.59981287 -0.18798676
1.387593 0.67412502 -0.2106899
1.3332747 0.47458899 -0.20504625
1.3297092 0.52890188 -0.22099902
1.3741339 0.60602409 -0.24693093
1.3930473 0.67650443 -0.27008334
1.3348521 0.4739958 -0.25903291
1.3561063 0.53866148 -0.28109771
1.3688538 0.60269684 -0.30277377
1.4299189 0.69385529 -0.33841133
1.354702 0.47958046 -0.31869948
1.3610694 0.53991795 -0.33909819
1.3931829 0.61323464 -0.3678872
1.4346994 0.69679379 -0.40266779
1.4341167 0.50617373 -0.39784586
1.5163873 0.60021377 -0.44318512
2.1582611 0.94932324 -0.66572875
1.5354326 0.74578333 -0.50109392
6.1605721 0.26876095 1.9050562
6.3868504 0.52408469 1.9033407
6.6000161 0.79471612 1.9040601
6.7882819 1.075644 1.8971341
7.1937189 0.31836164 1.9225698
7.4683914 0.61086416 1.9183854
7.6981959 0.92108864 1.9062103
8.3981695 1.3205249 2.0024297
7.8170962 0.3460862 1.7770224
7.7594471 0.6357612 1.6864029
7.6947618 0.91768098 1.6012748
10.270947 1.6074692 2.0439436
7.8254361 0.34823447 1.4758474
7.7606454 0.6338141 1.3867037
7.7057385 0.91503459 1.3059384
7.7129221 1.2040879 1.238638
7.8201528 0.34731558 1.177984
7.7610354 0.62989169 1.0937746
7.7279034 0.91356355 1.0178508
2.3484747 0.36448652 0.28818831
7.3558884 0.32540989 0.83253914
7.7808409 0.63136244 0.8068521
7.7066245 0.9079113 0.72806293
2.2983785 0.35556135 0.19644068
7.3614459 0.32449716 0.56206673
7.7853012 0.62926251 0.52029169
2.393574 0.28139207 0.137908
2.303091 0.35550839 0.11079416
7.3811784 0.32304364 0.29170555
7.8272686 0.62880462 0.23497675
2.3564117 0.27581415 0.048785396
2.2750669 0.35020691 0.025110427
7.3899412 0.32239336 0.021043599
7.8178616 0.6251651 -0.05352208
7.735548 0.90228558 -0.12533468
2.2439518 0.34457543 -0.058219537
7.4248447 0.32002109 -0.25173032
7.8219109 0.62260377 -0.33971077
7.772933 0.90183377 -0.41365552
2.2857983 0.35042956 -0.14427485
7.4138603 0.31462163 -0.52384001
7.8135047 0.61781776 -0.62786829
7.7370272 0.89643621 -0.69800818
2.3302832 0.35654181 -0.23413649
7.3360925 0.3092691 -0.79014283
7.7449932 0.60900015 -0.90988678
2.61853 0.30269638 -0.33365452
2.5347939 0.38719884 -0.35020259
7.323216 0.30270851 -1.0619389
7.7463217 0.60475171 -1.199927
2.5830038 0.29758462 -0.42750525
2.5885139 0.39498869 -0.45666769
4.4504786 0.18053913 -0.81451458
7.6724439 0.59534663 -1.4824783
2.5833507 0.29602566 -0.52638197
2.6020069 0.39621121 -0.56040919
3.6269691 0.14364523 -0.80497593
3.411315 0.26314518 -0.79235721
2.5948532 0.29706845 -0.63123429
3.1783135 0.48510143 -0.81169993
3.0906119 0.11948564 -0.80910516
2.955878 0.22578184 -0.8056004
2.5892758 0.2957432 -0.73583406
2.5429857 0.38822308 -0.75516176
6.1659241 0.23109844 1.9062368
6.3985486 0.48553863 1.9059032
6.6066785 0.75442231 1.9046108
6.8119082 1.036582 1.9019235
7.194571 0.27417901 1.9223117
7.470067 0.56488138 1.9178895
7.68151 0.87131876 1.900719
7.7689667 1.1727873 1.8506542
7.8346639 0.29870933 1.7805657
7.7700238 0.58865499 1.6878848
7.7099786 0.87154955 1.6032984
7.7267165 1.1607548 1.5361891
7.8382277 0.30062625 1.4778841
7.7781324 0.58722138 1.3891584
7.7268867 0.86950022 1.3085936
7.7074676 1.1548371 1.2366008
7.8260894 0.29947674 1.1785793
7.7874665 0.58396214 1.0969739
7.7353344 0.86634952 1.0181102
2.3712869 0.35314047 0.29071629
7.366683 0.28060928 0.83355033
7.7885356 0.58390564 0.80726331
7.7229347 0.86182189 0.72909051
2.3044596 0.34203723 0.19677733
7.3832264 0.28007802 0.5635879
7.8079214 0.5828923 0.52155453
2.4319682 0.27078789 0.14002176
2.3052289 0.3413702 0.11079416
7.3999963 0.27838609 0.29237622
7.8160276 0.57965666 0.23452811
2.3550787 0.26101986 0.04872372
2.3108063 0.341207 0.025481304
7.413765 0.27786744 0.021106185
7.8225474 0.57725739 -0.053528905
7.7608151 0.85699904 -0.12565652
2.2697599 0.3342962 -0.058834802
7.4366565 0.2748262 -0.25206885
7.8485003 0.57628036 -0.34070557
7.784276 0.85477698 -0.41397226
2.3264158 0.34205988 -0.14670329
7.4276137 0.26955923 -0.52468503
7.8131719 0.56957346 -0.62754887
7.7542629 0.85024858 -0.69907933
2.4141457 0.3542273 -0.24233966
7.3477883 0.26460767 -0.7912128
7.7317433 0.56024599 -0.90790921
7.6243258 0.83398104 -0.97082537
2.5567286 0.37451035 -0.35290897
5.4793606 0.19282164 -0.79437506
7.741015 0.5565719 -1.1985533
2.585762 0.28183693 -0.4276675
2.5918634 0.37924105 -0.45683947
4.4485531 0.15312658 -0.81397486
4.0764723 0.29116377 -0.78730059
2.6046066 0.28228104 -0.53035015
2.6063247 0.3805207 -0.56082565
3.6199765 0.12112667 -0.80324388
3.4468775 0.24462262 -0.80025375
2.6033919 0.28187355 -0.63287878
2.9816837 0.43638581 -0.76078504
3.1067576 0.10102282 -0.8131544
3.0014889 0.21074986 -0.81766343
2.6073074 0.28160694 -0.74045342
2.5567124 0.37428007 -0.75854182
6.1758213 0.19353004 1.9088935
6.4081016 0.44673541 1.9078962
6.6054482 0.71325105 1.9029586
6.8257709 0.99587876 1.9040521
7.1961179 0.23002878 1.9223117
7.4782248 0.51937085 1.9191296
7.723403 0.82810348 1.9097917
7.723033 1.1174297 1.8380444
7.8314767 0.25047529 1.7794586
7.7764139 0.54117149 1.68852
7.725893 0.82536995 1.6055244
7.6938739 1.1075904 1.5282795
7.8448358 0.25268432 1.4788098
7.7894464 0.54002929 1.390561
7.7428632 0.82321942 1.3104192
7.6977892 1.1051372 1.2339368
7.8327208 0.25160986 1.1793233
7.8076982 0.53732401 1.0993387
