# .PCD v0.7 - Point Cloud Data file format
VERSION 0.7
FIELDS x y z
SIZE 4 4 4
TYPE F F F
COUNT 1 1 1
WIDTH 1566
HEIGHT 1
VIEWPOINT 0 0 0 1 0 0 0
POINTS 1566
DATA ascii
0.23179792 -1.2405245 0.0035902425
0 -0 -0
0.70514774 -2.6804404 -0.044604924
0.80716562 -2.6707764 -0.071550295
0.22479288 -1.2065339 -0.041571386
0.2614069 -1.1659359 -0.051730849
0 -0 -0
0 -0 -0
0.21573631 -1.1622047 -0.083445415
0 -0 -0
0 -0 -0
0 -0 -0
0.22394885 -1.2083273 -0.13224328
0 -0 -0
0 -0 -0
0 -0 -0
0.19750834 -1.0705664 -0.15772788
0 -0 -0
0.21348938 -0.81621391 -0.13871612
0.23410453 -0.77725732 -0.14157042
0.19087709 -1.0390946 -0.19319536
0.18864331 -0.84930575 -0.16759931
0.20809509 -0.79758024 -0.16686288
0.23134013 -0.76895386 -0.17097582
0 -0 -0
0 -0 -0
0.21119736 -0.80981767 -0.2022675
0 -0 -0
0 -0 -0
0.17876421 -0.80943227 -0.22526391
0.1979752 -0.75993317 -0.22172843
0.21921216 -0.72762877 -0.22308397
0.20214339 -1.1198348 0.35155284
0 -0 0
0.69742954 -2.6774013 0.79246342
0.80509794 -2.6770155 0.77162534
0.22062163 -1.217823 0.33044568
0.26087156 -1.1854883 0.31076109
0 -0 0
0.80639923 -2.6929266 0.66212702
0.21609488 -1.1927168 0.27527902
0.26376888 -1.1978579 0.26568362
0.49992728 -1.9281635 0.41160029
0.7635057 -2.5563412 0.52453828
0.22119614 -1.2192956 0.2334768
0.26961863 -1.2259514 0.22354877
0.50143862 -1.9380298 0.33689857
0.74155062 -2.4863131 0.4116779
0.22053397 -1.2162499 0.18601313
0.27375743 -1.2477808 0.17944413
0.67172611 -2.6017973 0.35147497
0.79066747 -2.6596363 0.33646047
0.22086039 -1.2192624 0.14010477
0.25513574 -1.1630005 0.12306345
0.68909258 -2.6734962 0.25903499
0.78665906 -2.6508949 0.23355736
0.22054386 -1.2186062 0.094463721
0.23399757 -1.0682484 0.072846152
0.69954455 -2.7167938 0.16053085
0.78598511 -2.6518478 0.1314998
0.22276036 -1.2330638 0.049472377
0.26056343 -1.1923146 0.036520701
0.69568032 -2.7074604 0.057481654
0.7877003 -2.6617265 0.030280862
0.22080667 -1.2232256 0.0035361894
0.26769647 -1.227111 -0.0085711759
0.69663781 -2.7157092 -0.045119844
0.7916128 -2.6785548 -0.071627207
0.21862465 -1.2147758 -0.041808356
0.24787045 -1.1382324 -0.050433248
0 -0 -0
0 -0 -0
0.21669871 -1.2086723 -0.086684644
0.23126955 -1.0646813 -0.087277122
0 -0 -0
0 -0 -0
0.21653049 -1.2096786 -0.13224328
0 -0 -0
0 -0 -0
0.23077436 -0.78312618 -0.11150192
0.20395409 -1.1448326 -0.16848207
0 -0 -0
0 -0 -0
0.22098152 -0.75032914 -0.13641615
0.19720986 -1.1119205 -0.20650677
0.19253783 -0.89268166 -0.17592253
0.20778798 -0.81688964 -0.17063268
0 -0 -0
0.17821728 -1.0104755 -0.22754967
0 -0 -0
0 -0 -0
0 -0 -0
0.16830646 -0.95956838 -0.2548542
0.17055713 -0.79541701 -0.22106808
0.19283481 -0.75926805 -0.22118497
0.21745479 -0.73816419 -0.22590068
0.21117188 -1.2123573 0.38018477
0.26026756 -1.2167528 0.36956415
0.68098819 -2.6816304 0.79246342
0.79164839 -2.6920781 0.77455229
0.21530811 -1.2315261 0.33379915
0.25177115 -1.1785403 0.30852896
0 -0 0
0.78904003 -2.6950214 0.66143924
0.21364325 -1.2218777 0.28170145
0.24885438 -1.1640913 0.25785071
0.41273814 -1.6330652 0.34805924
0 -0 0
0.21438845 -1.224502 0.23421742
0.26723027 -1.251653 0.22793208
0.48977882 -1.9420263 0.33706453
0.73374557 -2.5164168 0.41590908
0.21426024 -1.2243987 0.18705483
0.24918139 -1.1700155 0.16803761
0.58097923 -2.3087432 0.31139904
0.7676844 -2.6415586 0.33357137
0.21097943 -1.2068909 0.13853182
0.25566059 -1.2005409 0.12686743
0.676314 -2.6921585 0.26043618
0.76593685 -2.6403599 0.23221073
0.21254784 -1.2169899 0.094235547
0.25711343 -1.2092279 0.082350716
0.68067431 -2.7123199 0.16001669
0.77359051 -2.6700525 0.13216466
0.21570504 -1.2373606 0.049590733
0.25531667 -1.203669 0.036819804
0.68148321 -2.7213764 0.057687242
0.77635503 -2.6837997 0.030477209
0.21003658 -1.2058394 0.0034821369
0.25415513 -1.2003601 -0.0083732754
0.68650883 -2.7461231 -0.045554306
0.77849191 -2.6948864 -0.071934842
0.21185078 -1.2200333 -0.04194377
0.25389677 -1.2013125 -0.053158205
0 -0 -0
0 -0 -0
0.21097842 -1.2198083 -0.087388828
0.24488229 -1.1616666 -0.095102526
0 -0 -0
0 -0 -0
0.21197999 -1.2276404 -0.13406214
0 -0 -0
0.20487277 -0.82311875 -0.10736718
0 -0 -0
0.20497032 -1.1928804 -0.17536473
0 -0 -0
0 -0 -0
0.21964356 -0.76303124 -0.13847786
0.17976984 -1.0510548 -0.19499421
0.18987273 -0.90730202 -0.17857082
0.20088549 -0.81053859 -0.1690454
0.22269726 -0.77455491 -0.17160058
0.17266844 -1.0153999 -0.22841571
0.18796976 -0.90024614 -0.21297985
0 -0 -0
0 -0 -0
0.16531864 -0.97775334 -0.2594097
0.16744208 -0.80495161 -0.22342825
0.19187112 -0.77538413 -0.22553259
0.21424885 -0.74409479 -0.22730905
0.18775336 -1.118462 0.35037211
0.25162825 -1.2126951 0.36785582
0.67144811 -2.7137547 0.80072409
0.77857667 -2.7089283 0.7780112
0.20758702 -1.2318714 0.33354121
0.25220132 -1.2170585 0.31820151
0 -0 0
0.77355987 -2.7035553 0.66235632
0.2058178 -1.2212423 0.28125855
0.24488211 -1.180908 0.26123792
0.41090477 -1.668849 0.35514185
0 -0 0
0.20474505 -1.2131972 0.23181044
0.24856448 -1.2002461 0.21828879
0.46020755 -1.8731709 0.32461753
0.51774353 -1.8170413 0.29978678
0.20855264 -1.2364163 0.18869172
0.24500255 -1.1860694 0.17012416
0.57671702 -2.3527124 0.31684625
0.75091922 -2.6443095 0.3333306
0.20373522 -1.2091427 0.13864417
0.24788699 -1.2001388 0.12666181
0.65694267 -2.6846523 0.25931519
0.76086271 -2.6843162 0.23566149
0.20606962 -1.2241707 0.094691887
0.2521072 -1.2225095 0.083148301
0.66615266 -2.7251737 0.16053085
0.76834798 -2.714154 0.13411175
0.20893648 -1.243588 0.049787991
0.24268983 -1.1797575 0.036042131
0.66927356 -2.7439616 0.058077849
0.76993567 -2.7241158 0.030880809
0.20395814 -1.2149951 0.0035048961
0.25523245 -1.2430376 -0.0086598899
0.65829211 -2.7036524 -0.044781927
0.76791555 -2.7207782 -0.072498828
0.20287633 -1.2124386 -0.04163909
0.24291033 -1.1852309 -0.052379645
0.65345329 -2.6909294 -0.14638422
0 -0 -0
0.20512956 -1.2309194 -0.088093005
0.23136191 -1.1318957 -0.09254729
0 -0 -0
0 -0 -0
0.20379068 -1.2249949 -0.13363418
0 -0 -0
0 -0 -0
0 -0 -0
0.19764708 -1.1941155 -0.17536473
0 -0 -0
0 -0 -0
0 -0 -0
0.18179131 -1.1035802 -0.20452806
0 -0 -0
0.1968281 -0.81556702 -0.16983904
0.22508173 -0.8013308 -0.1772234
0.17211412 -1.0511246 -0.23621
0.18244241 -0.90138251 -0.21297985
0 -0 -0
0 -0 -0
0 -0 -0
0.17241767 -0.8551541 -0.2370647
0.18305203 -0.75970608 -0.22064152
0.20889965 -0.7426244 -0.22646402
0.19307829 -1.19505 0.3739861
0.22811791 -1.1343336 0.34365478
0 -0 0
0.75855285 -2.7015901 0.77455229
0.20188087 -1.2445662 0.33663672
0.24243987 -1.2071855 0.31522533
0.31380603 -1.3068261 0.33043528
0.7572186 -2.7091882 0.66258556
0.19816437 -1.2215196 0.28103706
0.23878698 -1.1881373 0.26250809
0.35088894 -1.4637309 0.31102735
0 -0 0
0.2001337 -1.2318906 0.23514318
0.24371374 -1.2142971 0.22056811
0.35212815 -1.4721869 0.25474843
0 -0 0
0.19969432 -1.2298641 0.18750125
0.23713723 -1.1846373 0.16970684
0.51255655 -2.1478806 0.28883201
0.71849525 -2.5905137 0.32598746
0.19965304 -1.2309679 0.14100361
0.24149454 -1.206514 0.12717585
0.64207262 -2.6954126 0.25996912
0.73214871 -2.6447587 0.2317899
0.19695956 -1.2155694 0.09393131
0.24245051 -1.2132704 0.082417175
1.7927192 -7.5339789 0.44314513
0.74103278 -2.6803074 0.13221215
0.20433272 -1.2635882 0.050537568
0.23700956 -1.1890665 0.036281414
0.6484983 -2.7314799 0.057728354
0.74602282 -2.7027636 0.030586289
0.19777519 -1.2241211 0.0035276548
0.24213731 -1.2171191 -0.0084688133
1.2278122 -5.1808071 -0.085685864
0.74084705 -2.6878531 -0.07149902
0.19495648 -1.2107006 -0.041537534
0.23816282 -1.1994381 -0.052941937
0.23635076 -1.0000144 -0.05432
0 -0 -0
0.1964674 -1.2252604 -0.087600082
0.23312555 -1.1772959 -0.096140586
0 -0 -0
0 -0 -0
0.19375615 -1.2105139 -0.13192229
0 -0 -0
0 -0 -0
0 -0 -0
0.19031639 -1.1953058 -0.17536473
0 -0 -0
0 -0 -0
0.21861139 -0.79606795 -0.14397573
0.17347716 -1.0949593 -0.20272923
0.19595316 -0.99724412 -0.19578475
0.19518149 -0.83107173 -0.17281519
0 -0 -0
0.16976106 -1.0781995 -0.2420557
0.18215548 -0.92925364 -0.21929705
0 -0 -0
0 -0 -0
0.15330766 -0.97970843 -0.2594097
0.16883157 -0.86472005 -0.23942487
0.18343997 -0.78236514 -0.22689122
0 -0 -0
0.17504017 -1.1272906 0.35243833
0.22994833 -1.1808771 0.35732126
0.29359418 -1.2523228 0.36842117
0.73711914 -2.6885302 0.7694968
0.1943894 -1.2467362 0.33689469
0.23650748 -1.2162579 0.31720945
0.3031303 -1.2973797 0.32757023
0.63730979 -2.3353562 0.57019043
0.19036505 -1.2207855 0.28059414
0.22943868 -1.1790274 0.26017943
0.32721955 -1.4029113 0.29767159
0.4596408 -1.6890645 0.34416193
0.1936326 -1.239892 0.23643924
0.23344129 -1.2012732 0.21793813
0.30196247 -1.2975935 0.2242118
0.51949072 -1.911895 0.31436083
0.1933642 -1.2388824 0.18869172
0.23702367 -1.2230133 0.1749928
0 -0 0
0.69091141 -2.5517535 0.32057038
0.19010636 -1.2194062 0.13954301
0.23389772 -1.2069964 0.12707303
0 -0 0
0.71720672 -2.654011 0.23221073
0.19133854 -1.2285779 0.094844013
0.23557 -1.2176741 0.082616575
1.755914 -7.5856881 0.44554451
0.71832645 -2.661659 0.13107239
0.19366001 -1.2460582 0.049787991
0.23160283 -1.200313 0.036580522
1.7008009 -7.3645587 0.15542249
0.72396207 -2.6870146 0.030357221
0.19056728 -1.227288 0.0035333447
0.23542102 -1.2225096 -0.0084961094
1.1975725 -5.1950636 -0.085798502
0.72460055 -2.6933138 -0.071524665
0.19027503 -1.229652 -0.042146884
0.22891311 -1.1910658 -0.052509405
0 -0 -0
0 -0 -0
0.19304655 -1.2530617 -0.089501366
0.23302707 -1.2159058 -0.099174924
0 -0 -0
0 -0 -0
0.18813829 -1.2234726 -0.1332062
0.19883037 -1.0399262 -0.12400145
0 -0 -0
0 -0 -0
0.18297856 -1.1964511 -0.17536473
0.2089244 -1.0960385 -0.17231208
0.20046791 -0.87528014 -0.14763938
0.215763 -0.80500662 -0.1453502
0.16853091 -1.1076729 -0.20488782
0.20065176 -1.0553429 -0.20694543
0.19029668 -0.83320916 -0.1730136
0.21295498 -0.79552937 -0.17534913
0.15934815 -1.0541227 -0.23642649
0.18770529 -0.98969734 -0.23328513
0 -0 -0
0 -0 -0
0 -0 -0
0.16262704 -0.86099851 -0.23811367
0.18355653 -0.80505675 -0.23314092
0.19977078 -0.74513203 -0.22646402
0.17727222 -1.1897693 0.37162468
0.2170199 -1.1521202 0.34821028
0 -0 0
0.72235298 -2.6995208 0.77135932
0.18616398 -1.2440833 0.33586285
0.23029375 -1.2243507 0.31894553
0.30290887 -1.3333055 0.33616537
0 -0 0
0.18878855 -1.2614721 0.28967413
0.22219998 -1.1804131 0.26017943
0.31427348 -1.3857915 0.2936244
0.49384251 -1.8597107 0.37830803
0.18587545 -1.2400849 0.23625408
0.22642976 -1.204618 0.21828879
0.29073068 -1.2849946 0.22172241
0.51838064 -1.9551424 0.32094267
0.18531944 -1.2371118 0.18824531
0.22878517 -1.2205513 0.17443639
0 -0 0
0.63264239 -2.3946986 0.30034664
0.18320879 -1.2244806 0.13999242
0.22703704 -1.211342 0.12738147
0.27416855 -1.2170212 0.11704681
0.70268679 -2.6651063 0.23279987
0.18497565 -1.237618 0.095452473
0.22754355 -1.2161543 0.082417175
0 -0 0
0.7035073 -2.6718118 0.13135733
0.18763201 -1.2580942 0.050221954
0.22478354 -1.2046592 0.036670253
1.6555808 -7.374856 0.15542249
0.70924067 -2.6981759 0.030433577
0.18288581 -1.2274451 0.0035304998
0.22224042 -1.1934558 -0.0082845604
0 -0 -0
0.71085262 -2.7083452 -0.071806654
0.18272644 -1.2307963 -0.042146884
0.22160056 -1.192448 -0.052509405
0.26891705 -1.2036022 -0.065194555
0 -0 -0
0.18389595 -1.2443546 -0.088797189
0.21484691 -1.1594855 -0.094463713
0 -0 -0
0 -0 -0
0.18222359 -1.2354238 -0.13438313
0.22024746 -1.1915331 -0.14191534
0 -0 -0
0 -0 -0
0.1797985 -1.2259479 -0.17952302
0.20362803 -1.1050751 -0.17353307
0 -0 -0
0.20608479 -0.78820664 -0.14208584
0.16158918 -1.1077127 -0.20470794
0.18725047 -1.0188891 -0.19956803
0.19367516 -0.87263459 -0.18095
0.20955238 -0.80249912 -0.17659865
0.15889707 -1.0966269 -0.24573635
0.18531789 -1.0109538 -0.23802303
0 -0 -0
0.21168898 -0.80952537 -0.21124759
0 -0 -0
0.17172348 -0.94077349 -0.25987956
0.1765316 -0.796772 -0.23042366
0.19689444 -0.75284183 -0.22843572
0.17118362 -1.1993473 0.37428123
0.22196311 -1.2194483 0.36814055
0 -0 0
0.70431471 -2.6983061 0.76976281
0.18030944 -1.2576351 0.33921629
0.22052491 -1.2133498 0.31572136
0.26102167 -1.1824703 0.29772601
0.35581395 -1.3698125 0.3333562
0.17827648 -1.2433009 0.28524488
0.21775131 -1.1971391 0.26356661
0.30133921 -1.36761 0.28937483
0.49570671 -1.9139992 0.38872549
0.17938057 -1.2489839 0.2377353
0.21797854 -1.2001728 0.2172368
0.25595385 -1.1644356 0.20064551
0.51651168 -1.9974902 0.32736775
0.17772518 -1.2382256 0.18824531
0.22270346 -1.2297275 0.17554922
0.25887153 -1.1806573 0.15809889
0.6350261 -2.4648676 0.30865282
0.17682011 -1.2334507 0.14089124
0.21960013 -1.2127123 0.12738147
0.26478028 -1.2099272 0.1162061
0.69723845 -2.7118306 0.23650314
0.17865032 -1.2476128 0.096136987
0.22025457 -1.2185096 0.082483642
0.26435956 -1.2094196 0.070839234
0.69976902 -2.7254205 0.13377932
0.1800503 -1.260211 0.050261408
0.21880618 -1.2138854 0.036909536
0.26220599 -1.2024844 0.025307551
0.70111275 -2.7354102 0.030804452
0.17181846 -1.2037951 0.0034593777
0.21597549 -1.2007021 -0.0083255051
0.26578459 -1.221251 -0.020114051
0.69694746 -2.723309 -0.072088651
0.17432679 -1.2259576 -0.04194377
0.21533869 -1.1996852 -0.052768923
0.25835037 -1.1905912 -0.064402722
0 -0 -0
0.17569816 -1.241509 -0.08851552
0.21457657 -1.1990494 -0.097577892
0 -0 -0
0 -0 -0
0.17477879 -1.2375032 -0.13449012
0.21380489 -1.1977509 -0.14249696
0.19464545 -0.89882773 -0.11640863
0 -0 -0
0.1674569 -1.192726 -0.1745044
0.19978672 -1.1228448 -0.17612767
0 -0 -0
0.20635477 -0.80950302 -0.14569382
0.16349454 -1.1710347 -0.21622051
0.18648504 -1.0509578 -0.20562127
0.18645874 -0.86518347 -0.17916431
0.20848522 -0.81893522 -0.1799307
0.1561873 -1.1265922 -0.25223157
0.17333899 -0.97945523 -0.23035213
0.18339425 -0.85139692 -0.21048974
0 -0 -0
0.13194971 -0.95840412 -0.2530826
0.1614265 -0.91614968 -0.25279909
0.17649709 -0.82042056 -0.23694509
0.19274554 -0.75589526 -0.22899906
0.15800749 -1.1577749 0.36099839
0.21016379 -1.1962394 0.36073789
0.25432029 -1.182327 0.34639299
0.68417901 -2.6885641 0.76577163
0.1702269 -1.2414881 0.33457303
0.21458222 -1.2232678 0.3179535
0.26271513 -1.2258284 0.30823115
0 -0 0
0.17104182 -1.2472696 0.28590924
0.20955671 -1.1936396 0.26250809
0.25504395 -1.1922687 0.25193822
0.46666065 -1.8485063 0.37483555
0.17010878 -1.2383782 0.23551348
0.20789056 -1.1859721 0.21443148
0.25065634 -1.1746639 0.20213914
0.48928002 -1.941245 0.31765175
0.1694518 -1.2343944 0.18750125
0.21327844 -1.2203405 0.17401907
0.25059021 -1.1773742 0.15745042
0.6397149 -2.5476704 0.31852394
0.16816872 -1.2266366 0.13999242
0.21386723 -1.2238353 0.12840956
0.25735131 -1.211529 0.1162061
0.67283535 -2.6851275 0.23380986
0.1713976 -1.2516493 0.096365161
0.21380252 -1.2257358 0.082882442
0.26314989 -1.2403178 0.072553091
0.68303299 -2.7296629 0.13377932
0.17217913 -1.2603019 0.050221954
0.21700588 -1.2477025 0.037896581
0.24902661 -1.1766832 0.024731914
0.68140751 -2.728019 0.030673554
0.17037861 -1.2484224 0.0035845528
0.21185282 -1.2207245 -0.0084551647
0.25849277 -1.2238371 -0.020130144
0.68361109 -2.7411137 -0.072447561
0.16908981 -1.2438395 -0.042519268
0.20763257 -1.1990151 -0.052682418
0.24836516 -1.1794508 -0.063716464
0 -0 -0
0.16767596 -1.239598 -0.088304259
0.20840232 -1.2072195 -0.098136857
0 -0 -0
0 -0 -0
0.16691633 -1.2365817 -0.13427614
0.20830545 -1.2098072 -0.14377654
0 -0 -0
0 -0 -0
0.16447751 -1.2261001 -0.17923623
0.19456483 -1.13379 -0.17765389
0.18472803 -0.88075328 -0.14796387
0 -0 -0
0.15461563 -1.1593401 -0.21388201
0.18516731 -1.0820864 -0.21148536
0.19859922 -0.94977647 -0.19642599
0.20463382 -0.82494557 -0.18097197
0.14773415 -1.1159152 -0.24963346
0.16781756 -0.98338139 -0.23102899
0.18651828 -0.89246738 -0.22035645
0 -0 -0
0.13640402 -1.0378498 -0.27383539
0.16630739 -0.97896212 -0.26984468
0.17322941 -0.82996672 -0.23939063
0.1867156 -0.75147653 -0.22730905
0.15953754 -1.2250438 0.38166064
0.20538111 -1.2126288 0.36529338
0.24823923 -1.1895117 0.34804511
0.64075845 -2.5841799 0.73490661
0.16360904 -1.2501732 0.33663672
0.20771843 -1.2283822 0.31894553
0.24925862 -1.1988949 0.30106854
0.33524731 -1.3589553 0.32968789
0.1633855 -1.2482957 0.28590924
0.20304418 -1.1997211 0.26356661
0.24672864 -1.1890168 0.25092641
0.36673164 -1.4911678 0.30191335
0.16250703 -1.2393987 0.23551348
0.20520252 -1.2144063 0.21934079
0.25383735 -1.2263944 0.21076906
0.45899048 -1.8693963 0.30542836
0.16161755 -1.2334499 0.18720362
0.20808953 -1.2352974 0.17596653
0.25458714 -1.23327 0.16471337
0.6372785 -2.6055486 0.3252652
0.16128369 -1.2325718 0.14055417
0.20833647 -1.2368952 0.12964329
0.2517207 -1.2218616 0.11704681
0.66036355 -2.705662 0.23524065
0.16061324 -1.2289486 0.094539776
0.20545043 -1.2221047 0.082550116
0.25271755 -1.2282188 0.071753286
0.66863638 -2.7435071 0.13425422
0.16444282 -1.2613348 0.050221954
0.20521531 -1.2243655 0.037148822
0.24702792 -1.2036527 0.025266435
0.65709227 -2.7010574 0.030324496
0.16413575 -1.2603521 0.0036158462
0.20551316 -1.2289053 -0.0085029341
0.24977484 -1.219523 -0.020033596
0.66017258 -2.7180567 -0.071729749
0.15926929 -1.2280046 -0.04194377
0.1999428 -1.1982957 -0.052595913
0.24551849 -1.2024778 -0.064877823
0 -0 -0
0.16313025 -1.2643472 -0.089994296
0.20164518 -1.2124087 -0.098456256
0.22956006 -1.1252197 -0.10291604
0 -0 -0
0.16300727 -1.26618 -0.13737893
0.20104082 -1.2120423 -0.14389285
0 -0 -0
0 -0 -0
0.15883464 -1.2418114 -0.18138708
0.1874432 -1.1339874 -0.17750129
0 -0 -0
0.20520657 -0.84835994 -0.15222256
0.14849158 -1.1680737 -0.21532109
0.17772587 -1.0783578 -0.21053953
0 -0 -0
0.19864959 -0.82238275 -0.18013896
0.1379517 -1.0935543 -0.24443729
0.16241243 -0.9882378 -0.23193143
0.2036203 -1.0050563 -0.24784228
0 -0 -0
0.13664316 -1.0914646 -0.28775495
0.16278994 -0.99520171 -0.27404052
0.16737019 -0.82724094 -0.23830372
0 -0 -0
0.15001911 -1.2098805 0.37664264
0.19701102 -1.2081895 0.36358505
0.24017341 -1.1872435 0.34694371
0.32172117 -1.3324494 0.37836251
0.15474014 -1.2415662 0.33405712
0.20111127 -1.2353706 0.32043362
0.24132216 -1.1975459 0.30035228
0.32440194 -1.3505758 0.32716593
0.15910044 -1.2763697 0.29211023
0.20212305 -1.2404935 0.2722463
0.23962143 -1.1914685 0.25112879
0.39596018 -1.6537027 0.3343232
0.15599515 -1.2491486 0.23717983
0.19679876 -1.209812 0.21828879
0.23990744 -1.196022 0.20529239
0 -0 0
0.15649527 -1.2540436 0.19017984
0.19860393 -1.2248209 0.17429727
0.23359464 -1.1677209 0.15576437
0 -0 0
0.15568374 -1.2493149 0.14235184
0.19708164 -1.215567 0.12727866
0.24246462 -1.2145959 0.1162061
0.6059767 -2.5506701 0.22143762
0.16008881 -1.2863108 0.098875068
0.19826663 -1.2253122 0.082683042
0.24459097 -1.226809 0.0715819
0.5660221 -2.3860118 0.11658794
0.15793128 -1.2722362 0.050616477
0.19897228 -1.233496 0.037388101
0.23749293 -1.1943593 0.025040291
1.7282156 -7.2987385 0.081821598
0.15689149 -1.2653052 0.003627226
0.1986044 -1.2340922 -0.0085302303
0.23644905 -1.1916101 -0.019550858
1.2048624 -5.0968022 -0.13430741
0.15344587 -1.2428452 -0.042417709
0.19559559 -1.2182422 -0.05341772
0.23522915 -1.1892672 -0.06408599
0 -0 -0
0.15500458 -1.2623541 -0.089783043
0.20113236 -1.2569317 -0.1019697
0.19658217 -0.99469733 -0.090866029
0 -0 -0
0.15438877 -1.2602482 -0.13662998
0.1961042 -1.2289459 -0.14575404
0.20918669 -1.0599345 -0.13675189
0 -0 -0
0.15396135 -1.2653583 -0.18468502
0.17924017 -1.127308 -0.17628029
0 -0 -0
0 -0 -0
0.14380094 -1.189471 -0.21909866
0.17494918 -1.1036739 -0.21526863
0.19882454 -1.012733 -0.20892583
0.19292836 -0.82072979 -0.1795142
0.13984121 -1.166111 -0.26045886
0.1750524 -1.1075753 -0.259682
0.19146055 -0.97576427 -0.24032477
0 -0 -0
0.13028635 -1.0951645 -0.2885142
0.15443145 -0.98188257 -0.27010691
0.16617729 -0.84808511 -0.24400997
0.18671663 -0.79293782 -0.23913924
0.14404535 -1.2231137 0.3804799
0.19033635 -1.2141107 0.36500865
0.23380825 -1.1934118 0.34832048
0.28289101 -1.2039615 0.34137774
0.14825517 -1.2520868 0.33663672
0.19217931 -1.2279675 0.31820151
0.23322567 -1.1951917 0.29939729
0.29174167 -1.2482805 0.30194643
0.14782532 -1.2482699 0.28546634
0.19223897 -1.227227 0.2690708
0.23099586 -1.1861875 0.24971227
0.38113073 -1.6360331 0.33027199
0.1492539 -1.2578892 0.23866105
0.18815495 -1.2032155 0.21688615
0.23519635 -1.2110242 0.20761581
0.3183428 -1.3688896 0.22299874
0.15066054 -1.2706919 0.19256081
0.19016983 -1.2201456 0.17346266
0.23604029 -1.2187791 0.16237885
0.28560397 -1.2330849 0.15348376
0.14754786 -1.2462995 0.14190242
0.18732187 -1.2020108 0.1257365
0.23368505 -1.209218 0.11555221
0 -0 0
0.15078829 -1.2753865 0.097962379
0.19212449 -1.2353791 0.083281226
0.23611283 -1.2233853 0.07129626
0.28163722 -1.2205123 0.059552453
0.15082407 -1.2791353 0.050853182
0.19277804 -1.2435834 0.037657298
0.23129381 -1.2016847 0.025163643
1.6726265 -7.2624326 0.081298009
0.15134703 -1.2851135 0.0036812786
0.18919455 -1.2234288 -0.0084483409
0.23535638 -1.2254421 -0.02008187
1.1733422 -5.1031251 -0.13428178
0.14663166 -1.2507118 -0.042654682
0.18735531 -1.2144824 -0.053201456
0.23036826 -1.2034385 -0.064772248
0 -0 -0
0.14679402 -1.2593181 -0.089501366
0.19084135 -1.2413932 -0.10061224
0.19908206 -1.0408856 -0.094971962
0 -0 -0
0.14745702 -1.268085 -0.13737893
0.18750644 -1.2232538 -0.14493977
0.22408232 -1.1732621 -0.1511931
0 -0 -0
0.14539981 -1.2593971 -0.18368129
0.18589646 -1.2172898 -0.19016904
0.19933689 -1.0458778 -0.17505811
0.19763839 -0.863298 -0.15445606
0.13683598 -1.1932628 -0.2196383
0.18162188 -1.193066 -0.23248257
0.1958992 -1.0312661 -0.2124972
0.19072241 -0.83429337 -0.18222149
0.13080847 -1.1504565 -0.25677824
0.15860528 -1.0450581 -0.24479145
0.19199656 -1.0112991 -0.24878195
0 -0 -0
0.12052919 -1.0690254 -0.28142789
0.14566626 -0.96468204 -0.26512435
0.16688581 -0.8802914 -0.25297692
0 -0 -0
0.1346311 -1.2068825 0.37516677
0.18459497 -1.226631 0.36842525
0.22630216 -1.1938794 0.34804511
0.27141842 -1.1878196 0.33632225
0.13895398 -1.2385709 0.33276734
0.18636797 -1.2406197 0.32117766
0.2300308 -1.2185475 0.30488861
0.31815746 -1.4000148 0.33817083
0.13994582 -1.2472153 0.28502342
0.18310669 -1.2177523 0.26674214
0.22679515 -1.2039431 0.25315237
0.2952207 -1.3033997 0.26275143
0.14032502 -1.2480392 0.2366244
0.18310677 -1.2199248 0.21969146
0.22503027 -1.1979067 0.20512642
0.29795814 -1.317834 0.21437965
0.14021122 -1.248008 0.18898936
0.18297257 -1.2232482 0.17374086
0.22143796 -1.1821948 0.15732072
0.27061832 -1.2018857 0.14939086
0.14034101 -1.2511313 0.14235184
0.18391551 -1.229699 0.12851237
0.22991924 -1.2302028 0.11742047
0.28043538 -1.2483323 0.10806762
0.14096195 -1.2584513 0.096593335
0.1854244 -1.2424558 0.083680019
0.23244852 -1.2454209 0.07249596
0.27370578 -1.2202681 0.059457477
0.14374901 -1.286988 0.051129341
0.18749683 -1.2605617 0.038135868
0.22483075 -1.2079959 0.025266435
0.26496777 -1.1836326 0.013231516
0.14301541 -1.2820426 0.0036698992
0.18241794 -1.2295125 -0.0084824618
0.22454673 -1.209168 -0.019792227
0.25399756 -1.1365819 -0.029866032
0.14182198 -1.2774143 -0.043534853
0.1797536 -1.2146209 -0.053158205
0.22334321 -1.2067932 -0.064877823
0.26222554 -1.1747488 -0.075095147
0.14070542 -1.2750676 -0.090557635
0.18060327 -1.2247902 -0.099174924
0.22184883 -1.1997718 -0.10934272
0 -0 -0
0.14087 -1.2798371 -0.13855585
0.18303083 -1.2450169 -0.14738257
0.21039434 -1.1394936 -0.14667237
0 -0 -0
0.13766956 -1.2602656 -0.18368129
0.17985578 -1.228186 -0.19169527
0.2023917 -1.0985135 -0.1836569
0.1910539 -0.85872477 -0.15342522
0.13311808 -1.2273303 -0.22575437
0.16210133 -1.1105961 -0.21621445
0.18797477 -1.0237726 -0.21071151
0.18856929 -0.84881508 -0.18513703
0.12249485 -1.1395892 -0.25418013
0.15387313 -1.0575805 -0.24749881
0.18455969 -1.0057658 -0.2471375
0.19038382 -0.8555721 -0.22128369
0.12288401 -1.1534388 -0.30344605
0.14154126 -0.9779734 -0.26853347
0.16980685 -0.9267363 -0.26601976
0.18197475 -0.8176477 -0.24589936
0.1296256 -1.2304904 0.38225096
0.17706503 -1.2277405 0.36842525
0.21966533 -1.1990279 0.34914652
0 -0 0
0.13328627 -1.2576549 0.33766854
0.17944233 -1.2465342 0.32241774
0.22132969 -1.2132488 0.30321735
0.27115458 -1.2280049 0.2962147
0.13383226 -1.2625965 0.28834537
0.17800088 -1.2352978 0.27034101
0.21957901 -1.2062756 0.25335476
0 -0 0
0.13380642 -1.259626 0.23866105
0.17912197 -1.2453876 0.22407478
0.21996529 -1.2118787 0.2072839
0.29071403 -1.3234961 0.21500652
0.13526459 -1.2744117 0.19285841
0.17616582 -1.2292492 0.17443639
0.22265536 -1.2303652 0.1635461
0 -0 0
0.13454627 -1.2697554 0.14437421
0 -0 0
0 -0 0
0 -0 0
0.13711929 -1.2959806 0.099407472
0 -0 0
0 -0 0
0 -0 0
0.13857488 -1.3136822 0.052155085
0 -0 0
0 -0 0
0 -0 0
0.13996543 -1.3286427 0.0038007637
0 -0 -0
0 -0 -0
0 -0 -0
0.13846119 -1.3210018 -0.044990532
0 -0 -0
0 -0 -0
0 -0 -0
0.13504899 -1.2967421 -0.092036419
0 -0 -0
0 -0 -0
0 -0 -0
0.1343497 -1.2935337 -0.13994676
0 -0 -0
0 -0 -0
0 -0 -0
0.13267279 -1.2876669 -0.18755281
0.16449629 -1.1734797 -0.18299572
0.19754869 -1.1104211 -0.18544154
0.18869385 -0.87336165 -0.15583055
0.12678562 -1.2398671 -0.22791298
0.15800093 -1.1310198 -0.21999775
0.18682194 -1.0538588 -0.21666381
0.19037005 -0.88246286 -0.19221763
0.12219013 -1.2063686 -0.26890269
0.16027857 -1.1511359 -0.2691578
0.18058932 -1.0193218 -0.25019148
0 -0 -0
0.11532141 -1.149358 -0.30218062
0 -0 -0
0.16394968 -0.92681313 -0.26574805
0.17573816 -0.81312174 -0.24420935
0.12320419 -1.242672 0.38579306
0.16795629 -1.2174085 0.36500865
0.21598762 -1.2211795 0.35520428
0.25641528 -1.1891763 0.3357901
0.12633434 -1.2661401 0.33973223
0.17007245 -1.2351357 0.31919354
0.21825981 -1.2394494 0.30942491
0.2642267 -1.2325008 0.29690254
0.12724465 -1.2750381 0.2910029
0.17188585 -1.2470168 0.27266973
0.21251224 -1.2095292 0.25375947
0.24865942 -1.1639495 0.23400696
0.12627059 -1.2623791 0.23903136
0.17107451 -1.2435372 0.22354877
0.21116395 -1.2054348 0.20595621
0.24983887 -1.1716721 0.19008957
0.12685239 -1.2693139 0.19196557
0.16848551 -1.2293259 0.17429727
0.20947264 -1.1994747 0.15926614
0.25316882 -1.192492 0.14782593
0.12616082 -1.2646244 0.14370008
0.16989176 -1.2397473 0.12933485
0.21463455 -1.2319506 0.11732706
0.26385656 -1.2458308 0.10756264
0.12896708 -1.2948132 0.099255353
0.16962297 -1.2406834 0.083414167
0.21612106 -1.242278 0.072153188
0.26304999 -1.2440574 0.060454763
0.12873466 -1.2966098 0.051444955
0.16985507 -1.2469212 0.037657298
0.21238191 -1.224455 0.025554253
0.26404846 -1.2513692 0.01395145
0.13042915 -1.3155448 0.0037609353
0.16839306 -1.2395854 -0.008537055
0.21207821 -1.2256256 -0.020017505
0.25836796 -1.2266738 -0.032147642
0.1277048 -1.2949722 -0.044076502
0.16791959 -1.2395059 -0.054153029
0.21224979 -1.231093 -0.066039182
0.25128272 -1.1944817 -0.076153703
0.12563121 -1.2826549 -0.09098015
0.16662601 -1.234817 -0.099813722
0.20896885 -1.213201 -0.11032458
0 -0 -0
0.12602362 -1.2903754 -0.13951878
0.1660177 -1.2343727 -0.14587036
0.20547506 -1.194787 -0.15345344
0 -0 -0
0.12362464 -1.276636 -0.18583213
0.15755524 -1.1764261 -0.18330099
0.18939662 -1.1038321 -0.18414363
0 -0 -0
0.11870524 -1.2357258 -0.22701356
0.15456508 -1.1582476 -0.22510517
0.18894027 -1.1052227 -0.22698113
0.19036207 -0.90946221 -0.19784047
0.1139539 -1.1983485 -0.26695409
0.1511575 -1.1366463 -0.26554796
0.16680168 -0.97633654 -0.2393851
0 -0 -0
0.11053382 -1.1741238 -0.30850771
0.12080131 -0.91362602 -0.25043893
0.16376166 -0.96005654 -0.27498674
0.17488134 -0.83390552 -0.25012445
0.11283568 -1.2139128 0.37664264
0.16211061 -1.2307714 0.36870998
0.20962188 -1.2291154 0.35713172
0.25128514 -1.201106 0.33871692
0.1186531 -1.2678534 0.3399902
0.16249061 -1.2361559 0.31919354
0.20512427 -1.2082144 0.30130732
0.25150624 -1.2093216 0.29094154
0.11914613 -1.2728822 0.29033855
0.16563365 -1.2587067 0.2749984
0.20574088 -1.2146726 0.2545689
0.25126898 -1.2125326 0.24345984
0.11668628 -1.2435619 0.23532832
0.16292833 -1.2406589 0.22284743
0.20392777 -1.2076801 0.20612217
0.24144469 -1.16738 0.18914931
0.12016919 -1.281883 0.19375129
0.16196688 -1.2381918 0.17541011
0.20474221 -1.2163823 0.16134128
0.25325453 -1.2299993 0.15227997
0.11858399 -1.2673534 0.14392479
0.16034663 -1.2259719 0.1277927
0.20608221 -1.2273531 0.11676657
0.25179687 -1.2259525 0.10571101
0.12111256 -1.2965729 0.099331416
0.16213617 -1.2426902 0.083480626
0.20766914 -1.2386576 0.07186754
0.25180018 -1.228035 0.059599947
0.12105425 -1.3003601 0.051563311
0.16361807 -1.2588433 0.037986316
0.20239258 -1.2109435 0.025245875
0.24754578 -1.2098614 0.013471493
0.12346529 -1.3282689 0.0037950741
0.16039836 -1.2376202 -0.0085165827
0.20258074 -1.2150688 -0.019824412
0.25563708 -1.251743 -0.032762911
0.12076837 -1.3066784 -0.044448886
0.16223161 -1.2553751 -0.054801825
0.19994688 -1.2038039 -0.064508297
0.23716688 -1.1627517 -0.074036591
0.11857893 -1.2923417 -0.091613911
0.16133644 -1.2536119 -0.10125104
0.20331432 -1.2252687 -0.11130643
0 -0 -0
0.11783195 -1.2881541 -0.13919781
0.16020946 -1.2491602 -0.14749889
0.20186943 -1.2185364 -0.15634169
0 -0 -0
0.1147169 -1.265543 -0.18411146
0.15746877 -1.2332492 -0.19200052
0.18551622 -1.1224971 -0.18706395
0.20288077 -0.99821633 -0.17765024
0.11015217 -1.2256536 -0.22503482
0.15290743 -1.2020344 -0.23342839
0.17769685 -1.0792824 -0.22142565
0 -0 -0
0.10858729 -1.2213914 -0.27193376
0.14920275 -1.1771783 -0.27479815
0.16049223 -0.97542346 -0.23891526
0.19333836 -0.95109558 -0.24502762
0.10214075 -1.1612877 -0.30496454
0.12713461 -1.0091361 -0.27640066
0.16301563 -0.99238163 -0.2839537
0.1732024 -0.85188776 -0.25519451
0.1047244 -1.2069675 0.37428123
0.15562981 -1.2403033 0.37127244
0.20207623 -1.2303785 0.35713172
0.24276094 -1.196957 0.33712047
0.11053497 -1.2647076 0.33895832
0.15490264 -1.2371297 0.31919354
0.2006835 -1.2276591 0.30584362
0.23831099 -1.182217 0.28406349
0.11158839 -1.2765036 0.2910029
0.15413888 -1.2296371 0.26843572
0.19796869 -1.213979 0.25416419
0.24343787 -1.2121276 0.24307401
0.11042656 -1.2599177 0.23829076
0.15751226 -1.2592194 0.22600342
0.1969884 -1.2118287 0.20662004
0.24281758 -1.2114484 0.19604456
0.11281896 -1.2885067 0.19464415
0.15595783 -1.2519373 0.17721847
0.19886057 -1.2274035 0.16263823
0.23929299 -1.1994032 0.14830744
0.11141092 -1.2749865 0.14471127
0.15540305 -1.2476612 0.12995172
0.19648255 -1.2158172 0.11555221
0.24154708 -1.2137924 0.1045327
0.11315466 -1.2972916 0.099331416
0.15598431 -1.2555437 0.084278211
0.2016553 -1.2497647 0.072438829
0.24523351 -1.2344555 0.059837397
0.11125632 -1.2801734 0.050734825
0.15589088 -1.2598236 0.037986316
0.19876884 -1.235853 0.025739282
0.24031198 -1.2123384 0.013482402
0.11462133 -1.3210315 0.0037723149
0.15598482 -1.264385 -0.0086940117
0.19543816 -1.2182635 -0.019856593
0.2429073 -1.2277907 -0.032096371
0.11206149 -1.2994289 -0.044178061
0.15415984 -1.2533722 -0.054672066
0.19649611 -1.2296606 -0.065828033
0.23873377 -1.2082459 -0.07683865
0.10988161 -1.2840999 -0.09098015
0.15400489 -1.2575465 -0.10149059
0.19390824 -1.2146904 -0.11023531
0.19317859 -0.97921616 -0.099129967
0.11001025 -1.2898434 -0.1393048
0.15566957 -1.275753 -0.15052332
0.19719927 -1.2373871 -0.15860204
0.21623813 -1.0975164 -0.15277386
0.10786575 -1.2770708 -0.18568875
0.1502562 -1.2371354 -0.19245839
0.18265319 -1.1489516 -0.19128223
0.19922568 -1.012008 -0.17988376
0.10435243 -1.246892 -0.2288124
0.14765179 -1.2204971 -0.23683333
0.17674287 -1.1161705 -0.22876681
0.19729456 -1.0038624 -0.21783276
0.10044704 -1.214251 -0.27020171
0.14290944 -1.1858094 -0.27660307
0.15374452 -0.97158951 -0.23774065
0.1985503 -1.0083915 -0.25946981
0.093436316 -1.142608 -0.29990289
0.13493906 -1.1267922 -0.3083939
0.15452076 -0.97815382 -0.27960607
0.16407867 -0.83316445 -0.24927944
0.099926054 -1.2399675 0.38431719
0.14597335 -1.2241012 0.36614752
0.19527285 -1.2363431 0.3585085
0.2367126 -1.2050451 0.338983
0.10347673 -1.2740289 0.34127998
0.14856789 -1.2486385 0.32192171
0.19194072 -1.221193 0.30393359
0.23813893 -1.2199596 0.29277569
0.10146397 -1.2489773 0.2845805
0.14543498 -1.220855 0.26631871
0.19172961 -1.2229109 0.25578305
0.2378688 -1.2232302 0.24500316
0.10061914 -1.2351054 0.2334768
0.14908569 -1.2542964 0.22495143
0.18909232 -1.2100917 0.20612217
0.23726124 -1.2226111 0.19761166
0.10154202 -1.2477793 0.1883941
0.14827316 -1.2528707 0.17721847
0.19208848 -1.2334993 0.16328672
0.23475289 -1.2154696 0.15011314
0.10591794 -1.3043679 0.14796951
0.14716017 -1.2436522 0.12943767
0.19390847 -1.2484825 0.11854143
0.23522572 -1.2211224 0.10503769
0.10543413 -1.3009429 0.099559583
0.14932995 -1.2653955 0.084876403
0.19535996 -1.2598578 0.072952986
0.23935193 -1.244765 0.060264803
0.10299721 -1.2758521 0.050537568
0.14885776 -1.2667125 0.038165774
0.18934962 -1.2251925 0.025492577
0.23211507 -1.2098621 0.01343877
0.10546923 -1.3087519 0.0037353314
0.14834011 -1.2663115 -0.0087008355
0.18811166 -1.2204279 -0.019872684
0.23706108 -1.2380946 -0.032327097
0.1045648 -1.3060696 -0.044381179
0.14832039 -1.2701716 -0.055364117
0.18773519 -1.2229468 -0.065405719
0.23075326 -1.2067471 -0.076651841
0.10239518 -1.289722 -0.091332234
0.14755188 -1.2693594 -0.10236896
0.18735725 -1.2217644 -0.11077087
0.23661739 -1.2394075 -0.12532084
0.1023291 -1.2934676 -0.13962579
0.14818153 -1.279644 -0.15087229
0.18915275 -1.2356319 -0.15822533
0.19910833 -1.0443195 -0.14519607
0.10025949 -1.2806686 -0.18611892
0.14435947 -1.2527609 -0.19474775
0.17604674 -1.1529771 -0.19176896
0.1946715 -1.0219208 -0.18143003
0.095483333 -1.2318169 -0.22593424
0.13668977 -1.1911383 -0.23096925
0.16650186 -1.0949475 -0.22420338
0.19533397 -1.0271537 -0.22262259
0.092920132 -1.2138711 -0.2699852
0.13297567 -1.1634339 -0.27118832
0.15800199 -1.0397834 -0.25418514
0.18147092 -0.95244408 -0.24478284
0.089413829 -1.1827122 -0.31027928
0.12236179 -1.0777392 -0.29475746
0.15082531 -0.9943074 -0.2839537
0.17045903 -0.89447868 -0.26730642
0.092032261 -1.2367461 0.38313651
0.13878267 -1.2278315 0.36700165
0.18797141 -1.239419 0.35905918
0.22859415 -1.2026869 0.3379187
0.094139107 -1.2544075 0.33586285
0.14166348 -1.2562652 0.32365781
0.18516847 -1.2271488 0.30512738
0.23317754 -1.2347882 0.29598543
0.094455428 -1.2583282 0.28657365
0.14276588 -1.2644557 0.27563351
0.18495108 -1.2289063 0.25679487
0.22491716 -1.1957375 0.23921567
0.093924165 -1.2474588 0.23569861
0.13918264 -1.2356211 0.22144477
0.18298018 -1.2200061 0.20761581
0.22756857 -1.2123955 0.19573115
0.091659144 -1.2187964 0.1839298
0.13914837 -1.2409633 0.17541011
0.18422315 -1.2326934 0.16302733
0.22674368 -1.2139596 0.14975199
0.09523607 -1.2693214 0.14392479
0.1414105 -1.2613364 0.13118543
0.18345574 -1.2309384 0.11676657
0.22626881 -1.2147059 0.10436437
0.094322987 -1.259804 0.096365161
0.14089768 -1.2603382 0.084477603
0.18498124 -1.2432578 0.071924672
0.23170969 -1.2462102 0.060264803
0.094869636 -1.2724743 0.050379764
0.14152484 -1.2715758 0.038285419
0.18124187 -1.2223755 0.025410345
0.22742277 -1.226011 0.013602391
0.096397959 -1.295413 0.0036955029
0.14144936 -1.2751489 -0.0087554296
0.18091223 -1.2235374 -0.019904867
0.22709425 -1.2267472 -0.031993825
0.094044998 -1.2727984 -0.04323018
0.14030442 -1.2690718 -0.055277612
0.18197332 -1.235931 -0.066039182
0.22497734 -1.2169731 -0.077212252
0.091930106 -1.2555062 -0.088867605
0.13943341 -1.2672683 -0.10212941
0.18029191 -1.2258472 -0.11103865
0.22557658 -1.2222431 -0.123443
0.094318263 -1.2930795 -0.13951878
0.14032699 -1.2805291 -0.15087229
0.18199977 -1.2397139 -0.15860204
0.2210715 -1.1994753 -0.16657628
0.092114814 -1.2773112 -0.18554536
0.13763393 -1.2624652 -0.19612136
0.17297155 -1.1813732 -0.1963117
0.20713015 -1.1248244 -0.19946995
0.086383194 -1.2107934 -0.2219768
0.13022619 -1.1997643 -0.23248257
0.17052655 -1.1696584 -0.23928256
0.19079606 -1.0379525 -0.22470511
0.083413988 -1.1852021 -0.26348996
0.12866104 -1.1903795 -0.27727991
0.16731341 -1.1484616 -0.28049636
0.18299961 -0.99358833 -0.25506371
0.076057188 -1.0954126 -0.28724879
0.11615851 -1.0823077 -0.29580641
0.13516574 -0.92950141 -0.26520461
0.16844405 -0.91438037 -0.27293986
0.080538668 -1.1800939 0.365426
0.1320608 -1.2362854 0.36927941
0.17856485 -1.2281815 0.3554796
0.22208121 -1.2088073 0.3392491
0.08723712 -1.2665279 0.33895832
0.13456838 -1.2628907 0.3251459
0.17819132 -1.2321062 0.30608237
0.221927 -1.2160872 0.29117084
0.088006206 -1.2773685 0.29078147
0.13510832 -1.2662797 0.27584523
0.17628877 -1.2222637 0.25517598
0.22213811 -1.2221955 0.24423149
0.086064838 -1.2450706 0.23514318
0.13555782 -1.2736531 0.22810742
0.17577147 -1.2230581 0.20794773
0.22188757 -1.223487 0.19729824
0.087448105 -1.2666887 0.1910727
0.13445194 -1.2693673 0.17930502
0.1780614 -1.2436161 0.16432428
0.22246371 -1.2329131 0.15191883
0.086626701 -1.2579861 0.14257655
0.13649683 -1.288888 0.13396131
0 -0 0
0 -0 0
0 -0 0
0.13714297 -1.2988853 0.087003291
0 -0 0
0 -0 0
0 -0 0
0.1377942 -1.3111893 0.039451927
0 -0 0
0 -0 0
0 -0 0
0.13549721 -1.2938945 -0.0088782646
0 -0 -0
0 -0 -0
0 -0 -0
0.13635139 -1.3066745 -0.056877978
0 -0 -0
0 -0 -0
0 -0 -0
0.13361076 -1.2869382 -0.10364658
0.17401676 -1.2358068 -0.11184198
0 -0 -0
0.086581036 -1.2966101 -0.13983977
0.1337949 -1.2942095 -0.1523845
0.17742729 -1.2624208 -0.16136472
0.2144019 -1.204711 -0.16711755
0.083363861 -1.2640271 -0.18353792
0.13109793 -1.2750832 -0.19795285
0.16818477 -1.200002 -0.19923204
0.18832481 -1.0591499 -0.18761516
0.07812053 -1.1985397 -0.2196383
0.12536135 -1.2249618 -0.23721166
0.16117933 -1.1551512 -0.23610801
0.18698753 -1.0535492 -0.22782893
0.077704251 -1.2100487 -0.26890269
0.12283572 -1.2056845 -0.28066412
0.16388749 -1.1754596 -0.28683928
0.18233223 -1.0252396 -0.26289675
0.072633155 -1.1479963 -0.30091521
0.11223387 -1.109883 -0.3031491
0.13569412 -0.97511315 -0.27797571
0.16535094 -0.92956698 -0.27716494
0.074243523 -1.1958236 0.37014881
0.12533633 -1.2456567 0.37184191
0.17129047 -1.2311585 0.35603034
0.21600682 -1.2177404 0.34137774
0.078798987 -1.2564325 0.33612081
0.12759075 -1.2714038 0.32712999
0.16956314 -1.225481 0.30417234
0.21479878 -1.2193433 0.29162934
0.077663459 -1.237981 0.28170145
0.12733604 -1.267085 0.27584523
0.16664416 -1.2078004 0.25193822
0.21717773 -1.2380323 0.24712522
0.078485355 -1.2465559 0.23532832
0.12646386 -1.2617261 0.2258281
0.17014366 -1.2377909 0.21027118
0.21437623 -1.2248255 0.19729824
0.079426005 -1.2632538 0.19047746
0.12508851 -1.2544022 0.17707935
0.16962028 -1.2387909 0.1635461
0.21421339 -1.2303427 0.1514373
0.079776734 -1.2723781 0.1441495
0.1273029 -1.2768339 0.13262478
0.17049113 -1.2488807 0.11826119
0.21339077 -1.2291725 0.10537435
0.078607194 -1.2568859 0.096060924
0.12838115 -1.2917594 0.086471573
0.17065422 -1.2523587 0.072324574
0.21605828 -1.2469914 0.060169827
0.080116071 -1.2875047 0.050932083
0.12758222 -1.2901267 0.038793895
0.17012797 -1.253238 0.026006542
0.21133882 -1.2227975 0.013536942
0.080803819 -1.3014888 0.0037097272
0.12755547 -1.2947016 -0.0088782646
0.17446643 -1.289079 -0.020934707
0.21117362 -1.2245159 -0.031865645
0.078295909 -1.2718617 -0.043162473
0.12618424 -1.2856123 -0.055926409
0.16785948 -1.2459885 -0.066461496
0.21188942 -1.2304617 -0.077897206
0.078395754 -1.2874056 -0.091050565
0.12406527 -1.2708682 -0.1022891
0.16709484 -1.2417868 -0.11228827
0.21005504 -1.2219771 -0.1231465
0.078262627 -1.2911624 -0.13919781
0.12431414 -1.2791891 -0.15052332
0.16954583 -1.2625024 -0.16123913
0.2110287 -1.2294405 -0.17036518
0.074956618 -1.2536479 -0.18196063
0.12270143 -1.2699614 -0.1970371
0.16304484 -1.2176377 -0.20199013
0.19264521 -1.1233977 -0.19878273
0.075923093 -1.2863926 -0.23564798
0.11962827 -1.2442791 -0.24080577
0.15434739 -1.1580615 -0.23650482
0.18447976 -1.077814 -0.23282699
0.069881976 -1.20368 -0.26738709
0.11422915 -1.1938083 -0.27773115
0.15256585 -1.1456108 -0.27932176
0.17620197 -1.0272948 -0.26314154
0.064705223 -1.1329665 -0.29686591
0.10514805 -1.1076686 -0.30236238
0 -0 -0
0.15331677 -0.89368194 -0.26617974
0.06599769 -1.1800394 0.36513087
0.1167896 -1.2368586 0.36899468
0.1646194 -1.238857 0.35795778
0.20869336 -1.2199929 0.34164378
0.071688302 -1.267503 0.33895832
0.1194239 -1.2683048 0.32613793
0.16382121 -1.2399764 0.30751491
0.20780194 -1.2235172 0.29231715
0.071498059 -1.2637482 0.28745952
0.11983422 -1.2707615 0.27648032
0.16127643 -1.224335 0.25517598
0.20925002 -1.2374066 0.2467394
0.071002349 -1.2499574 0.23588377
0.11678402 -1.2418945 0.22214611
0.1629304 -1.2417449 0.21076906
0.20734972 -1.2290394 0.19776838
0.071337357 -1.2577937 0.1895846
0.11499172 -1.2295108 0.17346266
0.16252995 -1.2437412 0.16406488
0.20633155 -1.229676 0.15119654
0.071351036 -1.2619306 0.14291361
0.1185399 -1.2676872 0.13159668
0.16141018 -1.2390434 0.11723365
0.20568027 -1.2294757 0.10529018
0.071342655 -1.2653087 0.096669391
0.11897129 -1.2766269 0.085408129
0.16412522 -1.2622926 0.072838731
0.20922524 -1.2532198 0.060407273
0.071711153 -1.2789932 0.050577022
0.12160125 -1.3117863 0.039422017
0.16179301 -1.2493007 0.02590375
0.20465313 -1.2290031 0.013591482
0.071364656 -1.2760009 0.0036357606
0.12034442 -1.3034257 -0.0089328578
0.15887232 -1.2306267 -0.019969231
0.20398384 -1.2277609 -0.031916916
0.06982699 -1.2603433 -0.042756237
0.11811051 -1.2843726 -0.0558399
0.1614836 -1.2568996 -0.066989392
0.20384544 -1.2287848 -0.077710398
0.069077373 -1.2619656 -0.089219697
0.11608352 -1.2696202 -0.10212941
0.16010608 -1.2477283 -0.11273457
0.2041788 -1.2330602 -0.12413483
0.070176534 -1.2886399 -0.13887684
0.11646285 -1.2799278 -0.15052332
0.16230011 -1.2674552 -0.16174145
0.2010567 -1.2160492 -0.16833542
0.067209966 -1.2530959 -0.18181723
0.11419474 -1.2628163 -0.19581613
0.15781969 -1.2362337 -0.20491047
0.18655126 -1.1294184 -0.19964178
0.063095137 -1.1935141 -0.218559
0.11067165 -1.2303199 -0.23796831
0.15304431 -1.2046851 -0.2458301
0.18390837 -1.1155975 -0.24074061
0.063405879 -1.2216356 -0.27128425
0.1082914 -1.2100122 -0.28134099
0.15153125 -1.1937749 -0.29083291
0.16136101 -0.97669959 -0.24992327
0.058392305 -1.1459026 -0.300156
0.099287838 -1.1188666 -0.30524704
0 -0 -0
0.14955112 -0.90501922 -0.26927811
0.059610836 -1.1975989 0.370444
0.11054631 -1.2528304 0.37355018
0.15653169 -1.2360289 0.35685638
0.20574802 -1.2488333 0.34936005
0.063909702 -1.2679191 0.33895832
0.10909257 -1.2400628 0.31869754
0.15669489 -1.2448121 0.30846992
0.20390375 -1.246863 0.29759035
0.063889824 -1.2670848 0.28812391
0.11229207 -1.2743934 0.2771154
0.15632167 -1.245707 0.25942555
0.20149584 -1.2376989 0.24654651
0.064922161 -1.2817761 0.24180865
0.1103679 -1.2563179 0.22460076
0.1592214 -1.2740338 0.21607976
0.20043786 -1.2341881 0.19839521
0.064866737 -1.2828977 0.19330485
0.11158124 -1.2775463 0.18013965
0.1556301 -1.2506187 0.16484305
0.19973212 -1.2367991 0.15191883
0.06485676 -1.2871549 0.14572245
0.11179765 -1.2802818 0.1328304
0.1553977 -1.2528549 0.11844801
0.20050816 -1.2454715 0.10655265
0.063877657 -1.2716979 0.097125739
0.11096285 -1.275345 0.085275196
0.15539566 -1.2553495 0.072381705
0.20454198 -1.2732183 0.061309583
0.064360194 -1.2893889 0.050971538
0.11182693 -1.2925911 0.038823809
0.154736 -1.2552314 0.026006542
0.19758284 -1.2331977 0.013624207
0.06452819 -1.2963899 0.0036926582
0.11182953 -1.2981619 -0.0088919131
0.15461053 -1.2583733 -0.020403694
0.1967622 -1.2309638 -0.031968191
0.062289011 -1.2647409 -0.042891651
0.10997139 -1.282087 -0.055710144
0.15413189 -1.2608405 -0.067147754
0.19771756 -1.2388828 -0.078270815
0.060993943 -1.2553914 -0.088726774
0.10956112 -1.2852066 -0.10332717
0.15377487 -1.2595626 -0.11371643
0.19582635 -1.2293763 -0.12364066
0.061980434 -1.2830876 -0.13823487
0.1091947 -1.287546 -0.15133759
0.1533204 -1.2585791 -0.1604857
0.19748187 -1.2417226 -0.17171836
0.059660669 -1.2564504 -0.1822474
0.1059463 -1.2575843 -0.19490038
0.15011241 -1.2361993 -0.20474824
0.17977235 -1.1315148 -0.19981359
0.055632979 -1.190931 -0.21801934
0.10336638 -1.2339113 -0.23853581
0.14529696 -1.2026824 -0.24523486
0.17767242 -1.120569 -0.24157363
0.054570269 -1.1927439 -0.26478902
0.10037954 -1.2048287 -0.27998728
0.14466946 -1.1985424 -0.29177263
0.15566939 -0.97958636 -0.25041282
0.049281422 -1.0998485 -0.288008
0.092976525 -1.1261867 -0.30708268
0.10207218 -0.84750175 -0.24102098
0.14700767 -0.92487216 -0.27491155
0.052969307 -1.2141691 0.37546197
0.096271649 -1.1732315 0.34963387
0.15032375 -1.2484195 0.36016062
0.19974093 -1.260545 0.35228691
0.05647042 -1.2760091 0.34102201
0.1046406 -1.2793301 0.32861808
0.14824636 -1.2390008 0.30679864
0.19443497 -1.236552 0.29483908
0.056674637 -1.2801178 0.2910029
0.10383195 -1.2672659 0.27542183
0.14855924 -1.2456703 0.25922316
0.19389766 -1.238912 0.24654651
0.05723086 -1.2860773 0.24254926
0.10329831 -1.2648213 0.22600342
0.14977311 -1.2612773 0.21375634
0.19316591 -1.2373463 0.19870862
0.056335673 -1.2684532 0.1910727
0.10053594 -1.2387257 0.17457549
0.14818633 -1.2535194 0.16510244
0.19259627 -1.2409443 0.15227997
0.056650307 -1.2805798 0.14493597
0.10426167 -1.2849094 0.13324162
0.1477074 -1.2537849 0.11844801
0.19499509 -1.2604647 0.10773097
0.055634361 -1.2621045 0.096365161
0.10410002 -1.2879363 0.08607278
0.14722377 -1.2523131 0.072153188
0.19642104 -1.272475 0.061214603
0.056447439 -1.2897595 0.050971538
0.10293313 -1.2812967 0.038464881
0.14819343 -1.2660872 0.026212128
0.18818678 -1.2225273 0.013493311
0.056964733 -1.3057528 0.0037182621
0.10330408 -1.291846 -0.0088441428
0.14584382 -1.2503601 -0.020258874
0.18935716 -1.2331359 -0.031993825
0.055818636 -1.2950543 -0.043907236
0.10186476 -1.2797499 -0.055580385
0.14685297 -1.2657303 -0.067358911
0.1901122 -1.2400727 -0.078270815
0.054304902 -1.2796608 -0.090416804
0.10143746 -1.2828735 -0.10308761
0.14604345 -1.2604824 -0.11371643
0.18918239 -1.2364568 -0.12423367
0.054776438 -1.2993377 -0.13994676
0.10043597 -1.2773 -0.15005803
0.14730388 -1.274279 -0.16236933
0.18881181 -1.2360548 -0.17077114
0.052113608 -1.2607481 -0.18282098
0.098458685 -1.2611666 -0.19535825
0.14568658 -1.2645445 -0.209291
0.17148869 -1.1238317 -0.1982673
0.047726441 -1.1765068 -0.21532109
0.094122045 -1.2129843 -0.23437421
0.13423252 -1.1714176 -0.23868734
0.1725602 -1.1332412 -0.24407266
0.048062038 -1.2135421 -0.26933569
0.092235684 -1.1957086 -0.27773115
0.1355437 -1.1839561 -0.28801388
0.14892438 -0.97573072 -0.24918891
0.043914802 -1.1358989 -0.29737207
0.086873092 -1.1373203 -0.30996734
0 -0 -0
0.13742025 -0.90014666 -0.26730642
0.04351436 -1.1610041 0.3589322
0.090376623 -1.1910056 0.3547588
0.14037032 -1.2292606 0.35437822
0.19084248 -1.2541231 0.35015827
0.048603125 -1.2753662 0.34076408
0.095400892 -1.2615942 0.32390583
0.1404223 -1.2379572 0.30632114
0.18931392 -1.2540836 0.29873666
0.048707459 -1.277518 0.29033855
0.095315889 -1.2581336 0.27330482
0.14135318 -1.250451 0.26003262
0.1852718 -1.233286 0.24519607
0.048773617 -1.2716744 0.23977198
0.094497949 -1.2516874 0.22354877
0.14081824 -1.2513931 0.21193077
0.18425293 -1.2297176 0.19729824
0.049080912 -1.2826091 0.19315605
0.092563108 -1.2343816 0.17387995
0.1422579 -1.2701714 0.16717757
0.18453966 -1.239157 0.15191883
0.049245626 -1.2928185 0.14628421
0.095780753 -1.2775897 0.13241915
0.14199908 -1.2724783 0.12012945
0.18520921 -1.2478381 0.10655265
0.047737993 -1.2584364 0.096060924
0.09515547 -1.2746204 0.085142262
0.1409732 -1.2660919 0.072895855
0.18656109 -1.259823 0.060549747
0.048269615 -1.283092 0.050695378
0.094182193 -1.2699424 0.038105953
0.14240451 -1.2848594 0.026582181
0.17965949 -1.2167344 0.013416952
0.049401149 -1.3180692 0.0037524004
0.094418831 -1.2794912 -0.0087554296
0.14135163 -1.2800525 -0.02072552
0.18222421 -1.2372416 -0.032070734
0.047059279 -1.2734001 -0.043162473
0.093790963 -1.2773616 -0.055450622
0.13995582 -1.2745486 -0.067781225
0.18351598 -1.2481279 -0.078706689
0.046452027 -1.2799699 -0.090416804
0.092331931 -1.2665709 -0.10173015
0.13852364 -1.263335 -0.11389495
0.18173651 -1.2385788 -0.1243325
0.045872487 -1.2738154 -0.13716495
0.09209425 -1.2709579 -0.14924377
0.13948229 -1.2751589 -0.16236933
0.18423958 -1.2577772 -0.17361282
0.04482929 -1.2739019 -0.18468502
0.090505831 -1.2587898 -0.19490038
0.13610712 -1.2487385 -0.20653288
0.16202249 -1.1073173 -0.19517474
0.039660629 -1.1521999 -0.210824
0.08821661 -1.2350869 -0.23853581
0.1314777 -1.2131444 -0.24702054
0.16150582 -1.106212 -0.23803331
0.039341681 -1.1757605 -0.26089188
0.084621362 -1.1923651 -0.27682871
0.12974134 -1.1982946 -0.29130277
0.15936227 -1.0888711 -0.27782854
0 -0 -0
0.078608759 -1.119542 -0.30498481
