# .PCD v0.7 - Point Cloud Data file format
VERSION 0.7
FIELDS x y z
SIZE 4 4 4
TYPE F F F
COUNT 1 1 1
WIDTH 1620
HEIGHT 1
VIEWPOINT 0 0 0 1 0 0 0
POINTS 1620
DATA ascii
-1.0575236 2.1905189 0.47823846
-0.81141979 2.3012025 0.45973265
-0 0 0
-0.96906894 2.2131608 0.4066017
-1.0129788 2.1003096 0.36999297
-0 0 0
-0.89741594 2.2764752 0.34372592
-0.97958696 2.2403738 0.31982926
-1.0623721 2.207742 0.2970964
-0.83339673 2.365504 0.28358015
-0.91269279 2.3153465 0.25723037
-0.97274572 2.2271628 0.22802179
-0.97722065 2.0333292 0.19054915
-0.80311781 2.2807038 0.18444003
-0.89578366 2.274545 0.16284038
-0.95091385 2.1786284 0.13602275
-0.95254236 1.983665 0.10462046
-0.81173235 2.3074811 0.096577652
-0.93100625 2.3673737 0.07612218
-0.9719367 2.2298715 0.050018907
-1.0357639 2.1592908 0.026124882
-0.8322736 2.3669286 0.0071378113
-0.89470124 2.2775073 -0.01669878
-0.98070049 2.2524459 -0.039536178
-1.059319 2.2104743 -0.062859669
-0 0 -0
-0.8711533 2.2199554 -0.10324542
-0.98087215 2.2566054 -0.13007239
-1.0579339 2.2089689 -0.15280555
-0.79245192 2.2622547 -0.16921462
-0.88729841 2.2645841 -0.19483639
-0.96288514 2.2161765 -0.21654321
-0.93086296 1.9451256 -0.21417212
-0.6962865 1.9895065 -0.22682503
-0.80819339 2.0653429 -0.25975162
-0.86487454 1.992022 -0.27488512
-0.8814795 1.8430905 -0.27902541
-0.56652832 1.623016 -0.24906668
-0 0 -0
-0.9022612 2.0803189 -0.37283
-0 0 -0
-0 0 -0
-0.53425616 1.3694487 -0.28317851
-0.88441968 2.0425994 -0.4505893
-0 0 -0
-0.32335034 0.9315185 -0.21867284
-0.43677458 1.1210783 -0.27863359
-0 0 -0
-0.43495238 0.90972996 -0.25457415
-0 0 -0
-0 0 -0
-0 0 -0
-0 0 -0
-0 0 0
-0.90987307 2.3440409 0.74681568
-0.97583526 2.2561634 0.70407546
-1.0563837 2.212028 0.67663568
-0 0 0
-0.89821362 2.3158004 0.63590699
-0.97554183 2.2601388 0.60524088
-1.062791 2.2322533 0.58234167
-0.7966972 2.306133 0.55410147
-0.87538117 2.2559988 0.52416945
-0.97750705 2.2670839 0.5101496
-1.047011 2.2031701 0.47958887
-0.79439479 2.2977791 0.45806631
-0.88548321 2.2838061 0.43622693
-0.98121023 2.2788441 0.41755503
-1.0132035 2.1341441 0.37485102
-0 0 0
-0.89272636 2.3059494 0.34734264
-0.97091341 2.2581844 0.32151529
-1.0692037 2.257283 0.30287459
-0.80426711 2.3283083 0.27852422
-0.89056867 2.3004954 0.25496855
-0.95788312 2.230345 0.22774154
-1.0290694 2.1752996 0.20325804
-0.79171181 2.2931287 0.18504849
-0 0 0
-0.94776577 2.2082756 0.13750809
-0.97791582 2.068943 0.10879958
-0.80211979 2.3256428 0.097129978
-0.86388779 2.2369065 0.071755253
-0.94957143 2.2155762 0.049566615
-1.0148104 2.1493294 0.025928535
-0 0 0
-0.88286942 2.288552 -0.016739724
-0.95033383 2.2198157 -0.038860351
-1.0448829 2.2151241 -0.062808394
-0.81179988 2.358783 -0.084496886
-0.88445884 2.295177 -0.10648942
-0.96426016 2.2561536 -0.12970285
-1.0545738 2.2370853 -0.15429997
-0.77758408 2.2642441 -0.16900337
-0.87267059 2.2681253 -0.1946767
-0.95513821 2.2357819 -0.21788211
-0.90788513 1.9273946 -0.21160245
-0.65631616 1.9128633 -0.21762364
-0.65656811 1.7086856 -0.21438523
-0.85146695 1.994554 -0.27450839
-0.80601066 1.7122053 -0.25845709
-0.52163386 1.524398 -0.23343727
-0 0 -0
-0.86044955 2.017741 -0.36066189
-0.77847946 1.6543952 -0.31887704
-0.4204011 1.2316471 -0.23798648
-0.44821379 1.170051 -0.24137327
-0.46645615 1.0956869 -0.24106824
-0.70663518 1.5029398 -0.35361379
-0 0 -0
-0.40064824 1.0473047 -0.259682
-0 0 -0
-0 0 -0
-0 0 -0
-0 0 -0
-0 0 -0
-0 0 -0
-0 0 0
-0 0 0
-0.96197337 2.2621086 0.70407546
-1.0452515 2.2237022 0.67823207
-0 0 0
-0 0 0
-0.9434467 2.2231741 0.59378076
-1.0445309 2.229037 0.57981968
-0.79285318 2.3414586 0.56140971
-0.87544012 2.2978594 0.53263742
-0.96243143 2.270334 0.50954252
-1.0409559 2.2255516 0.48306137
-0 0 0
-0.89737278 2.3572834 0.44920152
-0.96144271 2.2712002 0.41506568
-1.0168134 2.1761119 0.3811194
-0.77957261 2.3011806 0.36562741
-0.88806033 2.3363767 0.35109845
-0.96514636 2.2832787 0.3242389
-1.0335219 2.2170136 0.29661489
-0 0 0
-0.87891024 2.3124251 0.25568825
-0.96819103 2.2930479 0.23353314
-1.0178056 2.1860895 0.20367885
-0.77730691 2.296999 0.18497244
-0.86851251 2.2872322 0.16297333
-0.95826149 2.2710793 0.14105006
-0.97067952 2.0866783 0.10941695
-0.78559482 2.3238945 0.096853815
-0.86432111 2.2795501 0.072951667
-0.9437232 2.2397881 0.049977791
-1.0180368 2.1908817 0.02635395
-0.8009243 2.370332 0.0071178973
-0.86987305 2.2967317 -0.016760198
-0.96035516 2.281821 -0.039841913
-1.0321133 2.2233074 -0.062859669
-0.78006184 2.3125818 -0.082668833
-0.88414639 2.3370035 -0.1081763
-0.95736122 2.2785993 -0.13065307
-1.0391474 2.2398925 -0.15405092
-0.75699419 2.2491193 -0.16752459
-0.85415822 2.2613146 -0.19363864
-0.9460296 2.25262 -0.21895321
-0.90273803 1.9473741 -0.21318379
-0.65343976 1.9432416 -0.22061943
-0.73195726 1.9403582 -0.24288462
-0.8488102 2.0226109 -0.27764779
-0.75217497 1.6236211 -0.24438405
-0 0 -0
-0.5736481 1.5232694 -0.25137112
-0.78625137 1.8755589 -0.33437887
-0 0 -0
-0.37383029 1.1175932 -0.21550098
-0.39885899 1.0606483 -0.21829526
-0.61485767 1.4692253 -0.32241639
-0 0 -0
-0 0 -0
-0.34900489 0.9293558 -0.22990091
-0 0 -0
-0 0 -0
-0 0 -0
-0 0 -0
-0 0 -0
-0 0 -0
-0 0 0
-0.88103956 2.3550298 0.74681568
-0.95252448 2.2786119 0.70737964
-1.022684 2.2108266 0.67237842
-0 0 0
-0.87278044 2.3348153 0.63813913
-0.96156579 2.3051004 0.61407477
-1.0292037 2.2318685 0.5789026
-0.75820345 2.2851927 0.54679316
-0.86440527 2.3114266 0.53454274
-0.96091324 2.3060277 0.51622039
-1.0194857 2.2149615 0.47939596
-0 0 0
-0.8835811 2.3645897 0.44955221
-0.96074826 2.3089225 0.42087424
-1.0207711 2.2199981 0.38770124
-0.76543814 2.3059206 0.36562741
-0.86159229 2.3093083 0.34622979
-0 0 0
-1.0153459 2.2133877 0.29529071
-0 0 0
-0.84766811 2.2721088 0.25065055
-0.97509319 2.3495224 0.23867087
-1.0076931 2.1995409 0.20435219
-0.75284225 2.2704928 0.18246253
-0 0 0
-0.93474668 2.2538612 0.13962184
-0.96575665 2.1098516 0.11031926
-0.7600103 2.2945235 0.095433556
-0.88518113 2.3784885 0.075942717
-0.98122311 2.3693135 0.052732632
-0.96257877 2.1052387 0.025252232
-0.77096474 2.328685 0.0069784978
-0.84949231 2.2851546 -0.016637363
-0.94862932 2.2932143 -0.039938461
-1.0167905 2.2259612 -0.062757127
-0.76868004 2.325865 -0.08297351
-0.87396348 2.3536232 -0.10869533
-0.93878806 2.2733545 -0.13001959
-1.0228972 2.2407787 -0.1536773
-0.74349195 2.254669 -0.16759501
-0.85170156 2.2973564 -0.19627371
-0.92496955 2.2408898 -0.21725728
-0.94487107 2.0714796 -0.22613098
-0.63683736 1.9330496 -0.21901454
-0 0 -0
-0.8643766 2.0956488 -0.28694037
-0.856857 1.8797392 -0.28213772
-1.1497228 3.4995134 -0.53369385
-0 0 -0
-0 0 -0
-0.90639317 1.9892375 -0.38124362
-0.35348794 1.0787356 -0.20758608
-0 0 -0
-0.38922319 0.94632679 -0.20714013
-0.5945226 1.3058704 -0.30550736
-0.28280926 0.86585408 -0.20200175
-0 0 -0
-0 0 -0
-0.40486583 0.8884663 -0.24649633
-0 0 -0
-0 0 -0
-0 0 -0
-0 0 -0
-0.75920099 2.3412025 0.76036954
-0 0 0
-0.95021576 2.3128688 0.71619093
-1.0138912 2.2275882 0.67557132
-0 0 0
-0.8547678 2.3301222 0.6354109
-0.96545315 2.3549838 0.62577373
-1.0142833 2.2354825 0.57821476
-0 0 0
-0.8656953 2.358892 0.54428095
-0.93301398 2.2783487 0.50873309
-1.0111378 2.232795 0.48190385
-0 0 0
-0.83075488 2.2655182 0.42973965
-0.92267489 2.2563572 0.41025284
-1.0083514 2.228919 0.38817137
-0.748523 2.3021104 0.36428815
-0.85149199 2.3257105 0.34789905
-0.92918313 2.2756732 0.32151529
-1.0041959 2.2250051 0.296013
-0.8073377 2.4844718 0.29537725
-0.83131701 2.2707286 0.24993089
-0.94486678 2.3167412 0.23474751
-1.0060524 2.2320271 0.20679295
-0.75706875 2.3310215 0.18694994
-0.83146822 2.2733538 0.16124523
-0.9374789 2.3002338 0.1421355
-0.94992161 2.1093621 0.10998683
-0.77644444 2.3932385 0.099339269
-0.86096972 2.3575861 0.075105228
-0.92181951 2.2650909 0.050286166
-0.95046359 2.1129291 0.025274049
-0.76098013 2.346689 0.0070183259
-0.83922434 2.3006575 -0.016712429
-0.93077528 2.2897291 -0.039777551
-0.94041854 2.0926483 -0.058834802
-0.74639177 2.3058157 -0.082093336
-0.86566192 2.375838 -0.10947389
-0.92932719 2.2901762 -0.13065307
-1.0107644 2.2506547 -0.15392637
-0.74251968 2.2990565 -0.17055257
-0.83486307 2.2950449 -0.1956349
-0.91082799 2.2456002 -0.21716803
-0.93336511 2.079962 -0.22642748
-0.62435377 1.9350282 -0.21880054
-0.64399654 1.7727586 -0.22089937
-0.83063334 2.0494246 -0.27990812
-0.85098302 1.8976184 -0.2840322
-1.0912474 3.3915656 -0.51620036
-0.43698904 1.2050164 -0.19795285
-0.56617969 1.3984795 -0.2480666
-0.89215553 1.9902668 -0.38038456
-0.31470087 0.9806636 -0.1883385
-0.40186086 1.1097803 -0.22737513
-0 0 -0
-0.63047606 1.4076834 -0.32841516
-0 0 -0
-0 0 -0
-0.36776024 0.91024995 -0.23727079
-0.40138984 0.89535749 -0.24772024
-0 0 -0
-0 0 -0
-0 0 -0
-0 0 -0
-0 0 0
-0.85597157 2.376487 0.75023234
-0.93420708 2.3141985 0.71481419
-1.0155674 2.268079 0.68594831
-0 0 0
-0.82109964 2.281543 0.62077814
-0.91179907 2.2635825 0.59998828
-1.0219709 2.2896614 0.5905953
-0.7289207 2.2906082 0.54590732
-0.82571203 2.2933543 0.52798003
-0.93144572 2.3149204 0.51561332
-0.99981445 2.2443349 0.48306137
-0.7392562 2.3212643 0.45899206
-0.8285026 2.3029962 0.43587625
-0.90734226 2.258316 0.40958899
-0.99827003 2.243185 0.38958174
-0.74248326 2.3321011 0.36830604
-0.83720565 2.3308914 0.34789905
-0.95248973 2.3742783 0.33461455
-0.98569089 2.220237 0.29456842
-0.73995578 2.3255663 0.27594009
-0.83048123 2.3122966 0.25394046
-0.91063607 2.2725887 0.2297032
-0.99758846 2.25 0.20788708
-0 0 0
-0.83266747 2.3206751 0.16423617
-0.925574 2.3115036 0.14247827
-0.93534261 2.1114979 0.10979687
-0.75357717 2.3722448 0.098274074
-0.84615058 2.3618836 0.075075313
-0.91532737 2.2892711 0.050697338
-0.98117888 2.2174792 0.026452124
-0.72750169 2.2912683 0.0068390984
-0.81734306 2.2841086 -0.016555471
-0.91893327 2.3009686 -0.039874099
-0.95706469 2.1651249 -0.060706232
-0.74642116 2.35513 -0.083684415
-0 0 -0
-0.91451782 2.2939799 -0.13054748
-0.99895209 2.2613792 -0.15423772
-0.72208327 2.283596 -0.16907378
-0.80836999 2.2653878 -0.19268042
-0.89924425 2.2566981 -0.21770358
-0.94911486 2.150286 -0.23344466
-0.60348403 1.9103804 -0.21559076
-0.67778116 1.9020451 -0.23648679
-0 0 -0
-0.85891688 1.9472239 -0.29066274
-1.0519817 3.339673 -0.50731027
-0.46668312 1.3119614 -0.21504669
-0 0 -0
-0.91808075 2.0822382 -0.39687824
-0.31516376 1.0032223 -0.19229594
-0.40753272 1.1473871 -0.23456335
-0 0 -0
-0.43965563 0.99800307 -0.23220223
-0.26399481 0.84317225 -0.19593954
-0 0 -0
-0 0 -0
-0 0 -0
-0 0 -0
-0 0 -0
-0 0 -0
-0 0 -0
-0 0 0
-0 0 0
-0.92317927 2.3279297 0.71729231
-0.97132623 2.2054572 0.66519427
-0.65591604 2.1059525 0.58892077
-0.82481951 2.336782 0.6344189
-0.89217615 2.2546873 0.59616828
-0.97816616 2.228153 0.57317084
-0 0 0
-0.82757086 2.3435342 0.53835338
-0.90318495 2.2850728 0.5077213
-0.98956859 2.2585161 0.48479757
-0.72324455 2.3201275 0.45788115
-0.82909703 2.3498151 0.44376624
-0.91772377 2.3252985 0.4207083
-0.98448735 2.2492681 0.38958174
-0.72815973 2.3366129 0.36830604
-0.81400418 2.310766 0.34414324
-0.91718233 2.3274946 0.3272219
-0.97919959 2.2426195 0.29673526
-0 0 0
-0.82916617 2.3539386 0.25795004
-0.89667457 2.2781336 0.2297032
-0.97500169 2.2359843 0.20603548
-0.71151501 2.2858696 0.18261464
-0.80549532 2.2890332 0.16164401
-0.90296865 2.2957704 0.14116432
-0.95029557 2.1812994 0.11312117
-0.71616346 2.3033533 0.095236294
-0.83694363 2.3821194 0.075553879
-0.90162891 2.2957749 0.050717894
-0.97912502 2.2500477 0.026768459
-0.709571 2.2832749 0.0068021151
-0.81026626 2.3088956 -0.01669878
-0.8989554 2.2916706 -0.039616637
-0.98640639 2.2690532 -0.063449293
-0.73580557 2.3720748 -0.084124506
-0.83049285 2.3693113 -0.10869533
-0.90552247 2.3125663 -0.13128655
-0.98108083 2.2583117 -0.15361503
-0.71631509 2.3146658 -0.1710455
-0.78852838 2.2533698 -0.19124311
-0.88356543 2.2575357 -0.21725728
-0.8970722 2.0666132 -0.22375898
-0.54799354 1.7725122 -0.19964881
-0.70050013 2.0046175 -0.24870081
-0.81047988 2.0723984 -0.28166619
-0.87139928 2.0088134 -0.29905245
-0.40203422 1.3041898 -0.19773342
-0.50907624 1.4594377 -0.23870337
-0.71449405 1.8290327 -0.32285976
-0.91390884 2.1077163 -0.40065801
-0.30640069 0.99667501 -0.19067699
-0.4043605 1.1609939 -0.23683333
-0.41945204 1.0756932 -0.23372708
-0.51517391 1.1891512 -0.27593538
-0.25681433 0.83824211 -0.19442399
-0 0 -0
-0 0 -0
-0.38767195 0.89398891 -0.24600674
-0.24410111 0.79943544 -0.21866338
-0 0 -0
-0 0 -0
-0 0 -0
-0 0 0
-0 0 0
-0.87538385 2.2475541 0.69085854
-0.98459333 2.2732944 0.68381977
-0 0 0
-0.78765357 2.2758844 0.61656189
-0.87797302 2.2592139 0.5959295
-0.96833408 2.2430496 0.57546359
-0.71383351 2.3422899 0.55609465
-0.80134404 2.3143966 0.53052044
-0.88595754 2.2823551 0.50590003
-0.98035109 2.2753589 0.48711258
-0.70899487 2.3245215 0.45788115
-0.81788194 2.3641622 0.44551954
-0.88348114 2.2793949 0.41141453
-0.975353 2.2661529 0.3914623
-0.70948273 2.3268485 0.36607385
-0.80886221 2.3419256 0.34803814
-0.91147256 2.3552721 0.3303346
-0.97756183 2.2768638 0.30046701
-0.71628571 2.3506305 0.27785012
-0.79489958 2.3016293 0.25167865
-0.89308918 2.310524 0.2324122
-0.96479762 2.2501669 0.20679295
-0.71577698 2.3502851 0.18740629
-0.79664171 2.3090243 0.16270746
-0.88778591 2.2984738 0.14099294
-0.92942035 2.1696439 0.11221886
-0.71306771 2.3440311 0.096735463
-0.79887277 2.3191662 0.073400326
-0.87133622 2.2592871 0.049792763
-0.96215361 2.2486584 0.026681192
-0.69700229 2.2923696 0.0068163397
-0.79673457 2.3157151 -0.016712429
-0.88847119 2.3064737 -0.039777551
-0.96775013 2.2640324 -0.063141659
-0.70179117 2.3124692 -0.081856363
-0.80814695 2.3516865 -0.10765725
-0.89704996 2.3329921 -0.13213116
-0.96759772 2.2652071 -0.1536773
-0.69834143 2.3066061 -0.17013006
-0.77856857 2.26948 -0.19220132
-0.87112612 2.2666337 -0.21761434
-0.89296854 2.0922136 -0.2259333
-0.59179664 1.9566611 -0.21997747
-0.65406722 1.9092798 -0.23637047
-0.7113229 1.8522804 -0.25115129
-0.8668313 2.0323496 -0.3017588
-0.33144903 1.0991249 -0.16633123
-0.54487878 1.5934513 -0.26007068
-0 0 -0
-0.92723048 2.1749067 -0.412341
-0.29319736 0.9749859 -0.18617989
-0 0 -0
-0.38305455 1.0004444 -0.21686223
-0 0 -0
-0.25110564 0.83793169 -0.19399098
-0 0 -0
-0.34990084 0.91414171 -0.23656605
-0.3814187 0.89456701 -0.24551718
-0 0 -0
-0 0 -0
-0 0 -0
-0 0 -0
-0.67782378 2.2794535 0.7346893
-0 0 0
-0 0 0
-0.96533865 2.2668767 0.68009466
-0 0 0
-0.77274054 2.2779222 0.61581784
-0.86617136 2.2700024 0.59736204
-0.95189059 2.242677 0.57385868
-0.69944805 2.3466258 0.55609465
-0.79278189 2.3359289 0.53433102
-0.88344622 2.3179467 0.51257795
-0.97134668 2.293077 0.48962048
-0.69078565 2.3156443 0.45528904
-0.76289195 2.2497935 0.42307702
-0.88385868 2.3225605 0.41821891
-0.9487288 2.242079 0.38629085
-0.69547474 2.3321059 0.36622268
-0.77542502 2.2905655 0.33969191
-0.87622511 2.3061333 0.32268256
-0.95044732 2.2517231 0.29637411
-0.70099759 2.3521245 0.27751306
-0.78108102 2.3074055 0.25178146
-0.8771289 2.311306 0.23194513
-0.94632816 2.2450261 0.20578298
-0.69138014 2.3211861 0.18474427
-0.76008451 2.2477043 0.15805487
-0.87366605 2.3038778 0.14099294
-0.93082196 2.2102873 0.11402348
-0.68613428 2.306222 0.094999589
-0.77087891 2.2833016 0.07211417
-0.89640015 2.3674419 0.0520542
-0.95337826 2.2665021 0.026822999
-0.68463367 2.3023543 0.006833409
-0.77739829 2.3053992 -0.016603241
-0.85661811 2.2651205 -0.038972989
-0.95964915 2.283752 -0.063526206
-0.69100118 2.328229 -0.082262591
-0.80007976 2.3755372 -0.10852232
-0.86155826 2.2823968 -0.12896381
-0.95870394 2.2830644 -0.15448679
-0.68134338 2.3012829 -0.16942587
-0.76653469 2.2798834 -0.19268042
-0.85474074 2.265413 -0.21698952
-0.88088417 2.0994885 -0.22613098
-0.55073434 1.8620521 -0.2089572
-0.58385909 1.7390679 -0.21485053
-0 0 -0
-0.80070877 1.9097073 -0.28281432
-0.33057687 1.1210724 -0.16934241
-0.44057104 1.3147069 -0.21413095
-0.59010845 1.5670923 -0.27532309
-0.83847398 2.0006595 -0.37832287
-0.28720945 0.97676659 -0.18617989
-0.32247266 0.96379715 -0.19578475
-0.44346258 1.1798444 -0.25515535
-0.47220981 1.1277204 -0.2603164
-0.24568495 0.83851981 -0.19377446
-0.28832221 0.86303061 -0.2107237
-0 0 -0
-0.37817135 0.90225577 -0.2469859
-0 0 -0
-0 0 -0
-0 0 -0
-0.31678066 0.75571352 -0.24054761
-0 0 0
-0 0 0
-0 0 0
-0 0 0
-0 0 0
-0.7651661 2.3019261 0.62102616
-0.85052353 2.2707274 0.59616828
-0.92611849 2.2197294 0.56652212
-0.68176246 2.3396385 0.55343705
-0 0 0
-0.84964716 2.2710419 0.50104338
-0.97234511 2.335227 0.49733713
-0.6765641 2.3198392 0.45528904
-0.76863039 2.3132923 0.43412295
-0.84647095 2.2660463 0.40709957
-0.9379881 2.2551534 0.38754451
-0.69111615 2.3705056 0.37157986
-0.76322645 2.3009198 0.34052655
-0.87141353 2.3365505 0.32618433
-0.94193906 2.2703497 0.29805943
-0.69238913 2.3764155 0.27987248
-0.76972669 2.3206518 0.25270674
-0.85980272 2.3082476 0.23110442
-0.93444216 2.255393 0.20620379
-0 0 0
-0.77138472 2.3280981 0.16337211
-0.86299592 2.3185518 0.14156422
-0.9520067 2.2999439 0.11834507
-0.68592352 2.3583617 0.096972167
-0.80017489 2.4189477 0.076241821
-0.8707118 2.3429084 0.051396325
-0.94136357 2.2769299 0.026877539
-0.6716103 2.3103526 0.0068447883
-0.76386541 2.3120251 -0.01661689
-0.84722662 2.2825201 -0.039182175
-0.94714463 2.293293 -0.063628748
-0.68255055 2.352582 -0.08297351
-0.76545233 2.3196821 -0.10575411
-0.86731225 2.3410153 -0.13197279
-0.94048876 2.2787554 -0.15380183
-0.66471434 2.2967963 -0.16879211
-0.74910069 2.2741296 -0.19180207
-0.84220779 2.2743509 -0.21734655
-0.86229485 2.0910547 -0.22464846
-0.55945671 1.9351218 -0.21676768
-0.6166234 1.8747057 -0.23113589
-0.63104606 1.7054874 -0.23018017
-0.7081908 1.7185456 -0.2538563
-0.32396594 1.1240306 -0.16948579
-0.41461647 1.2629248 -0.20527877
-0.46007547 1.2448848 -0.21821424
-0 0 -0
-0 0 -0
-0 0 -0
-0 0 -0
-0.40237537 0.97773999 -0.22512163
-0.23731022 0.82874876 -0.19117637
-0.28483948 0.87033886 -0.21207739
-0 0 -0
-0 0 -0
-0.23385735 0.81960851 -0.22296578
-0.25454646 0.77975643 -0.22290376
-0 0 -0
-0 0 -0
-0 0 0
-0.75207651 2.3077476 0.72090632
-0 0 0
-0.9513849 2.3124273 0.69020557
-0 0 0
-0.74382895 2.2844698 0.6150738
-0.84629047 2.3023355 0.60309207
-0.92799056 2.263195 0.57615137
-0.67861062 2.3831689 0.56273854
-0.74801278 2.2962303 0.52311093
-0.8475095 2.3083885 0.50812602
-0.95725495 2.3393331 0.49695131
-0.65046602 2.2823637 0.44714233
-0.75960159 2.3338799 0.43710357
-0.83492661 2.2776787 0.4082613
-0.95029134 2.324862 0.39851427
-0.67411941 2.3661423 0.37024057
-0.7546019 2.3225121 0.34303039
-0.849904 2.3222992 0.32346073
-0.94635564 2.3211303 0.30395803
-0.67452949 2.3691509 0.27852422
-0.75393617 2.320601 0.25219268
-0.84630698 2.3153498 0.23129123
-0.92810071 2.2795422 0.20788708
-0.66202492 2.3266184 0.18451609
-0.74846095 2.3062134 0.16151108
-0.84361553 2.3097367 0.14070728
-0.94088739 2.313144 0.11872499
-0.66570348 2.3423417 0.096143678
-0.75450867 2.3287234 0.073250771
-0.84467369 2.3162713 0.050697338
-0.93753684 2.3076758 0.027172057
-0.66042727 2.3250113 0.0068760822
-0.74104428 2.290029 -0.016425813
-0.83868027 2.3027074 -0.039439637
-0.9413259 2.3194399 -0.064192742
-0.65747172 2.3192258 -0.081653245
-0.76779556 2.37567 -0.10808978
-0.85600227 2.3547397 -0.1324479
-0.92386323 2.2780089 -0.15336595
-0.65142322 2.3037114 -0.16900337
-0.72013628 2.2321987 -0.18788937
-0.82755649 2.2776036 -0.21716803
-0.834126 2.0584936 -0.2205963
-0.53135616 1.8811089 -0.21034811
-0.56734657 1.7612277 -0.2167117
-0.61142856 1.684149 -0.22678964
-0.64222372 1.5860218 -0.23369394
-0.36749256 1.30509 -0.19644293
-0.42319438 1.316251 -0.21352045
-0.49683025 1.3701338 -0.23963009
-0.51891869 1.2820892 -0.24121949
-0.2759991 0.98305875 -0.18671955
-0 0 -0
-0 0 -0
-0.38940176 0.96296233 -0.22116482
-0.23748046 0.84899312 -0.19550653
-0.27057379 0.84423816 -0.20530896
-0 0 -0
-0 0 -0
-0.22674605 0.81357253 -0.22094111
-0.25622147 0.80152559 -0.22867304
-0 0 -0
-0 0 -0
-0.64494699 2.324688 0.74531555
-0.72945076 2.285835 0.71264946
-0.85525775 2.3660018 0.72059655
-0.91730738 2.2690685 0.67557132
-0 0 0
-0.74892551 2.3489847 0.63119471
-0.83313602 2.3102252 0.60380834
-0.89735419 2.2273157 0.56560498
-0.64019626 2.3017929 0.54258531
-0.71222758 2.2328055 0.50765681
-0.83366138 2.3144665 0.50832838
-0.93592858 2.3278651 0.49328589
-0 0 0
-0.74915314 2.3506911 0.43938291
-0.83995706 2.3356521 0.41772103
-0.91613245 2.2811582 0.39005187
-0 0 0
-0.73493314 2.3101125 0.34052655
-0.82357651 2.293874 0.31879169
-0.93061912 2.3232071 0.30347651
-0.65998 2.373245 0.27852422
-0.74480927 2.3412974 0.25394046
-0.81460917 2.271765 0.22643374
-0.90595454 2.2648401 0.20603548
-0.64827061 2.3325582 0.18466821
-0.72039598 2.2670197 0.15845367
-0.82942736 2.3148696 0.14070728
-0.93371928 2.3364971 0.1196273
-0.65292215 2.3521593 0.09638039
-0.73506749 2.3171122 0.072742298
-0.86378443 2.4146059 0.052732632
-0.94411755 2.3653922 0.027782911
-0.64614886 2.3290198 0.0068760822
-0.726677 2.2935796 -0.016418988
-0.82049841 2.2965112 -0.039246541
-0.91893113 2.3047433 -0.063628748
-0.64776242 2.3395905 -0.082228743
-0.74928606 2.3679538 -0.10752749
-0.82543826 2.3147993 -0.12991402
-0.92021191 2.3095958 -0.15510947
-0.62824762 2.2749732 -0.16660917
-0.71693403 2.2698433 -0.19068414
-0.81122506 2.2760711 -0.21654321
-0.82111162 2.0626483 -0.22049747
-0.54227763 1.965803 -0.21944252
-0.57744014 1.8309814 -0.22485439
-0 0 -0
-0.64896035 1.631361 -0.23978324
-0.31303427 1.1384183 -0.17106307
-0.34805155 1.1057751 -0.17902753
-0.43914264 1.2346321 -0.21545616
-0 0 -0
-0 0 -0
-0 0 -0
-0.34789449 0.9799872 -0.21051311
-0.37662497 0.94806302 -0.21720803
-0.2268651 0.83065671 -0.19095986
-0.26218057 0.83565754 -0.20282722
-0 0 -0
-0.35863352 0.90185618 -0.24502762
-0 0 -0
-0.23861839 0.76256013 -0.21713449
-0 0 -0
-0 0 -0
-0 0 0
-0 0 0
-0.79896104 2.2534151 0.6848008
-0.91119492 2.2943637 0.68142503
-0 0 0
-0.72555155 2.3248682 0.62350631
-0.79951578 2.2603641 0.58948314
-0.90874457 2.2961342 0.58165383
-0.63142693 2.3254406 0.54723608
-0.72822553 2.3322911 0.5292502
-0.80476481 2.2779858 0.49922216
-0.90757054 2.297972 0.48576218
-0.63477975 2.3356929 0.45602962
-0.71536541 2.2932141 0.42781097
-0.79116851 2.2431142 0.40029526
-0.89776903 2.2757118 0.38817137
-0.62895846 2.3150716 0.36101431
-0.7260443 2.3315973 0.34303039
-0.8117913 2.3054311 0.31969956
-0.89162964 2.2660558 0.29529071
-0.62796223 2.313 0.27099657
-0.72747207 2.3363261 0.25291234
-0.80726063 2.2955053 0.228302
-0.91135365 2.3195102 0.2104962
-0.62585199 2.3066602 0.18231042
-0.71625143 2.3028386 0.16064703
-0.82480645 2.3472307 0.14236401
-0.91279572 2.3254459 0.11877248
-0.64396566 2.3763745 0.09720888
-0.72053975 2.3206244 0.072712392
-0.83041781 2.3670292 0.051581353
-0.90367287 2.3050427 0.027008435
-0.63184607 2.3329408 0.0068760822
-0.71229404 2.2970402 -0.016412165
-0.80539995 2.2986715 -0.039198264
-0.90258497 2.3047533 -0.063474931
-0.6459114 2.389832 -0.083853684
-0.74124461 2.3935022 -0.10847907
-0.81715268 2.3367879 -0.13086422
-0.89693016 2.2919629 -0.15355276
-0.61920971 2.297085 -0.16794711
-0.70593685 2.2837231 -0.19148265
-0.78541362 2.2471573 -0.21332988
-0.80409151 2.0565264 -0.21931146
-0 0 -0
-0.54217601 1.7566689 -0.21531582
-0.59496748 1.7037014 -0.22842212
-0.63316905 1.6205465 -0.23761815
-0.32630923 1.215829 -0.18239079
-0.34213284 1.1107233 -0.17948538
-0.41856006 1.2000353 -0.20896652
-0 0 -0
-0 0 -0
-0 0 -0
-0.3315638 0.95248288 -0.20416398
-0.38822082 0.99500364 -0.2274124
-0.22578695 0.84712672 -0.19442399
-0.25790593 0.8400445 -0.20350406
-0.29901347 0.85926533 -0.2198866
-0 0 -0
-0.21848314 0.82283914 -0.22271271
-0.23789033 0.77692795 -0.22080585
-0 0 -0
-0 0 -0
-0 0 0
-0.70975125 2.3221169 0.72119105
-0 0 0
-0.92407233 2.3690615 0.701913
-0 0 0
-0 0 0
-0.81363285 2.3459644 0.61049348
-0.89710712 2.3080175 0.58325869
-0.61714643 2.3292713 0.54723608
-0.71675682 2.3460627 0.53136724
-0.79654199 2.2995377 0.50286466
-0.90338844 2.3291121 0.49116379
-0.61539823 2.3205464 0.4523266
-0.7073167 2.3173344 0.43149298
-0.78415841 2.2674978 0.4037804
-0.87094384 2.2480235 0.38252982
-0.62361056 2.3523419 0.36622268
-0.7065292 2.3189573 0.34052655
-0.79957169 2.3159924 0.32047775
-0.90382868 2.3390822 0.3040784
-0.62088293 2.3437045 0.27414244
-0.72037017 2.3645339 0.25548261
-0.78894162 2.2881794 0.22708765
-0.88562584 2.2953095 0.20780292
-0.62572217 2.3634713 0.18649359
-0.7099511 2.3329635 0.1624416
-0.7970556 2.3135467 0.14002176
-0.89312094 2.3170226 0.11806013
-0.63243747 2.3918731 0.097682297
-0.71500307 2.3536937 0.073609702
-0.79961938 2.3248086 0.050553426
-0.87550145 2.2741504 0.02658302
-0.61573112 2.3300061 0.0068561677
-0.70892757 2.3367732 -0.01666466
-0.7932294 2.3092439 -0.039294813
-0.8941673 2.325177 -0.063885108
-0.62613869 2.3744223 -0.08317662
-0.69902378 2.3071718 -0.10437001
-0.80603743 2.3512042 -0.13139211
-0.88356608 2.2992866 -0.1536773
-0.59799945 2.273829 -0.16597539
-0.68960267 2.2803788 -0.19084385
-0.77839035 2.2717211 -0.21520431
-0.78610766 2.0474865 -0.21782894
-0.50497735 1.9223046 -0.21387887
-0.56411433 1.8683558 -0.22857678
-0.55397606 1.6181526 -0.21649243
-0 0 -0
-0.29628327 1.1316426 -0.16948579
-0.34500551 1.1449745 -0.18467459
-0.41757381 1.2212546 -0.21221134
-0 0 -0
-0.26034161 0.99749047 -0.18851839
-0 0 -0
-0 0 -0
-0.37755936 0.98549354 -0.22470511
-0.21567202 0.82959867 -0.19009383
-0.25694975 0.85560691 -0.20688826
-0.29561839 0.86660361 -0.22129613
-0 0 -0
-0 0 -0
-0.23699479 0.79131508 -0.2244772
-0 0 -0
-0 0 -0
-0.59966344 2.3269131 0.74236381
-0.68560511 2.293364 0.7109412
-0.77931088 2.2867084 0.69195992
-0.8712486 2.2747667 0.67237842
-0 0 0
-0.69558102 2.3289554 0.62226623
-0.77765614 2.2874739 0.59401947
-0.85967529 2.2525499 0.56789774
-0 0 0
-0.68779755 2.3017225 0.52035886
-0.7754904 2.2839808 0.49841273
-0.86777872 2.2786763 0.47939596
-0.58613777 2.2662432 0.44103232
-0.68970495 2.3103104 0.42938897
-0.76643163 2.2610593 0.40178886
-0.87504196 2.3004041 0.390522
-0.62995738 2.4365444 0.37872276
-0.68832785 2.309962 0.33857906
-0.78979552 2.3340042 0.32229346
-0.87502241 2.3065288 0.29914287
-0.61270463 2.3715219 0.27695128
-0.70243955 2.35747 0.25424889
-0.77807426 2.3024094 0.22802179
-0.88105607 2.32586 0.21007538
-0.59999132 2.3238211 0.18307099
-0.70729262 2.3764853 0.16516669
-0.76719439 2.2720449 0.13722245
-0.87818015 2.3205907 0.11796515
-0.61026448 2.3666816 0.09649875
-0.64532363 2.1721532 0.067807071
-0.78502017 2.3287239 0.05053287
-0.90819585 2.4029474 0.028022887
-0.59817868 2.3211517 0.0068191844
-0.69486046 2.3420377 -0.016671482
-0.77330285 2.2970107 -0.039005168
-0.86999714 2.3044331 -0.063167304
-0.60608184 2.356925 -0.08243186
-0.69336867 2.3401546 -0.10566761
-0.77951014 2.3201346 -0.12938613
-0.8835327 2.3420177 -0.15616801
-0.58626634 2.2861519 -0.16660917
-0.67503214 2.2826552 -0.19068414
-0.75651014 2.2528496 -0.21297285
-0.760544 2.0178187 -0.21417212
-0.49563992 1.9349985 -0.2149488
-0.51242214 1.7355658 -0.21194243
-0.55665946 1.6591436 -0.22151545
-0.55177164 1.4650041 -0.2138022
-0.29643279 1.1612478 -0.17364407
-0.33099067 1.1233701 -0.180859
-0.39753202 1.1863688 -0.20572168
-0.46820903 1.2437299 -0.23177001
-0.24839446 0.97618967 -0.18420117
-0 0 -0
-0 0 -0
-0.38252318 1.0170867 -0.23136923
-0 0 -0
-0.24922471 0.84875464 -0.20485774
-0.27950954 0.8361358 -0.21307388
-0 0 -0
-0.205291 0.81326401 -0.21942262
-0.22779594 0.77793652 -0.22028136
-0.26188686 0.78410131 -0.23341264
-0 0 -0
-0 0 0
-0.68200862 2.3334119 0.72204518
-0.75643414 2.2650039 0.68397474
-0.89459151 2.3793206 0.70164692
-0 0 0
-0.67340326 2.3062117 0.6150738
-0.7875452 2.3640642 0.61264229
-0.86120409 2.2987995 0.57821476
-0 0 0
-0.67832065 2.3218474 0.52395773
-0.75867921 2.2803333 0.49659151
-0.85618567 2.2903914 0.48074636
-0.59576356 2.3631804 0.4591772
-0.67634368 2.3173339 0.42991498
-0.74228591 2.2348361 0.39631218
-0.85261923 2.2835238 0.38676098
-0.59348845 2.3550229 0.36547861
-0.68466604 2.350271 0.34386504
-0.7757715 2.3397474 0.32242316
-0.86258537 2.3165059 0.29974473
-0.58989149 2.3424752 0.27313128
-0.69074309 2.3712859 0.25527698
-0.75610828 2.2835109 0.22568645
-0.85739219 2.3060048 0.20780292
-0.60105175 2.388377 0.18786262
-0.67374235 2.3156323 0.16064703
-0.76735038 2.3193622 0.13979323
-0.85279524 2.2959716 0.11644547
-0.59426999 2.364567 0.096262038
-0.68216288 2.3488522 0.07319095
-0.76287776 2.309763 0.050018907
-0.86109149 2.321286 0.027008435
-0.59147692 2.3548443 0.006907376
-0.68103397 2.3481781 -0.016685132
-0.75543576 2.2903178 -0.038812079
-0.86521918 2.3350375 -0.063859478
-0.58820713 2.3470271 -0.081957914
-0.68538922 2.3664365 -0.10666243
-0.76525939 2.3248742 -0.12938613
-0.86360097 2.3324192 -0.15517172
-0.57464629 2.2993836 -0.16731334
-0.65962934 2.2819664 -0.19028489
-0.74671912 2.2697487 -0.21413322
-0.75367254 2.03738 -0.21575345
-0.47894174 1.9187101 -0.21280895
-0.49487847 1.7148204 -0.20903432
-0.54801762 1.6672403 -0.22214334
-0.57162839 1.5464269 -0.22516891
-0.28117949 1.1303912 -0.16876884
-0.30850235 1.0712476 -0.17215945
-0.39547712 1.2047237 -0.20847979
-0.45442337 1.229946 -0.22867745
-0.24216327 0.97674054 -0.18402128
-0 0 -0
-0 0 -0
-0.3623893 0.98179454 -0.22283085
-0.20992184 0.85019135 -0.19420747
-0.24562457 0.8558864 -0.20621142
-0.27588639 0.84245378 -0.21424849
-0 0 -0
-0.19867988 0.80793214 -0.21765104
-0.22885928 0.79973036 -0.22605065
-0.24001256 0.73355782 -0.21792427
-0 0 -0
-0 0 0
-0.66557199 2.3301787 0.71976745
-0.74610913 2.2805669 0.68727893
-0.85728359 2.3232694 0.68355364
-0 0 0
-0.6549868 2.2953951 0.61110562
-0.74139285 2.271919 0.58757311
-0.83734226 2.2775469 0.57156599
-0 0 0
-0.6605733 2.3137486 0.5212056
-0.75043857 2.3026364 0.50043631
-0.83603334 2.2790205 0.47727391
-0.57140845 2.326709 0.45140085
-0.60756606 2.1301961 0.39449781
-0.7334407 2.2543526 0.39896753
-0.83961111 2.2914946 0.38723111
-0.56936103 2.3192461 0.35937741
-0.65830249 2.3125205 0.33774447
-0.76109421 2.3435204 0.32229346
-0.85414737 2.3376064 0.30179122
-0.59089512 2.4087789 0.28043425
-0.67590779 2.3745229 0.25517419
-0.74699718 2.3032606 0.22718106
-0.84015292 2.3027973 0.20704544
-0.580688 2.3687778 0.18603724
-0.66061264 2.3235617 0.16091289
-0.74510264 2.2993333 0.13830788
-0.84655839 2.322746 0.11753774
-0.57975006 2.3681688 0.096262038
-0.65845984 2.3202999 0.072173998
-0.74807554 2.3124981 0.049977791
-0.84751618 2.3284051 0.027030252
-0.57131308 2.3351169 0.0068390984
-0.65734309 2.3196013 -0.016453108
-0.74690098 2.312036 -0.039101716
-0.83994478 2.3102381 -0.063039117
-0.57735014 2.3651559 -0.082465716
-0.66242284 2.3407967 -0.10532159
-0.74791586 2.3200214 -0.12885824
-0.83325565 2.2935851 -0.15224513
-0.55557251 2.2825124 -0.16583455
-0.64534414 2.2850115 -0.19020505
-0.73461086 2.2799759 -0.21466878
-0.73538548 2.0260644 -0.21407329
-0.47725922 1.9631559 -0.21740964
-0.48919877 1.7350316 -0.21112816
-0.53443336 1.6601835 -0.22076201
-0.62090927 1.7119746 -0.24871421
-0.28029618 1.1571033 -0.17249696
-0.31343299 1.1140283 -0.17872226
-0.41918421 1.3038857 -0.22519061
-0.351854 0.97060961 -0.18005559
-0.24193697 1.0021136 -0.18851839
-0 0 -0
-0.28473517 0.88753808 -0.188688
-0.35336092 0.97572309 -0.22095658
-0.2115474 0.87994045 -0.20070271
-0.23879042 0.85174912 -0.20485774
-0.27219614 0.84875864 -0.21542309
-0 0 -0
-0 0 -0
-0.2205705 0.7890377 -0.22264153
-0.23814985 0.74326503 -0.2203698
-0 0 -0
-0.55341053 2.3236151 0.7379362
-0.65074652 2.332372 0.71919799
-0.73239511 2.2860177 0.68755436
-0.85810691 2.3701792 0.69579321
-0.54695213 2.2901127 0.62864649
-0.64739269 2.3227005 0.61730593
-0.73275918 2.2930753 0.59187067
-0.82302147 2.2817261 0.57133675
-0.56432831 2.362685 0.55166537
-0.66211611 2.3742428 0.53390759
-0.732723 2.2960024 0.49800801
-0.8203724 2.2794912 0.4763093
-0.57448846 2.4028099 0.4654724
-0.64442068 2.3131301 0.42763564
-0.73216641 2.298274 0.40593788
-0.82653725 2.2993915 0.38770124
-0.55305088 2.3140397 0.3580381
-0.65471196 2.3546796 0.34330863
-0.74760175 2.3509812 0.32268256
-0.83509827 2.3297203 0.30010587
-0.5534845 2.3176432 0.2694236
-0.6581279 2.3671253 0.25394046
-0.74249339 2.3381665 0.23017028
-0.81794882 2.285393 0.20502549
-0.57331771 2.4023623 0.18839504
-0.66129369 2.3814106 0.16463497
-0.74728465 2.3552494 0.14139283
-0.82220197 2.2996798 0.11611304
-0.56474513 2.3697376 0.096183136
-0.64768106 2.3368185 0.072562829
-0.7353816 2.3218102 0.050080582
-0.83153212 2.3288529 0.02697571
-0.55651098 2.336633 0.006833409
-0.65029985 2.3496125 -0.016637363
-0.73360509 2.3194354 -0.039149992
-0.82844007 2.322881 -0.063244201
-0.55820602 2.3492069 -0.081788652
-0.64485383 2.3332615 -0.10480254
-0.72735459 2.3045685 -0.12774967
-0.82921791 2.326859 -0.15411317
-0.54362649 2.2946143 -0.16646832
-0.62548065 2.2677879 -0.18844832
-0.71701181 2.273042 -0.21359766
-0.70758665 1.9874154 -0.20952696
-0.45444441 1.9205729 -0.21238098
-0.47511601 1.7255521 -0.20961595
-0.53049874 1.6833018 -0.22339909
-0.62633371 1.7605597 -0.25520948
-0.27092016 1.1491687 -0.17106307
-0.30763882 1.1197425 -0.17933276
-0.36140817 1.1483059 -0.19793411
-0.42939436 1.207584 -0.2235232
-0.22655919 0.96431702 -0.18114315
-0 0 -0
-0 0 -0
-0.3401646 0.95759648 -0.21637499
-0.20147428 0.86125892 -0.19615604
-0.23098744 0.8438018 -0.2026016
-0.2661097 0.84763068 -0.21471833
-0 0 -0
-0.19006722 0.81596279 -0.21916954
-0.21572492 0.79037625 -0.22264153
-0.23560092 0.75114012 -0.22227187
-0.25465116 0.71599609 -0.22308397
-0.54410279 2.3483751 0.74472523
-0.63213998 2.3205976 0.71435779
-0.71777916 2.2886338 0.68700361
-0.81548315 2.2963712 0.6726445
-0 0 0
-0.63083935 2.3182161 0.6150738
-0.71229738 2.2771387 0.58661807
-0.8060838 2.2784746 0.56927329
-0.5641675 2.4278443 0.56606048
-0.6341843 2.3292246 0.52289921
-0.70956904 2.2714772 0.49173483
-0.80539048 2.2817061 0.47573054
-0 0 0
-0.63331616 2.3284409 0.42973965
-0.7203992 2.3102548 0.40726557
-0.79632223 2.2587783 0.38002244
-0.54354489 2.3376162 0.36116311
-0.62779933 2.3127792 0.3366316
-0.72284853 2.3223877 0.31814322
-0.80959362 2.302958 0.296013
-0.55544436 2.3906837 0.27751306
-0.64593619 2.3797586 0.25486574
-0.7296102 2.3474319 0.23063734
-0.81414086 2.3195155 0.2076346
-0.5369181 2.3125927 0.18109348
-0.62682784 2.312233 0.15958358
-0.71534979 2.3035367 0.13802226
-0.81138092 2.3141077 0.11658794
-0.5544818 2.3916528 0.096932709
-0.62602073 2.3137324 0.071725339
-0.7240817 2.3358283 0.050286166
-0.83275861 2.378268 0.027488394
-0.54396886 2.3477972 0.0068561677
-0.63248003 2.3410087 -0.016548648
-0.72468156 2.3410859 -0.039439637
-0.81054127 2.3175406 -0.062962212
-0.54288077 2.3486929 -0.081653245
-0.63026482 2.3362098 -0.10475929
-0.71349502 2.309942 -0.12780245
-0.81986386 2.3460357 -0.15504718
-0.53155279 2.3066552 -0.16710208
-0.61699575 2.2917962 -0.19012518
-0.70305115 2.2773986 -0.21359766
-0.70325094 2.0142674 -0.21189895
-0.44421244 1.9301076 -0.21312992
-0.48385277 1.8003731 -0.21834025
-0.52220696 1.6931615 -0.22427812
-0.5290333 1.5164598 -0.21935025
-0.26828742 1.1701021 -0.17393085
-0.28949982 1.0796083 -0.17261732
-0.34970823 1.1354133 -0.19533826
-0.39019057 1.119036 -0.20668593
-0.21954247 0.96089411 -0.18024373
-0 0 -0
-0.2720947 0.88534415 -0.18749753
-0 0 -0
-0.19488665 0.85676718 -0.194857
-0.22857162 0.85555649 -0.20508336
-0.25862008 0.84181428 -0.21283895
-0 0 -0
-0 0 -0
-0.21260983 0.79821247 -0.2244772
-0.2321171 0.75625163 -0.22335878
-0 0 -0
-0.52632415 2.3367562 0.74000245
-0.61936677 2.3299913 0.71606612
-0.67664576 2.2047675 0.66056979
-0.78679556 2.2594564 0.66040492
-0.53583878 2.372045 0.64928323
-0.61436552 2.3136168 0.61284173
-0.68125892 2.2257531 0.57229286
-0.78634614 2.266825 0.56514651
-0.52540708 2.3256772 0.54147804
-0.62314302 2.3453512 0.52565134
-0.69447315 2.2720423 0.4909254
-0.79683053 2.3023682 0.47901011
-0.51938015 2.2965753 0.44362444
-0.6177544 2.3275249 0.42886296
-0.70390791 2.3070858 0.40593788
-0.79341805 2.2953594 0.38535058
-0.52504849 2.3225815 0.35833573
-0.60928619 2.3003142 0.33426684
-0.70136344 2.3030658 0.31490085
-0.80806363 2.3444855 0.30070779
-0.52478284 2.3232915 0.26931125
-0.63055807 2.3807926 0.25455731
-0.7088201 2.3309083 0.22858225
-0.78530264 2.2820673 0.20384718
-0.52030331 2.3051448 0.18025686
-0.62742752 2.3719831 0.16343859
-0.69742906 2.2954643 0.13727959
-0.78872406 2.2944825 0.1153532
-0.52815253 2.3433473 0.094841778
-0.61206728 2.3184967 0.071755253
-0.70915532 2.3383136 0.050245047
-0.8048389 2.3445563 0.02704116
-0.53196985 2.3618217 0.0068874615
-0.61224151 2.3226056 -0.016391693
-0.7189973 2.374197 -0.039922372
-0.80084503 2.3357093 -0.063321114
-0.53306025 2.372457 -0.082364149
-0.61540961 2.3381007 -0.10467278
-0.70190769 2.3228798 -0.12827756
-0.78733879 2.2981477 -0.15156019
-0.51782548 2.31182 -0.16724291
-0.59051406 2.2482977 -0.18621248
-0.68215328 2.2587862 -0.21145543
-0.70376796 2.0562038 -0.21585228
-0.43171 1.9298861 -0.21280895
-0.47330055 1.8052295 -0.2185729
-0.50894243 1.6868359 -0.22302237
-0.53574938 1.5665522 -0.22611615
-0.27789253 1.2470722 -0.18511519
-0.2896229 1.1071795 -0.17673817
-0.32252374 1.0704569 -0.18381913
-0.40179771 1.1754752 -0.21665083
-0.21385561 0.96318334 -0.1804236
-0.2460698 0.94249719 -0.1876507
-0.26637504 0.88605839 -0.18729913
-0.31795779 0.93115389 -0.20950264
-0.1965789 0.88940489 -0.20200175
-0.22626582 0.86825567 -0.20779072
-0.25289047 0.84152353 -0.21236911
-0 0 -0
-0 0 -0
-0.20552425 0.79109603 -0.22211705
-0.22636554 0.75397474 -0.22227187
-0.25608918 0.74902827 -0.23237914
-0 0 0
-0.59615713 2.2994144 0.70553154
-0.69323343 2.3092394 0.69058317
-0.77883375 2.2815745 0.66546041
-0 0 0
-0 0 0
-0.68569231 2.2903597 0.58781189
-0.78683674 2.3139982 0.57569283
-0.50987279 2.3231423 0.54014927
-0.60555339 2.3368316 0.52289921
-0.68332416 2.2856433 0.49294901
-0.78521031 2.3146479 0.48055345
-0.51012921 2.3217947 0.44788295
-0.59457964 2.2969601 0.42255101
-0.69368643 2.3245907 0.4082613
-0.77171284 2.2777345 0.38158953
-0.51099968 2.3267252 0.35848454
-0.59565562 2.305927 0.33454508
-0.6889171 2.3130274 0.31567898
-0.78413135 2.3211844 0.2970964
-0.51839787 2.3623791 0.27346832
-0.60623616 2.3470562 0.25054774
-0.70358682 2.3657517 0.23157147
-0.77096689 2.2858984 0.20376301
-0.50572228 2.3063459 0.18010473
-0.60388911 2.3410065 0.16104582
-0.68361557 2.3006575 0.1373367
-0.78196543 2.3210504 0.11644547
-0.50713903 2.3162849 0.09361878
-0.60555494 2.3522162 0.07268247
-0.6916672 2.3320773 0.050018907
-0.78629273 2.3371301 0.026899355
-0.51981914 2.3757873 0.0069187554
-0.59872562 2.3292239 -0.016412165
-0.69107151 2.3335042 -0.039166082
-0.78554308 2.3377364 -0.063244201
-0.51167357 2.3444369 -0.081280857
-0.60626751 2.3621547 -0.1055811
-0.68764156 2.327143 -0.12827756
-0.77544665 2.3095589 -0.15199606
-0.50490296 2.3208022 -0.16766542
-0.57942802 2.2625008 -0.18709086
-0.67476898 2.2848995 -0.2135084
-0.73797339 2.2001133 -0.23047963
-0.44160268 2.0325727 -0.22382921
-0.47549844 1.8600621 -0.22485439
-0.49970555 1.693733 -0.22352466
-0.53273904 1.5895381 -0.2289578
-0.24658197 1.1394517 -0.16891223
-0.27842769 1.0916984 -0.17399095
-0.32152668 1.0913463 -0.18706395
-0.39019686 1.1648409 -0.21424553
-0.21768562 1.0096723 -0.18887815
-0 0 -0
-0 0 -0
-0 0 -0
-0 0 -0
-0.21925484 0.8630181 -0.20621142
-0.24799624 0.84399199 -0.21260403
-0 0 -0
-0.17966403 0.84108335 -0.22499044
-0.19995555 0.78953576 -0.22133033
-0.22634315 0.77104747 -0.22689122
-0 0 -0
-0 0 0
-0 0 0
-0.68257093 2.3254411 0.69416279
-0.76757187 2.2945378 0.66785508
-0 0 0
-0.59090716 2.3407066 0.61804998
-0.67408121 2.3029118 0.58996069
-0.75877714 2.2772272 0.56537575
-0 0 0
-0.6029318 2.3869343 0.5332725
-0.67670506 2.3151727 0.49841273
-0.76913601 2.3138356 0.47939596
-0.49730828 2.3316088 0.44917899
-0.58047456 2.3005652 0.42255101
-0.67692435 2.3202834 0.4067677
-0.7542994 2.2721159 0.37986571
-0.50413638 2.3646336 0.36384171
-0.59068334 2.3460302 0.33983099
-0.66833597 2.2953146 0.31269598
-0.77673674 2.3466856 0.29974473
-0.50699818 2.3800936 0.27515364
-0.5961948 2.3680947 0.25239831
-0.68405437 2.3528159 0.22989005
-0.75473779 2.2839632 0.20317386
-0.49342957 2.3181829 0.18078926
-0.57978165 2.3059611 0.15838721
-0.66001755 2.2722116 0.13539435
-0.7645781 2.3163195 0.11597057
-0.49520189 2.3301041 0.094052747
-0.57773155 2.3025649 0.071037397
-0.67428249 2.3257146 0.049792763
-0.75816417 2.3001246 0.026419399
-0.50045371 2.3564339 0.0068533234
-0.58150643 2.3212137 -0.016330274
-0.67896467 2.3453844 -0.039294813
-0.76837087 2.3339667 -0.063013487
-0.5001784 2.3612208 -0.081754804
-0.58788335 2.3503227 -0.10488905
-0.6705786 2.3217244 -0.12774967
-0.75907773 2.3076365 -0.15156019
-0.49559903 2.3472807 -0.16935547
-0.56529325 2.2650464 -0.18701099
-0.65217328 2.2593317 -0.21074136
-0.66419178 2.0211985 -0.21130595
-0.41168711 1.9525503 -0.21473484
-0.4662371 1.8716186 -0.22590132
-0.47885779 1.6605442 -0.21875279
-0.52483034 1.5984253 -0.22976972
-0.24121286 1.1486917 -0.17005935
-0.26433495 1.0636538 -0.16925961
-0.31755477 1.1027809 -0.18868639
-0.38580671 1.1756374 -0.21579179
-0.20222118 0.96669805 -0.18060349
-0.22668497 0.91399455 -0.18140829
-0.2579174 0.89773864 -0.18908481
-0.29949954 0.91360921 -0.20471282
-0.18127216 0.87072295 -0.19723859
-0.21255082 0.85867316 -0.20485774
-0.24656916 0.85857731 -0.21589294
-0.27635133 0.8420037 -0.22373152
-0 0 -0
-0.19718783 0.79917997 -0.22369048
-0.22479263 0.78352249 -0.23015194
-0.23909776 0.72841144 -0.22505566
-0 0 0
-0.56995744 2.3149345 0.708094
-0.66961485 2.3342059 0.69553947
-0.75497931 2.3037844 0.66918546
-0 0 0
-0.57260072 2.3282959 0.61383379
-0.66020519 2.3079381 0.59019941
-0.74871641 2.2938693 0.56835628
-0 0 0
-0.57636422 2.3421888 0.52247584
-0.65764517 2.3023317 0.49477026
-0.7479369 2.2970524 0.4749589
-0.48239517 2.3317292 0.44862354
-0.57598263 2.3432817 0.42973965
-0.65861905 2.310168 0.40427828
-0.73362452 2.2560384 0.37641811
-0.48481169 2.3444412 0.36027023
-0.56896472 2.3197956 0.33551881
-0.65152603 2.2898352 0.31139904
-0.74640316 2.3023019 0.29348502
-0.4821308 2.3335307 0.2694236
-0.58805025 2.3977923 0.25517419
-0.67069322 2.3607996 0.2302637
-0.74991465 2.316992 0.2056988
-0.47980097 2.3240964 0.18101743
-0.572505 2.3375804 0.16031471
-0.65478635 2.3069525 0.13722245
-0.74420565 2.3019586 0.11502077
-0.48876232 2.3712661 0.095591359
-0.56999958 2.332283 0.07184498
-0.65754694 2.3211508 0.049607735
-0.75294542 2.3323295 0.026735734
-0.49183589 2.3878639 0.0069358251
-0.56346005 2.3091946 -0.016221087
-0.66292804 2.3437335 -0.039198264
-0.73931056 2.2929683 -0.061782949
-0.48326746 2.3524976 -0.081348568
-0.57297802 2.3519442 -0.10480254
-0.6565913 2.3267565 -0.12780245
-0.74367988 2.3084509 -0.15131111
-0.48258761 2.3571181 -0.1698484
-0.55185544 2.2704096 -0.1871707
-0.64776033 2.2968423 -0.21386544
-0.66366673 2.0621789 -0.21516044
-0.40786394 1.994978 -0.21912153
-0 0 -0
-0.47135022 1.6730002 -0.22000855
-0.50743008 1.5780345 -0.22638677
-0.23889855 1.1734245 -0.17350067
-0.27012414 1.1161652 -0.17734866
-0.3113167 1.1066084 -0.18901086
-0.36894038 1.1479702 -0.21029392
-0 0 -0
-0 0 -0
-0 0 -0
-0.28611484 0.89121687 -0.19929823
-0 0 -0
-0.20545185 0.85238439 -0.20305282
-0.24365945 0.86849695 -0.21800724
-0.27058631 0.84183741 -0.22324196
-0.17275761 0.86029798 -0.22954594
-0.18935001 0.78817683 -0.22028136
-0.21244897 0.75801367 -0.22227187
-0.23550475 0.73260528 -0.22590068
-0 0 0
-0 0 0
-0.63478613 2.2651417 0.6737867
-0.73405439 2.2872632 0.66306567
-0 0 0
-0 0 0
-0.65256506 2.3353271 0.59616828
-0.74144322 2.3197448 0.57362944
-0 0 0
-0.58315873 2.4340718 0.54216391
-0.6603502 2.3666935 0.5077213
-0.73382837 2.3015983 0.4749589
-0.47966975 2.3924572 0.45973265
-0.53638953 2.2414496 0.41045308
-0.64734173 2.3246155 0.40610382
-0.73954505 2.3226092 0.38676098
-0.46478248 2.3192539 0.35595477
-0.55471998 2.3232429 0.33551881
-0.64250815 2.3119416 0.31386325
-0.75689149 2.3844268 0.30335614
-0.47911814 2.3929563 0.27594009
-0.56223887 2.3549149 0.25023928
-0.64927369 2.3399267 0.22783494
-0.73026544 2.3044517 0.20418385
-0.46748757 2.3367739 0.18177801
-0.55259728 2.317755 0.15871952
-0.63955194 2.3070781 0.13699393
-0.72886139 2.3026724 0.11483081
-0.47342047 2.370301 0.095433556
-0.56146169 2.3600466 0.072592743
-0.6371606 2.302979 0.049134888
-0.73741484 2.3330915 0.0266921
-0.47365192 2.3731849 0.0068846168
-0.58902645 2.4799488 -0.017394846
-0.64640492 2.3400469 -0.039069537
-0.72974116 2.3117609 -0.062167495
-0.46823841 2.3524778 -0.081247009
-0.55300367 2.3320854 -0.10376447
-0.64628184 2.3451822 -0.12859429
-0.73070234 2.3167779 -0.15156019
-0.47102663 2.3747115 -0.17090465
-0.53906149 2.2786031 -0.18756996
-0.62254745 2.260443 -0.21011654
-0.64621639 2.0510263 -0.21357912
-0.39271772 1.9828132 -0.21751663
-0 0 -0
-0.46186554 1.6787305 -0.22038528
-0.50577074 1.6066355 -0.23004036
-0.24911898 1.2632263 -0.18654908
-0.26168442 1.1110679 -0.17628029
-0.28230256 1.0276202 -0.17522037
-0.3299582 1.0487231 -0.19173858
-0.19811606 1.0086819 -0.18797873
-0 0 -0
-0.25024909 0.91312444 -0.19166414
-0.28034782 0.89202261 -0.19908999
-0 0 -0
-0.20533453 0.87544394 -0.20824195
-0.23447363 0.85591358 -0.21448341
-0.26832604 0.85273051 -0.22568978
-0.16433665 0.84519756 -0.22524352
-0.18209408 0.77898747 -0.21739674
-0.2136365 0.78065252 -0.22852157
-0.23014103 0.7312907 -0.22505566
-0 0 0
-0 0 0
-0.62924862 2.2995934 0.68287331
-0.72116184 2.2954025 0.66412997
-0 0 0
-0.55057961 2.3634522 0.62127417
-0.63592309 2.3308556 0.59401947
-0.72516108 2.3177478 0.57202452
-0 0 0
-0.55889398 2.3976278 0.5332725
-0.62857026 2.307394 0.49416319
-0.7214461 2.3116777 0.47611639
-0.45018688 2.319144 0.44510564
-0.5404861 2.3214076 0.42447963
-0.63410085 2.3323503 0.4067677
-0.72087169 2.3129597 0.38441032
-0.4588306 2.3647754 0.36250243
-0.54023027 2.3256381 0.33537966
-0.62389648 2.299572 0.31165844
-0.71662146 2.3065479 0.29288313
-0.46348074 2.3909736 0.27537835
-0.54372787 2.3408802 0.24838872
-0.63724679 2.3525155 0.22867568
-0.7279191 2.3469582 0.20755044
-0.45522615 2.3503664 0.18261464
-0.55053955 2.3735895 0.16230868
-0.62408 2.3061407 0.1367083
-0.71856129 2.319505 0.11544818
-0.45545316 2.3555024 0.094723418
-0.53119433 2.2952805 0.07049901
-0.62484252 2.3136017 0.049278799
-0.71687996 2.3175116 0.026463032
-0.46135786 2.3878286 0.0069187554
-0.54746115 2.3695223 -0.016596418
-0.62708855 2.3256266 -0.038763802
-0.71436238 2.3123744 -0.062064946
-0.45303875 2.3513813 -0.081111595
-0.54070473 2.3441961 -0.10415375
-0.62565452 2.3259599 -0.12732735
-0.71559006 2.318357 -0.15137339
-0.45926788 2.3922515 -0.17196093
-0.5306583 2.3061533 -0.18956622
-0.62107718 2.3103898 -0.21440099
-0.61983865 2.0102594 -0.20893395
-0.43576318 2.2732475 -0.24907956
-0 0 -0
-0.44821149 1.669077 -0.21875279
-0.48656842 1.5794083 -0.22571018
-0.21910073 1.1480763 -0.16934241
-0.2610406 1.139626 -0.18055376
-0.28238058 1.0531601 -0.17927639
-0.32032833 1.0403712 -0.18984866
-0 0 -0
-0 0 -0
-0 0 -0
-0.2636559 0.85726649 -0.19096813
-0.16467021 0.8710342 -0.19658907
-0.20190881 0.88523579 -0.21027248
-0.23223014 0.8686046 -0.21730247
-0.25709647 0.83490145 -0.22054933
-0 0 -0
-0.18394132 0.80926114 -0.22552615
-0.20859417 0.78101891 -0.22824985
-0.22536716 0.73177207 -0.224774
-0.43030593 2.3028898 0.72376788
-0.52428246 2.311945 0.70410794
-0.62008739 2.3219872 0.6883803
-0.7096135 2.3080769 0.66652471
-0 0 0
-0.53670937 2.3696206 0.62201822
-0.61786157 2.3206377 0.59043813
-0.6949693 2.2700331 0.5591855
-0.43998852 2.3463156 0.54214245
-0.52796984 2.329525 0.51739502
-0.61540693 2.3149931 0.49497262
-0.70466924 2.3076148 0.47438014
-0 0 0
-0.5347091 2.3621285 0.43131763
-0.61598486 2.3218997 0.40427828
-0.70580184 2.3145051 0.38394019
-0.44504154 2.3714337 0.36309764
-0.52202368 2.3115222 0.33287582
-0.61383492 2.3186936 0.31373358
-0.71053946 2.3374965 0.29625377
-0.4456884 2.3771691 0.27346832
-0.54381508 2.40821 0.25517419
-0.61872941 2.3409801 0.22718106
-0.69874859 2.3027511 0.20325804
-0.44024524 2.3501751 0.18238646
-0.53223401 2.3603759 0.16117877
-0.61348629 2.3234403 0.13750809
-0.69939023 2.3076193 0.11464085
-0.44044051 2.3553059 0.094605066
-0.52916718 2.3521314 0.072144084
-0.617513 2.3434954 0.049833879
