# .PCD v0.7 - Point Cloud Data file format
VERSION 0.7
FIELDS x y z
SIZE 4 4 4
TYPE F F F
COUNT 1 1 1
WIDTH 1520
HEIGHT 1
VIEWPOINT 0 0 0 1 0 0 0
POINTS 1520
DATA ascii
-0.05996453 2.3867579 0.28951252
0.19540459 2.3029978 0.26133418
0.1133275 2.3646746 0.24468757
0.028006488 2.4172213 0.2268074
-0.058895994 2.3907592 0.20199555
0.19686538 2.3158958 0.1772906
0.11230907 2.3281274 0.15526333
0.028475029 2.406894 0.1377366
-0.058753923 2.4175546 0.11497328
0.19903204 2.3327005 0.092435233
0.1155447 2.3711238 0.071037397
0.029636886 2.4023094 0.049402151
-0.057898544 2.4241645 0.026452124
0.19917165 2.3304954 0.0066541815
0.11528626 2.3481169 -0.016043657
0.030489117 2.3934958 -0.038522433
-0.057135712 2.4295294 -0.062321313
0.2022472 2.3519666 -0.0799606
0.11549795 2.3349555 -0.10121253
0.031950783 2.3934445 -0.12653551
-0.055940025 2.4036746 -0.15000349
0.19997284 2.3075874 -0.16351075
0.11740239 2.3485348 -0.18836847
0.032767266 2.4260554 -0.21743581
-0.055451874 2.4134855 -0.23977
0.12986338 1.4937092 -0.16134535
0.11830007 2.345964 -0.27510637
0.033106901 2.4045839 -0.30439538
-0.053972002 2.3743396 -0.32435688
0.12191682 1.3891002 -0.20203508
0.12022473 2.3579485 -0.36461785
0.034168422 2.4143384 -0.39700392
-0.034927852 1.5472456 -0.26991156
0.13993903 1.5805055 -0.29015282
0.12086041 2.3486521 -0.45304781
0.032871753 2.226588 -0.45078769
-0.022201786 0.9973895 -0.2124182
0.18425776 2.0585568 -0.45834696
0.054498062 1.0497662 -0.24343775
0 0 -0
-0 0 -0
0.12925465 1.4288863 -0.37532151
0 0 -0
0 0 -0
-0.017355602 0.76645273 -0.22505566
0.20988646 2.2901547 0.71048498
0.12311389 2.3156104 0.68873316
0.035928551 2.3704007 0.67901838
-0.052072238 2.3495371 0.6486975
0.20990887 2.3063431 0.61832809
0.12430586 2.3265412 0.5964728
0.037641488 2.3662229 0.58184302
-0.051234581 2.4426048 0.57546359
0.20944037 2.3016405 0.52486831
0.12367462 2.3208089 0.5034228
0.038669422 2.3735354 0.49052066
-0.047977895 2.3681679 0.4656989
0.2098231 2.3116579 0.43732929
0.12503661 2.3348639 0.41641435
0.039767541 2.3673701 0.39846966
-0.047946144 2.4123394 0.3828432
0.20910357 2.3014998 0.34777018
0.12599573 2.3306818 0.32786807
0.041163836 2.3763981 0.31088024
-0.045601182 2.401969 0.29131818
0.21025249 2.3096719 0.26223299
0.12686794 2.3460562 0.242837
0.042414311 2.3931124 0.22456548
-0.044151753 2.3870904 0.2016589
0.2108001 2.3116653 0.17706242
0.12740494 2.342339 0.15626031
0.043135308 2.4006851 0.13739385
-0.044027828 2.4238617 0.11525822
0.21206668 2.3175044 0.091882899
0.1284482 2.3404288 0.070140079
0.044395089 2.4030819 0.049422707
-0.043111764 2.4294729 0.026506662
0.21228111 2.3162837 0.0066171982
0.12869892 2.3293931 -0.015920823
0.045118146 2.3902647 -0.038474157
-0.042331543 2.4358313 -0.062475123
0.21658304 2.3496861 -0.079926744
0.12932348 2.3252251 -0.10082325
0.046538807 2.3882115 -0.12627158
-0.04130999 2.4109578 -0.15043937
0.21505034 2.3162494 -0.16421494
0.13231339 2.3567274 -0.18908712
0.047574401 2.4218254 -0.21707878
-0.040809486 2.4237299 -0.24075833
0.13773547 1.4790246 -0.15984745
0.13325347 2.3551102 -0.27626961
0.047682829 2.3954086 -0.30326521
-0.04024066 2.4251502 -0.33125812
0.13543692 1.4415336 -0.2097781
0.13440867 2.3522332 -0.36385474
0.049061954 2.4180295 -0.39765289
-0.025125876 1.5287158 -0.26664719
0.13479137 1.4229285 -0.26137137
0.13560806 2.3537481 -0.45418277
0.047434397 2.2694604 -0.45951778
-0.017689651 1.0972576 -0.23366001
0.12871484 1.345028 -0.29964676
0.12063408 2.0774274 -0.48191205
0.02214873 1.0544029 -0.25488991
-0 0 -0
0 0 -0
0 0 -0
0 0 -0
-0.012810764 0.7761386 -0.22787237
0.22421373 2.2916763 0.71137053
0.13720635 2.3128974 0.6881637
0.050431449 2.3682134 0.67846769
-0.037392203 2.3334272 0.6441741
0.22265428 2.2905874 0.61445874
0.13840605 2.3228335 0.59572875
0.052159648 2.3659475 0.58184302
-0.036043905 2.4292474 0.57225382
0.22299305 2.2944884 0.52353948
0.13762254 2.3151286 0.50236434
0.05305675 2.3654211 0.48890179
-0.033584736 2.3782289 0.46762806
0.22589993 2.3298893 0.44103232
0.13924336 2.3320875 0.41606373
0.054224864 2.3641241 0.39797178
-0.032790668 2.3869119 0.37876874
0.22341241 2.3021419 0.34806782
0.13999653 2.3249221 0.32717252
0.055721112 2.3751097 0.31075057
-0.030798357 2.3972404 0.29071629
0.2236512 2.3004265 0.26133418
0.14030378 2.3293471 0.24119204
0.056764863 2.3788724 0.22325769
-0.029713346 2.4042549 0.2030897
0.22546345 2.3152905 0.17744273
0.14159396 2.3385253 0.1560609
0.057552036 2.3874002 0.13665117
-0.029118422 2.4210899 0.11511575
0.225894 2.3121815 0.091725096
0.14317179 2.3455827 0.070319548
0.058893282 2.3927693 0.049217124
-0.028227203 2.4316916 0.02652848
0.22532108 2.3029945 0.0065830592
0.1440313 2.3455274 -0.016036835
0.05955866 2.3809471 -0.038329341
-0.027115075 2.4120545 -0.061859857
0.23040934 2.3423452 -0.079723626
0.14340356 2.3213964 -0.10069349
0.061089389 2.3838878 -0.12606041
-0.0259232 2.3572741 -0.1470769
0.22906193 2.312901 -0.16407411
0.14639963 2.3499019 -0.18860804
0.062125482 2.4095397 -0.21600765
-0.02577728 2.4090087 -0.23927581
0.14769238 1.4870561 -0.16081038
0.14707975 2.3443356 -0.27510637
0.062483203 2.3990378 -0.3037675
-0.024882935 2.3797772 -0.32503352
0.14842147 1.4820346 -0.21580043
0.14846458 2.3454461 -0.36293897
0.063558869 2.4048598 -0.39554375
-0.024368817 2.3661578 -0.41268465
0.14223568 1.4093513 -0.25903291
0.14929792 2.3411124 -0.45191282
0.05852386 2.1642921 -0.43828788
-0 0 -0
0.13597573 1.3345004 -0.29748169
0.070935465 1.1044346 -0.25629777
0.029251035 1.077567 -0.26052806
-0 0 -0
0 0 -0
0.073651172 1.1334178 -0.30865616
0 0 -0
-0.0083665736 0.80690527 -0.23688588
0.23856759 2.2931085 0.71225601
0.15120752 2.3091424 0.68730956
0.064777032 2.3611324 0.6765402
-0.023540864 2.3808441 0.65721196
0.23650612 2.287256 0.6139428
0.15284674 2.3248405 0.5964728
0.066320173 2.3529639 0.57873923
-0.020773495 2.3875697 0.56239527
0.23716785 2.2940469 0.52376091
0.15176134 2.3132653 0.50215262
0.067066282 2.3474305 0.48525929
-0.019022906 2.3823149 0.46839976
0.23847738 2.3118415 0.43788472
0.15283839 2.3203831 0.41413507
0.068529204 2.3568468 0.39681005
-0.018106703 2.3821301 0.37798521
0.23956496 2.3204005 0.35104403
0.15386584 2.3180909 0.32633793
0.070264123 2.3737321 0.31062087
-0.016168527 2.4092965 0.29216084
0.23837544 2.3049409 0.26200828
0.15452784 2.3274498 0.24108921
0.071181133 2.3725083 0.22269721
-0.014873757 2.3904419 0.20191139
0.23863828 2.3039455 0.17668214
0.15514326 2.3256657 0.15526333
0.071867742 2.3760247 0.13602275
-0.014227045 2.41523 0.11483081
0.24007703 2.3107519 0.091725096
0.15695813 2.3356843 0.070050351
0.073112942 2.3773735 0.048908748
-0.013306092 2.431819 0.02652848
0.24141383 2.3204665 0.0066371122
0.15794858 2.3376155 -0.015989065
0.073761977 2.3675447 -0.038120154
-0.012299166 2.4091766 -0.061782949
0.24425767 2.3359175 -0.079554364
0.15750925 2.3184793 -0.10060699
0.075430147 2.3744853 -0.12558532
-0.011570329 2.3803439 -0.14850907
0.24210091 2.3005395 -0.1632995
0.1612241 2.3549261 -0.18908712
0.076718286 2.4031401 -0.2154721
-0.010936353 2.3961856 -0.23799101
0.18018484 1.7076067 -0.1847768
0.1606423 2.3314986 -0.27371049
0.076787353 2.3857188 -0.30213502
-0.010447347 2.4185259 -0.33031091
0.15447713 1.4525566 -0.21164215
0.16271621 2.3425193 -0.36263373
0.077992395 2.3945622 -0.39392135
-0.010067224 2.4184742 -0.42179051
0.158739 1.481809 -0.27252421
0.16222127 2.3195815 -0.44794035
0.073102787 2.2030754 -0.44622427
-0 0 -0
0.14185324 1.3122872 -0.29271853
0.11191452 1.5898845 -0.36910489
0.054391708 1.6340231 -0.39513811
-0.0041512041 0.98896086 -0.24967851
0.12910467 1.1839058 -0.31154469
0.070331879 0.98855913 -0.26932019
0 0 -0
-0.0033219343 0.78487289 -0.23040742
0.25273803 2.292551 0.71255118
0.16544183 2.3091273 0.68759429
0.078811802 2.3472393 0.67268527
-0.0089607649 2.3886554 0.65934062
0.25327295 2.3107321 0.62064976
0.16710882 2.323859 0.5964728
0.080589861 2.3476601 0.57754546
-0.0061432212 2.3954394 0.56422943
0.2526204 2.3051503 0.52663994
0.1653927 2.3044918 0.50045902
0.080958985 2.332294 0.48222393
-0.0044339658 2.3980861 0.47148639
0.25394008 2.3220572 0.44010654
0.16693164 2.3174376 0.41378438
0.082607463 2.3455412 0.39498451
-0.003518824 2.4019494 0.3811194
0.2534754 2.315938 0.35059759
0.16787153 2.3141401 0.32592061
0.084650651 2.3683014 0.30997241
-0.0013941892 2.4252341 0.2940869
0.25457117 2.3222022 0.26414299
0.16894987 2.3284421 0.24129485
0.085377596 2.362077 0.22176307
-0.00020574422 2.3874989 0.2016589
0.25494677 2.3222609 0.1782033
0.16955538 2.3266602 0.15539625
0.085900806 2.3605738 0.13516584
0.00059426785 2.4212649 0.11511575
0.25261071 2.2943373 0.091133326
0.17106728 2.3316867 0.069960624
0.087625124 2.3748817 0.048867628
0.0016141917 2.4298549 0.026506662
0.2546612 2.3099959 0.0066115079
0.17170067 2.328624 -0.015934471
0.088101231 2.3620515 -0.038039695
0.0024927703 2.4182038 -0.062013675
0.25814587 2.3304014 -0.07941895
0.17247052 2.3274324 -0.10103951
0.089771308 2.3679905 -0.12526858
0.0030659498 2.4043236 -0.15000349
0.2568751 2.3049588 -0.16372201
0.17448364 2.3379879 -0.1878095
0.090552919 2.3787372 -0.21332988
0.0037853413 2.4081488 -0.23917699
0.16868971 1.5098346 -0.16348521
0.17487073 2.3294785 -0.27359417
0.091500401 2.3871856 -0.30238619
0.0043602539 2.4007099 -0.32787517
0.16039817 1.4250281 -0.20777066
0.17537235 2.3188109 -0.35912341
0.092454642 2.3881226 -0.39294791
0.0047685564 2.4165201 -0.42144686
0.15686122 1.3840414 -0.25471568
0.17578028 2.3097305 -0.44623789
0.088390894 2.2476361 -0.45535114
0.002291013 1.0015461 -0.2132512
0.15855084 1.3870493 -0.30960613
0.15238218 1.9903454 -0.46228358
0.064225376 1.6288023 -0.39396349
0.001992201 1.0277507 -0.25946981
0.24647893 2.1384065 -0.5631088
0 0 -0
0 0 -0
0.0016054299 0.84340858 -0.24758941
0.26580542 2.2824161 0.70989466
0.17938413 2.3052015 0.68674016
0.092983782 2.3409481 0.67103314
0.0056959172 2.3886654 0.65934062
0.2676689 2.3110542 0.62116569
0.1786498 2.2880206 0.58754432
0.094207928 2.3277159 0.57277042
0.0085446052 2.3925118 0.56354165
0.26496497 2.2880578 0.52309662
0.17983344 2.3073311 0.50130582
0.094908342 2.3229468 0.48040268
0.010267879 2.3951247 0.47090769
0.26761907 2.3155744 0.43918082
0.18068749 2.3104806 0.41273239
0.096671835 2.3371079 0.39365685
0.011223939 2.4029133 0.3812761
0.26734009 2.3113921 0.35015115
0.18183455 2.3101048 0.32550329
0.09851671 2.3518865 0.30789727
0.013409506 2.411299 0.29240161
0.26835778 2.3166482 0.26369357
0.18182844 2.3095121 0.23944426
0.099364609 2.3495719 0.22064213
0.014479847 2.3934338 0.20216389
0.26827195 2.3127289 0.17759483
0.18374969 2.3245814 0.15532979
0.10000155 2.3510249 0.13465168
0.015431737 2.4182191 0.11497328
0.26864633 2.309617 0.091804005
0.18545027 2.3315897 0.069990531
0.10163656 2.3613141 0.048600368
0.016509872 2.4277997 0.026484849
0.26929295 2.3123629 0.0066228877
0.1851891 2.3175588 -0.015866229
0.10259285 2.3614664 -0.038039695
0.017337708 2.4191425 -0.062039312
0.2702336 2.3099129 -0.078775749
0.1870679 2.3303137 -0.10121253
0.10407957 2.3624067 -0.12500462
0.017855525 2.4092495 -0.15031482
0.27124637 2.3053207 -0.16386285
0.18770203 2.3229632 -0.1866916
0.10457494 2.3652015 -0.2121695
0.018576734 2.4100704 -0.23937467
0.17212771 1.4594003 -0.15813556
0.14814383 1.8234875 -0.21426891
0.10526455 2.3667569 -0.29987466
0.019295504 2.426398 -0.33139342
0.163536 1.3768446 -0.20088798
0.16453764 2.011358 -0.31165743
0.10666393 2.3776526 -0.3913255
0.019603945 2.4174306 -0.4216187
0.16488349 1.379146 -0.25399613
0.17102675 2.0786283 -0.40178433
0.098618627 2.1687229 -0.43947834
0.012201389 1.4484777 -0.30842289
0.16191837 1.3434026 -0.30007979
0.10346232 1.2505186 -0.29059115
0.074174054 1.6274066 -0.39372858
0 0 -0
0.17069121 1.4050413 -0.37025985
0 0 -0
0 0 -0
0 0 -0
0.28027043 2.2845354 0.71107537
0.19232167 2.2897286 0.68246937
0.10694939 2.3316905 0.66855502
0.020327745 2.3856938 0.65854234
0.281259 2.3045731 0.61987591
0.19390549 2.3013611 0.59126449
0.10835308 2.3241837 0.57205415
0.023177376 2.3875477 0.56239527
0.27958983 2.2912288 0.5242039
0.19423334 2.3091059 0.50194091
0.10920586 2.3232989 0.48060504
0.024830945 2.3822615 0.46839976
0.27944586 2.2943785 0.43547773
0.19519204 2.3132524 0.4134337
0.11072944 2.3305607 0.39266109
0.025925035 2.3988488 0.38064927
0.28091928 2.3048 0.34940708
0.19650824 2.3148661 0.32633793
0.1122797 2.3373721 0.30608153
0.02816987 2.4081933 0.29204047
0.28280821 2.3169308 0.26391831
0.19608009 2.3093443 0.23954707
0.11411664 2.3558793 0.22129603
0.02900756 2.380347 0.20106974
0.28245753 2.3110394 0.17759483
0.19817905 2.3253984 0.15546273
0.11393981 2.3403952 0.1340804
0.03021935 2.414084 0.11478332
0.2823267 2.3039579 0.091646194
0.19889949 2.3204489 0.069691427
0.11523922 2.3426716 0.048230316
0.031289846 2.4186537 0.026386674
0.28238037 2.301734 0.0065972833
0.20017779 2.3253455 -0.015927646
0.11643676 2.3478103 -0.037830509
0.032061279 2.4099944 -0.061808582
0.28391302 2.3042438 -0.078640334
0.20127687 2.3281269 -0.10116928
0.11792211 2.348758 -0.12431837
0.032624546 2.4080966 -0.15025257
0.28649023 2.3125226 -0.16449662
0.20056987 2.3058789 -0.18541397
0.1181838 2.3466098 -0.21056284
0.033378072 2.4109061 -0.23947349
0.17568846 1.4149027 -0.15342787
0.13208281 1.5108713 -0.17762683
0.11938344 2.3581402 -0.29887006
0.034169283 2.4252434 -0.33125812
0.18081951 1.4465209 -0.21121198
0.13443269 1.5279149 -0.23687187
0.12054713 2.3631566 -0.38905409
0.034380518 2.4133244 -0.42093143
0.17076463 1.3576124 -0.25021857
0.12805606 1.4476266 -0.27996272
0.10939731 2.1191361 -0.42955786
0.02113157 1.4513094 -0.30904764
0.16733459 1.3201076 -0.29510009
0.10871747 1.2226893 -0.28427395
0.074667841 1.4434555 -0.3493284
0.013846371 0.97432745 -0.24600674
0.27282447 2.1361804 -0.56336188
0 0 -0
0 0 -0
0.011465595 0.80878645 -0.23744923
0.29513791 2.2894058 0.71314156
0.20645365 2.2894602 0.68275404
0.12105459 2.3271501 0.66745359
0.034838557 2.3768494 0.65614766
0.29699233 2.3152618 0.62322932
0.20802273 2.300128 0.59126449
0.12240727 2.3195963 0.5710991
0.037672453 2.3776281 0.56010258
0.2937673 2.2904372 0.52442533
0.20795862 2.3030038 0.50088245
0.12304345 2.3147619 0.47898617
0.039415263 2.3801022 0.46801391
0.29476663 2.3023684 0.43732929
0.20911582 2.3090696 0.41290772
0.12492171 2.3278677 0.39232916
0.040476281 2.3887696 0.37908217
0.29304537 2.2873394 0.34702611
0.21088792 2.315589 0.32661611
0.12602925 2.325748 0.3046549
0.0426271 2.3901091 0.28987366
0.2936053 2.2885408 0.26088473
0.21087791 2.3150318 0.24026674
0.12835279 2.3511579 0.22092235
0.043977659 2.4000497 0.20275304
0.29891917 2.3270645 0.17896387
0.21180789 2.317183 0.15499747
0.12889938 2.3506174 0.13470881
0.044900905 2.406862 0.11445089
0.29492676 2.2902899 0.091172777
0.21240196 2.3112218 0.069452137
0.12927993 2.3359308 0.048106965
0.045881927 2.4054193 0.026244869
0.29854393 2.3158267 0.0066428017
0.21361516 2.3151116 -0.015866229
0.13006131 2.333075 -0.037605233
0.046712104 2.402756 -0.061629131
0.29817453 2.3034494 -0.078674182
0.2150974 2.3218739 -0.10095301
0.13205065 2.3430052 -0.12405442
0.047006868 2.3878939 -0.1490072
0.30234748 2.3235805 -0.16541205
0.21425237 2.2996423 -0.18501472
0.13286111 2.3508124 -0.21100913
0.048031323 2.4036915 -0.23878166
0.18500967 1.4187275 -0.15396282
0.14014748 1.4971769 -0.17611462
0.13328807 2.3474584 -0.29761431
0.048849288 2.415082 -0.32990494
0.17835923 1.3590342 -0.19859377
0.13945036 1.4808165 -0.22969857
0.13442545 2.351536 -0.38726944
0.049007066 2.4042039 -0.41938519
0.18153782 1.3750683 -0.25363639
0.14248759 1.5054682 -0.29131258
0.12839071 2.2221446 -0.4505893
0.040520586 1.9576869 -0.41692275
0.1771047 1.3316369 -0.29791471
0.12110622 1.2734007 -0.29623151
0.067346632 1.1634977 -0.28167096
0 0 -0
0.19447125 1.4517438 -0.38316709
0 0 -0
0 0 -0
0 0 -0
0.30841205 2.2818708 0.71137053
0.22104934 2.2938755 0.68446237
0.13544311 2.3282831 0.66800427
0.04922156 2.3669534 0.65348685
0.31093532 2.3114808 0.62271339
0.22297072 2.3074868 0.59349662
0.13640924 2.3149238 0.57014406
0.052410338 2.3841641 0.56170744
0.3085956 2.2943904 0.52575415
0.22171022 2.2977934 0.50003564
0.13718626 2.3129857 0.47878382
0.053951755 2.3768725 0.46743515
0.31137282 2.3190217 0.44084716
0.22290084 2.3038235 0.41220638
0.13920289 2.3270576 0.39232916
0.054904819 2.3786025 0.37751508
0.30812815 2.2933388 0.34821662
0.22537974 2.3172083 0.32703343
0.14017795 2.3229513 0.3043955
0.057006221 2.3778932 0.28842908
0.30777448 2.2876811 0.26099712
0.22536764 2.3166645 0.24057518
0.14217311 2.3403883 0.21998823
0.058605786 2.3957503 0.20241639
0.31319216 2.3251865 0.17896387
0.22495575 2.3049161 0.15426634
0.14234757 2.333838 0.13379474
0.059123594 2.3845727 0.11340611
0.31057855 2.3003199 0.091646194
0.22696967 2.3138542 0.069571786
0.14348774 2.3330977 0.048065845
0.0603632 2.3940969 0.026124882
0.31408733 2.3238609 0.0066712503
0.22683655 2.3038058 -0.015797988
0.14418902 2.3292394 -0.037556957
0.061275318 2.3954287 -0.06144968
0.31378081 2.3124702 -0.079046562
0.22943835 2.3215044 -0.10099626
0.14629996 2.3401575 -0.12394884
0.061477464 2.3805764 -0.14857133
0.31471205 2.3078444 -0.16442619
0.22904858 2.305228 -0.18557368
0.14634839 2.3350422 -0.20967026
0.06270124 2.4003673 -0.23848516
0.20340364 1.4884932 -0.16166632
0.15248762 1.5279144 -0.17983699
0.1484994 2.359468 -0.29924679
0.063405886 2.4048324 -0.32855177
0.18224643 1.3255595 -0.19386193
0.14221746 1.416999 -0.21993065
0.14872697 2.3486974 -0.38694498
0.06352298 2.3949947 -0.4178389
0.19509147 1.4109564 -0.26047197
0.14058942 1.3941656 -0.26993704
0.13852102 2.1665401 -0.43947834
0.03899226 1.4528964 -0.30946416
0.17140365 1.2309291 -0.27561438
0.11153857 1.1010753 -0.25629777
0.12343671 1.9274441 -0.46678919
0.030397374 1.1475778 -0.28982288
0.21022615 1.499385 -0.3960743
0.14010747 1.372823 -0.3750028
0 0 -0
0.021313665 0.80570728 -0.2366042
0.32334399 2.2865577 0.71343672
0.23609817 2.302012 0.68730956
0.14886259 2.3139772 0.6641494
0.063510396 2.3579345 0.65109217
0.32565117 2.3133564 0.62374532
0.23752135 2.3099298 0.59448868
0.15023237 2.3082292 0.56871158
0.066709958 2.372122 0.55895627
0.32293975 2.2943852 0.52619708
0.23560537 2.294445 0.49961221
0.1513119 2.3111229 0.47858143
0.068280384 2.3676693 0.4656989
0.32682696 2.3258259 0.44251353
0.23844413 2.316123 0.41466102
0.15289451 2.3173037 0.39083549
0.069008172 2.361438 0.37485102
0.31985328 2.2747581 0.34568682
0.23765729 2.2970665 0.32439044
0.15436287 2.3210583 0.3042658
0.071505979 2.3745217 0.28806794
0.32263681 2.2916532 0.26167122
0.2387591 2.3073225 0.23975268
0.15579964 2.3285444 0.21896069
0.073213287 2.3923576 0.20216389
0.32787082 2.3261831 0.17919205
0.23991831 2.3114319 0.15479806
0.1563306 2.3279402 0.13350911
0.073939256 2.3901556 0.11369105
0.32915983 2.3300316 0.092908643
0.24085191 2.3094356 0.069482058
0.15753068 2.3281834 0.047983613
0.074769929 2.3846862 0.026026707
0.32708025 2.312979 0.0066456469
0.2427377 2.3192778 -0.015913999
0.15854613 2.3293083 -0.037573047
0.075623602 2.3840168 -0.061167687
0.32669985 2.3015959 -0.078741893
0.24315673 2.3150852 -0.10078
0.15983507 2.3272607 -0.12331538
0.075987585 2.3771617 -0.14838453
0.33041608 2.3167329 -0.1652008
0.24297959 2.3017964 -0.18541397
0.16169918 2.349005 -0.21100913
0.07746052 2.4009318 -0.23858398
0.20704742 1.4488311 -0.15749361
0.1579861 1.4904059 -0.175533
0.16133267 2.334759 -0.29623297
0.077613212 2.387563 -0.32625133
0.19079889 1.327355 -0.19429208
0.15153766 1.4219959 -0.22084638
0.1632039 2.3487251 -0.38710722
0.077766933 2.3807755 -0.41543359
0.18474968 1.2783005 -0.23618764
0.1504999 1.4059695 -0.27239618
0.15092105 2.1529391 -0.43689901
0.047358274 1.4360116 -0.30592385
0.19104281 1.3129395 -0.29423407
0.11579341 1.0771229 -0.25088304
0.099318445 1.4146869 -0.34275061
0.072188705 2.212369 -0.5588392
0.17315428 1.1821805 -0.31255701
0 0 -0
0 0 -0
0 0 -0
0.33764714 2.2864211 0.71402711
0.2493894 2.2928963 0.68503183
0.16312568 2.3139791 0.66442472
0.07797721 2.3575003 0.65109217
0.34138551 2.3218293 0.6265828
0.25127035 2.3045769 0.59349662
0.16390945 2.3004835 0.56704026
0.080697119 2.3551304 0.55505866
0.33843014 2.3020084 0.52841169
0.2515837 2.3104448 0.5034228
0.16513997 2.3052671 0.47756964
0.082360908 2.3544579 0.463191
0.33766663 2.300442 0.43806988
0.25222379 2.3107016 0.41395971
0.16661362 2.3094368 0.3896738
0.083740726 2.3678794 0.37594798
0.33538556 2.2835147 0.34732375
0.25379848 2.3142681 0.32703343
0.16852984 2.3190782 0.30413607
0.08596652 2.371062 0.28770679
0.33871597 2.3033941 0.26324418
0.25421351 2.3176794 0.24098641
0.16972159 2.3225799 0.21849363
0.086720236 2.3599982 0.19947061
0.34199259 2.3231409 0.17911598
0.25267819 2.2970231 0.15393403
0.17090364 2.33092 0.13373762
0.087974407 2.3726878 0.11288372
0.34053367 2.3081975 0.092119612
0.25644493 2.3208299 0.069870889
0.17203403 2.3301642 0.048045289
0.089063466 2.3751895 0.025928535
0.34053579 2.3059819 0.0066314223
0.25575185 2.306812 -0.015838932
0.17246543 2.3233061 -0.037492596
0.090023279 2.3775141 -0.06101387
0.34125558 2.3025136 -0.078843445
0.25857222 2.3244717 -0.10125577
0.17455906 2.332211 -0.1236321
0.090610147 2.3776479 -0.14844678
0.34550643 2.3205814 -0.16562329
0.25687712 2.298281 -0.18525428
0.17447044 2.3261178 -0.20904543
0.091121584 2.3725691 -0.23581666
0.2100656 1.4081981 -0.15321387
0.16291943 1.4519018 -0.17111269
0.17327265 2.302068 -0.29221454
0.092031963 2.3811016 -0.32543945
0.19864617 1.3242019 -0.19400531
0.15405783 1.366044 -0.21229947
0.17709126 2.3407919 -0.38597155
0.092335425 2.3792691 -0.41526175
0.19904359 1.3199413 -0.24410254
0.15735587 1.3894082 -0.26936954
0.15414056 2.0210168 -0.41031206
0.076815985 1.9634506 -0.41838053
0.19162369 1.262516 -0.28319219
0.12581256 1.1063994 -0.25787708
0.090231843 1.1814449 -0.28636941
0 0 -0
0.20406918 1.336025 -0.35355642
0.14717576 1.2856723 -0.35166347
0 0 -0
0.030976476 0.79963231 -0.23491418
0.35574058 2.3107471 0.72229195
0.26400113 2.2960844 0.68645537
0.17739439 2.3138931 0.66470003
0.092138879 2.3492718 0.64896357
0.35445428 2.3120508 0.62451911
0.26573896 2.3058789 0.59424067
0.17847161 2.3052435 0.5684728
0.094871305 2.3477829 0.5534538
0.3532874 2.304708 0.52951902
0.26206765 2.2768171 0.49643669
0.17897786 2.3003051 0.47676021
0.096483491 2.3460653 0.46164769
0.3574253 2.3352396 0.44510564
0.26673573 2.3120446 0.41448572
0.18039596 2.3034556 0.38884401
0.097776636 2.3554792 0.37406743
0.35178578 2.2970533 0.34970471
0.26559997 2.2920098 0.32411227
0.18135345 2.3002079 0.30180156
0.10000879 2.3585877 0.28626224
0.35269234 2.3002899 0.2631318
0.26877329 2.3190401 0.24129485
0.18412678 2.3234797 0.21868044
0.10107118 2.3564351 0.19921812
0.35382041 2.3052299 0.17789908
0.2696473 2.3202074 0.15559566
0.18528178 2.3308225 0.13379474
0.101798 2.3551383 0.11207639
0.35377866 2.300139 0.091882899
0.27033284 2.3162341 0.069781162
0.18513246 2.3141158 0.047736909
0.10346128 2.3706024 0.025884902
0.36046061 2.3414066 0.0067395279
0.26850593 2.2932808 -0.015757041
0.18727867 2.3291805 -0.037605233
0.10434601 2.3709247 -0.060860049
0.35614008 2.305315 -0.079012714
0.2729466 2.3238337 -0.10129903
0.18741439 2.31318 -0.12268191
0.10471203 2.3660793 -0.14776184
0.36080945 2.3253181 -0.16611624
0.27167508 2.3026013 -0.18573339
0.18906231 2.3289747 -0.20940247
0.10501331 2.3570535 -0.23433414
0.20969142 1.3489176 -0.14690129
0.1581585 1.3354756 -0.15750277
0.18570347 2.2801962 -0.28957745
0.10593094 2.3646553 -0.32327437
0.2061563 1.319047 -0.19343175
0.16442204 1.3817562 -0.21489407
0.14831598 1.8125243 -0.29901031
0.10640171 2.3668482 -0.41320008
0.22133479 1.4090699 -0.26083174
0.16482978 1.3796415 -0.26766706
0.12450114 1.5101408 -0.30674201
0.09191405 2.0303605 -0.43274999
0 0 -0
0.19187982 1.5998892 -0.37316597
0.080046616 0.96968812 -0.23515651
0 0 -0
0.30342826 1.9080108 -0.50540596
0.11736589 0.97242081 -0.26617333
0 0 -0
0.034720685 0.77354646 -0.22730905
0.36991236 2.3085208 0.72229195
0.27866137 2.2991796 0.68787903
0.19127138 2.308929 0.66359866
0.10611514 2.3390326 0.64630276
0.3686341 2.3098323 0.62451911
0.27999938 2.3051665 0.59448868
0.19253208 2.3031375 0.56823409
0.10886785 2.3384058 0.55139041
0.36834419 2.3082747 0.53084779
0.27874035 2.2974813 0.50130582
0.19349866 2.3040428 0.477772
0.11073786 2.3424885 0.46106893
0.3711288 2.3291209 0.44436505
0.28008536 2.3035233 0.4132584
0.19519049 2.3101664 0.39017168
0.11185162 2.3469429 0.37281376
0.36852035 2.3114526 0.35223448
0.27749801 2.2726431 0.32160836
0.19529584 2.2970757 0.30154216
0.11380496 2.344048 0.28457695
0.36586034 2.2921953 0.2624577
0.28335935 2.3203094 0.24160327
0.19812569 2.31933 0.2184002
0.11528406 2.3507943 0.1987973
0.3709473 2.321723 0.17934416
0.28327245 2.3135571 0.15526333
0.19881301 2.3206894 0.13328059
0.1159514 2.3484833 0.11179145
0.37199232 2.3235781 0.092908643
0.28356415 2.3065951 0.069541872
0.19872722 2.3059635 0.047592998
0.11730888 2.3559411 0.025732189
0.37165606 2.3194027 0.0066826306
0.28477502 2.3094547 -0.015879879
0.20156673 2.3279877 -0.037605233
0.11814056 2.3552637 -0.060475513
0.37202361 2.3139408 -0.079385094
0.286955 2.3201323 -0.10121253
0.20203799 2.3169606 -0.12294585
0.11877585 2.356421 -0.14720143
0.37570649 2.3269994 -0.1663979
0.28690431 2.3097937 -0.18645203
0.2016155 2.3079262 -0.20761728
0.11912122 2.3494079 -0.23364231
0.21605927 1.3358275 -0.14561738
0.17630135 1.4143122 -0.16692501
0.13015419 1.485411 -0.18874021
0.12048861 2.3649502 -0.32340968
0.20582855 1.2659847 -0.18583213
0.16442429 1.3130581 -0.20436305
0.1432576 1.6277683 -0.26867124
0.12031906 2.3543446 -0.41113836
0.21903281 1.3406988 -0.24841973
0.16949549 1.3484015 -0.26180297
0.12701602 1.4331975 -0.29126599
0.11100026 2.1586938 -0.46023938
0.20425224 1.2427291 -0.27929506
0.16364688 1.2971166 -0.30277431
0.093812734 1.0572858 -0.25653437
0.098706223 1.9327588 -0.48858654
0.31276286 1.8917959 -0.50160974
0 0 -0
0 0 -0
0.039613139 0.77619368 -0.22815406
0.38579673 2.3165748 0.72553891
0.29203656 2.2917209 0.6861707
0.20517936 2.3048391 0.6627726
0.11991964 2.3277483 0.64337593
0.3861205 2.327543 0.62993628
0.29377019 2.3005223 0.59374464
0.20692073 2.3048143 0.56895036
0.1221381 2.3172815 0.54657573
0.38633034 2.3290598 0.53616291
0.29295588 2.2966974 0.50151753
0.20745648 2.3008616 0.47736731
0.1244285 2.3290274 0.45856103
0.38525245 2.3258302 0.44417989
0.29271629 2.2900424 0.41115439
0.20811501 2.2951758 0.38784826
0.12609088 2.3432539 0.37234363
0.38447466 2.3198791 0.35387138
0.2919417 2.2748268 0.3221648
0.21136805 2.3175583 0.3043955
0.12780605 2.3363669 0.28373429
0.38203236 2.3026507 0.26391831
0.29695797 2.3135939 0.24108921
0.21244395 2.3190622 0.21849363
0.12948643 2.3460629 0.19846062
0.38518614 2.3194032 0.17934416
0.29631677 2.3028688 0.15466514
0.21323138 2.321414 0.13339485
0.13013773 2.3437386 0.11160149
0.38657057 2.3232231 0.092987552
0.29912037 2.3157163 0.069870889
0.21415995 2.3186383 0.047880817
0.13142732 2.3491867 0.025666742
0.38768765 2.327929 0.006713924
0.30125257 2.3255141 -0.016002713
0.21501595 2.3177466 -0.037460409
0.13214031 2.3465097 -0.060270421
0.38901457 2.3283727 -0.0799606
0.29835397 2.2965314 -0.10026095
0.21699362 2.3236315 -0.12336817
0.13289419 2.3496692 -0.14682782
0.38882238 2.3177638 -0.16590498
0.30171624 2.312932 -0.18685131
0.21586563 2.3076372 -0.20770654
0.13313927 2.3416784 -0.23295048
0.21815522 1.2981977 -0.14165865
0.17659737 1.3491912 -0.15936396
0.14232379 1.5171802 -0.19288419
0.13415013 2.3493283 -0.3213799
0.22034979 1.3047075 -0.19171107
0.17569824 1.3365209 -0.20817864
0.13464259 1.4293956 -0.23606077
0.13459383 2.3506114 -0.41062292
0.20849541 1.2287695 -0.22791298
0.17815128 1.3502567 -0.26237047
0.13599259 1.4343426 -0.29166281
0.079718336 1.3846174 -0.29530293
0 0 -0
0.15945503 1.2043382 -0.28134099
0.092215702 0.9715358 -0.23586127
0.068243638 1.1925691 -0.30157247
0.32436481 1.8898412 -0.50160974
0 0 -0
0 0 -0
0 0 -0
0.40081736 2.3188713 0.72701478
0.30672786 2.2946367 0.68759429
0.22004668 2.311193 0.66497546
0.13403368 2.3240814 0.64257771
0.4010506 2.3289385 0.63096809
0.30852345 2.3034775 0.59498471
0.22124445 2.3054347 0.56942785
0.13698353 2.327177 0.54909772
0.39929014 2.3189573 0.53439122
0.30652419 2.2909815 0.50067067
0.22119468 2.295646 0.47655782
0.13836665 2.3223431 0.45740354
0.40151462 2.3350444 0.44640172
0.30898613 2.3047917 0.41413507
0.22162357 2.2879663 0.38685247
0.14022997 2.3384924 0.3717168
0.39987561 2.3242981 0.35491309
0.30985665 2.3024356 0.32633793
0.22385424 2.2984538 0.30206096
0.14135537 2.3226571 0.28216934
0.39531073 2.295367 0.26335651
0.31247517 2.3215864 0.24211732
0.22628179 2.3137515 0.21811996
0.1436961 2.3422403 0.19820814
0.39873296 2.3130658 0.17903993
0.31084156 2.3039739 0.15486453
0.22708163 2.3160877 0.13316633
0.14470068 2.3458867 0.11174396
0.40302902 2.3336079 0.09350042
0.31238478 2.3069036 0.069661513
0.22799057 2.3133008 0.047798585
0.14528136 2.3393538 0.025568567
0.40332681 2.3333895 0.0067366827
0.31269047 2.3028135 -0.015859405
0.22943027 2.3183737 -0.037492596
0.14684738 2.3506434 -0.060398605
0.40278164 2.3229876 -0.079859041
0.31405708 2.3065369 -0.10078
0.23095022 2.3192754 -0.1232098
0.14643438 2.3348641 -0.14595607
0.40320766 2.3163171 -0.16597539
0.31603742 2.3120248 -0.18693115
0.22923017 2.2983403 -0.20699245
0.14725471 2.3368449 -0.23255515
0.23892541 1.3702959 -0.14968312
0.19027026 1.3874422 -0.16401692
0.15103805 1.5103555 -0.19213076
0.14825006 2.3435171 -0.32070333
0.21946992 1.2526405 -0.18425485
0.18605281 1.3510824 -0.21062061
0.14212933 1.4157789 -0.23395163
0.14913908 2.3517077 -0.41096655
0.21551955 1.2245606 -0.22737332
0.1888524 1.3666468 -0.26577544
0.14410152 1.4266552 -0.29027396
0.12945741 2.0312529 -0.43337476
0.21727517 1.2276316 -0.27648044
0.17125691 1.2351817 -0.28878623
0.10345554 1.0231743 -0.24854705
0 0 -0
0.29018882 1.6306458 -0.43327746
0.13910922 0.99781269 -0.27377826
0 0 -0
0 0 -0
0.41638625 2.3238921 0.7293762
0.32093453 2.2936609 0.68787903
0.23373881 2.305017 0.66359866
0.14804582 2.3193672 0.64151335
0.41720092 2.3368959 0.63380563
0.32211354 2.2977035 0.59399271
0.23489268 2.2992034 0.56823409
0.15100761 2.3224072 0.54818064
0.41522515 2.3260636 0.53660583
0.32084671 2.2909937 0.5010941
0.23537627 2.2952199 0.47676021
0.15306425 2.3283041 0.45875394
0.41479981 2.3267324 0.44529083
0.32366943 2.3067522 0.41483641
0.23778112 2.307163 0.39033762
0.15438055 2.3346314 0.37124667
0.41499791 2.3266683 0.35565713
0.3217687 2.2848012 0.32411227
0.23887262 2.3059134 0.30322823
0.15600257 2.3276889 0.28289163
0.41672283 2.3339825 0.26807538
0.32588193 2.3137157 0.24150047
0.24119535 2.3192513 0.21877384
0.1569241 2.3244135 0.19677733
0.41449687 2.3194096 0.17972445
0.3255305 2.305975 0.1551304
0.24139211 2.3156435 0.13322346
0.15909204 2.3449547 0.11174396
0.41857284 2.337976 0.093776584
0.32653379 2.3049433 0.069661513
0.24290957 2.3188188 0.047942493
0.15983695 2.3414111 0.025601292
0.42045853 2.3466198 0.0067822007
0.32976753 2.3216422 -0.016002713
0.24291924 2.3099616 -0.037379958
0.16161014 2.3546846 -0.060526781
0.41720441 2.321456 -0.079892889
0.32933068 2.312479 -0.10112602
0.24486153 2.3148353 -0.12305143
0.16158108 2.34587 -0.14670329
0.42378813 2.3491397 -0.16851045
0.33078203 2.3139892 -0.18725054
0.24511199 2.3137288 -0.20850988
0.16186523 2.3398683 -0.23295048
0.2353072 1.3022718 -0.1424076
0.19455051 1.3567541 -0.1605272
0.15275893 1.4383696 -0.1830893
0.16276406 2.3445401 -0.32097396
0.23422271 1.2902204 -0.18999042
0.18701646 1.2990489 -0.20268418
0.15353295 1.4403912 -0.23816989
0.16322418 2.3458345 -0.41010749
0.2202061 1.2077315 -0.22449517
0.19400568 1.3431095 -0.26142466
0.1513899 1.4121007 -0.28749624
0.16033176 2.2938578 -0.4896031
0.22973283 1.2531631 -0.28254265
0.19238479 1.3276298 -0.31067082
0.11294688 1.0524806 -0.25582963
0.069285192 0.99625903 -0.25212634
0.22549227 1.2235286 -0.32546422
0 0 -0
0 0 -0
0 0 -0
0.43116036 2.3241117 0.73026174
0.33500215 2.2916484 0.68787903
0.24818629 2.306407 0.66442472
0.16193788 2.3136072 0.64018297
0.43188328 2.3361924 0.63432157
0.3369078 2.3004763 0.59523273
0.24899592 2.2977188 0.56823409
0.16518568 2.3204663 0.54795134
0.43055335 2.3292255 0.5379346
0.33702025 2.3034875 0.50426966
0.24998443 2.2986002 0.477772
0.1665031 2.315577 0.45643899
0.43156624 2.3376727 0.44788295
0.33838841 2.308619 0.41553771
0.25204027 2.3066409 0.39050362
0.16841781 2.3296998 0.3706198
0.42890701 2.3221331 0.35535949
0.33880827 2.3033583 0.32703343
0.25388271 2.3122895 0.3042658
0.17028205 2.3266881 0.28289163
0.43464908 2.3509238 0.27032244
0.33978292 2.3097043 0.24129485
0.25465804 2.3108003 0.21811996
0.1708906 2.3194318 0.19644068
0.43089783 2.328588 0.18063714
0.3424387 2.3226895 0.15639324
0.25537691 2.3121343 0.13310921
0.17318252 2.3399498 0.111554
0.43418539 2.342241 0.094052747
0.34271836 2.3167396 0.070080265
0.25746378 2.3202658 0.048004169
0.17338412 2.3294175 0.025481304
0.43503162 2.3449793 0.0067850463
0.3412194 2.3007812 -0.015873054
0.2556496 2.2955091 -0.037170772
0.17523493 2.3426831 -0.060244787
0.43527982 2.3394861 -0.080603801
0.34219125 2.3015208 -0.10073674
0.25983843 2.3202362 -0.12342095
0.17559856 2.3398581 -0.14639194
0.43434882 2.3259034 -0.16703168
0.3437973 2.304029 -0.18661174
0.25997016 2.3181198 -0.20904543
0.17479883 2.3199773 -0.23107263
0.24439009 1.3066672 -0.14304955
0.21051617 1.4066128 -0.16657604
0.16136007 1.4354335 -0.18283816
0.17445825 2.30793 -0.31610253
0.2351907 1.2517983 -0.18454163
0.19380915 1.2900584 -0.20146319
0.1527455 1.3541157 -0.22405493
0.17694518 2.3359478 -0.4085612
0.23034818 1.220857 -0.22719343
0.19375543 1.2855771 -0.25045314
0.15905742 1.4023802 -0.28571051
0.16297945 2.1426411 -0.45753211
0.2375997 1.2526891 -0.28275916
0.18217844 1.2050521 -0.28224343
0 0 -0
0 0 -0
0.23208956 1.2173704 -0.32419881
0.17236337 1.1343681 -0.31180301
0 0 -0
0 0 -0
0.44559276 2.3223608 0.73055685
0.35079086 2.3009217 0.69129568
0.26255092 2.306751 0.66497546
0.17635047 2.3154535 0.64098126
0.45183501 2.362916 0.64231831
0.35130945 2.3002813 0.59572875
0.26286867 2.2942181 0.56775653
0.17904533 2.3145568 0.54680508
0.44556963 2.3303711 0.53882045
0.35055816 2.2975113 0.5034228
0.26419553 2.297996 0.47797439
0.18070808 2.3145118 0.45643899
0.44590181 2.3349805 0.44788295
0.35165495 2.3006601 0.41448572
0.26630193 2.3060305 0.39066955
0.18209137 2.3207457 0.36936614
0.44704434 2.3398552 0.35848454
0.35428613 2.3100455 0.32828537
0.26612335 2.2939439 0.30206096
0.18416247 2.3206511 0.28228971
0.4494392 2.3501647 0.27054715
0.35259131 2.298727 0.24036954
0.26906231 2.3111722 0.21830679
0.18551573 2.3233061 0.19686152
0.44911399 2.3464663 0.18223436
0.35531974 2.3116686 0.15579505
0.26886493 2.304574 0.13276644
0.1872974 2.3358562 0.11141153
0.44873711 2.3405144 0.094092205
0.35601315 2.308666 0.069900803
0.27169582 2.3186424 0.048004169
0.18719184 2.3223295 0.025415855
0.45205 2.356015 0.0068248743
0.35548306 2.2996323 -0.015879879
0.27031359 2.2988625 -0.037251223
0.18855718 2.3286104 -0.059911516
0.4541586 2.3603256 -0.081416272
0.35691863 2.3033271 -0.10090975
0.27453914 2.3225648 -0.1236321
0.18914439 2.3287888 -0.14576927
0.45485336 2.3555155 -0.16935547
0.35792807 2.3018761 -0.18661174
0.27091089 2.2887862 -0.20654617
0.12160056 1.4916883 -0.14864554
0.25013766 1.2934291 -0.14176564
0.21944909 1.4072573 -0.16680868
0.16280179 1.3723502 -0.17492688
0.139928 1.7113492 -0.23450583
0.24324457 1.2522746 -0.1848284
0.2110431 1.3484052 -0.21077323
0.16256738 1.3658909 -0.22616406
0.14373775 1.7545501 -0.30702224
0.23595178 1.2097657 -0.22539459
0.19768023 1.2591423 -0.24553488
0.16486494 1.3780216 -0.28094867
0.11800347 1.4348824 -0.30654863
0.23326166 1.1898926 -0.26890269
0.19578196 1.2433684 -0.29149359
0 0 -0
0 0 -0
0.24423002 1.2396535 -0.3305259
0.18852027 1.1914309 -0.32779962
0 0 -0
0.073971435 0.90371549 -0.26617974
0.45853359 2.3130226 0.72849065
0.36625502 2.3072467 0.69385809
0.27669993 2.3050966 0.66497546
0.19118731 2.3220134 0.6431098
0.46351591 2.3458819 0.63844895
0.36678624 2.3066928 0.59796089
0.27682433 2.2915981 0.56751782
0.19251458 2.3046846 0.54474163
0.4636403 2.3467269 0.54324973
0.36480218 2.2962825 0.50363451
0.27829081 2.2963319 0.47797439
0.195071 2.3153148 0.45682478
0.46212313 2.3418417 0.44973448
0.36870465 2.3169324 0.41781703
0.27877855 2.2906485 0.38834614
0.19574471 2.312696 0.36826918
0.46254218 2.3428888 0.35937741
0.36845365 2.3078282 0.32828537
0.28055462 2.2952206 0.30245003
0.19797523 2.314532 0.28168786
0.46654788 2.3610101 0.27212009
0.36904201 2.3112543 0.24191171
0.28287476 2.3065131 0.21802655
0.19925533 2.3161674 0.19635652
0.46176216 2.3348629 0.18154983
0.37154642 2.3222535 0.15665911
0.2828787 2.3018901 0.13270931
0.20111075 2.328692 0.11112659
0.46503145 2.3475187 0.094486721
0.37159771 2.3153203 0.070169993
0.28689724 2.3248699 0.048168641
0.20091914 2.3151598 0.025350407
0.46785891 2.3600631 0.0068447883
0.37101609 2.3062935 -0.015941296
0.2853969 2.305099 -0.037379958
0.20327568 2.3323889 -0.060039695
0.46941218 2.3614156 -0.081551686
0.3700906 2.2951758 -0.10065024
0.28841507 2.3178639 -0.12347375
0.20308243 2.3236074 -0.1455202
0.46754172 2.3438759 -0.16872171
0.37331894 2.3075085 -0.18725054
0.28728923 2.3058598 -0.2082421
0.12979481 1.4800098 -0.14755836
0.37220407 1.8632177 -0.20446351
0.2147194 1.3235313 -0.15703747
0.17552131 1.405781 -0.17932203
0.12872577 1.4637103 -0.20067638
0.24917182 1.2420255 -0.18353792
0.20962556 1.287583 -0.20146319
0.16898319 1.349202 -0.2235682
0.13184872 1.496527 -0.26200834
0.23832037 1.1832229 -0.22071762
0.21204875 1.2986083 -0.25347975
0.17539802 1.3935157 -0.28432167
0.12396273 1.4019802 -0.29967624
0.24501309 1.2104472 -0.27388236
0.20624129 1.2594491 -0.29555467
0.17409234 1.3819742 -0.33664265
0.12350643 1.4023992 -0.35542467
0.2462398 1.2106385 -0.32318649
0 0 -0
0 0 -0
0 0 -0
0.47731429 2.3326306 0.73557484
0.38181001 2.3134685 0.69642055
0.28987506 2.2957251 0.6627726
0.20466639 2.312155 0.64071518
0.47790125 2.3429935 0.63844895
0.38267094 2.3149126 0.60068905
0.29185909 2.2975631 0.56942785
0.20717409 2.3092768 0.54611725
0.47822574 2.3447936 0.54347122
0.37999988 2.3007507 0.5051164
0.2929945 2.2994382 0.47898617
0.20953897 2.3170059 0.45740354
0.47864148 2.3495543 0.45177111
0.38371754 2.3194828 0.41869369
0.29433012 2.3006325 0.39033762
0.20948479 2.3065333 0.36748558
0.48085871 2.3593857 0.36235362
0.38147244 2.2986856 0.32731166
0.29501158 2.2964063 0.30283913
0.21289857 2.3211823 0.28265086
0.48023155 2.3542085 0.2716707
0.38614815 2.3266094 0.24376227
0.29689467 2.3037467 0.21793315
0.2133718 2.3139088 0.19627234
0.48246223 2.3632481 0.18398368
0.38464278 2.31304 0.15619385
0.29789245 2.3070419 0.13310921
0.2149353 2.3224409 0.11088914
0.48222929 2.3583267 0.09503904
0.38842845 2.3287716 0.070648566
0.30051428 2.3181081 0.048065845
0.21539861 2.3168705 0.02538313
0.48513773 2.3708637 0.0068846168
0.38730371 2.3167953 -0.01603001
0.29940641 2.3023126 -0.037363861
0.21767604 2.3320932 -0.060065337
0.489517 2.3859036 -0.082499564
0.38647786 2.3066564 -0.10125577
0.30314931 2.3200114 -0.12368491
0.217522 2.3243051 -0.14564474
0.48593733 2.3605037 -0.17013006
0.38945332 2.3169706 -0.18820876
0.30014026 2.2941778 -0.20734951
0.1370132 1.4593706 -0.14558169
0.37539887 1.8209738 -0.20007679
0.2205255 1.3084773 -0.15540893
0.17718029 1.3515594 -0.17254095
0.13640453 1.4490827 -0.19878194
0.25779113 1.2453189 -0.18425485
0.22098266 1.3067359 -0.20466828
0.17249909 1.3119415 -0.21756528
0.13668229 1.4495931 -0.25393334
0.24737728 1.1904063 -0.22233656
0.20753454 1.2237055 -0.2391033
0.17906734 1.3554895 -0.27678207
0.13458946 1.4226153 -0.30425781
0.25363296 1.2146549 -0.27518138
0.21200527 1.2466348 -0.29284731
0.15390299 1.1640636 -0.28378528
0.099900663 1.059899 -0.26877156
0.25247166 1.2034237 -0.321668
0 0 -0
0 0 -0
0.080825552 0.85784155 -0.25294116
0.4951691 2.3464854 0.740888
0.395998 2.3110821 0.69642055
0.30357707 2.2910442 0.66194654
0.21875875 2.3098958 0.64044905
0.49564981 2.3560901 0.64283425
0.39916179 2.3258882 0.6041612
0.30633599 2.2986166 0.57014406
0.22264054 2.321527 0.54932702
0.49822468 2.3685348 0.54967219
0.39526609 2.3051188 0.50659829
0.30761704 2.3014798 0.4797956
0.22365753 2.3147001 0.45721063
0.49547392 2.3581138 0.45399296
0.3982757 2.3190253 0.41904435
0.30870327 2.3007381 0.39066955
0.2235381 2.3042214 0.36732888
0.49675053 2.3631647 0.36339527
0.39641026 2.3011811 0.32800716
0.31002313 2.3014317 0.303747
0.22684686 2.3168681 0.28228971
0.50039583 2.3784442 0.27481657
0.4022744 2.3349791 0.24489319
0.31289101 2.3156948 0.21924092
0.2280536 2.3175144 0.19669318
0.49757007 2.3631704 0.18421187
0.39984637 2.3165359 0.15659264
0.31311396 2.3130853 0.13356623
0.22878888 2.3171022 0.11069918
0.49957716 2.3690112 0.095591359
0.40322167 2.329299 0.070738293
0.31607842 2.3261273 0.048271429
0.22921592 2.3115251 0.025339499
0.50194722 2.3786054 0.0069159106
0.40441778 2.3311248 -0.016146021
0.31595796 2.3182652 -0.037653506
0.2320804 2.3317084 -0.06009097
0.50518179 2.3877442 -0.082668833
0.40370438 2.321959 -0.10203434
0.31724346 2.3171179 -0.1236321
0.23158136 2.3209403 -0.1455202
0.50165474 2.3633323 -0.17055257
0.40314889 2.3115914 -0.18796921
0.31326461 2.2853856 -0.20672469
0.14527149 1.4515713 -0.14488986
0.47958881 2.2562759 -0.24822362
0.2275236 1.3012292 -0.15471099
0.18735977 1.3642068 -0.174299
0.14618352 1.4570911 -0.19999979
0.25737163 1.2059667 -0.17866269
0.22131202 1.2615515 -0.19780022
0.18350773 1.3323638 -0.22113459
0.14094503 1.402658 -0.24585833
0.25467682 1.188866 -0.22233656
0.22014292 1.2514219 -0.24477822
0.18402302 1.3300935 -0.27182183
0.13880359 1.3769981 -0.29467818
0.2540971 1.1806254 -0.26782015
0.21812747 1.2366759 -0.29081675
0.15984282 1.1544318 -0.28167096
0.1009755 1.0052415 -0.25506371
0.26046431 1.2046888 -0.32242724
0 0 -0
0 0 -0
0 0 -0
0.51239967 2.3564737 0.74502045
0.41151261 2.3161595 0.69869834
0.31908235 2.299613 0.66497546
0.23283112 2.3075511 0.64018297
0.51623797 2.381331 0.65057302
0.4139348 2.3262565 0.60490525
0.32137361 2.3034263 0.57181537
0.23697984 2.3210855 0.54955626
0.51564056 2.3787756 0.55277264
0.41282424 2.3218949 0.51083231
0.32173285 2.2995489 0.4797956
0.23735425 2.3084037 0.45624602
0.51700455 2.3876846 0.46028811
0.41405082 2.3252614 0.42062235
0.32254025 2.2968476 0.39033762
0.23807791 2.3067362 0.36795574
0.50872904 2.3484747 0.36160955
0.41504914 2.3240516 0.33162385
0.32496905 2.3053772 0.30452517
0.24085304 2.313458 0.28204897
0.51455915 2.3733866 0.27459186
0.41729355 2.3363836 0.24530444
0.32667586 2.3107738 0.21896069
0.24247664 2.3180537 0.19686152
0.5171349 2.3834593 0.18603724
0.41247115 2.3051991 0.15599445
0.32702094 2.3091438 0.13345198
0.24237655 2.3096943 0.11041424
0.52152991 2.4000766 0.096972167
0.41838908 2.3317003 0.070887849
0.33090809 2.3281035 0.048353665
0.24423306 2.3180304 0.025426762
0.51738256 2.3793893 0.0069272905
0.42101431 2.3413939 -0.016234737
0.3305999 2.3192525 -0.037701782
0.24606779 2.3272581 -0.060014062
0.51982319 2.3845994 -0.082668833
0.41900703 2.3253374 -0.10229385
0.33159661 2.3161166 -0.12368491
0.24602841 2.3214607 -0.14564474
0.52126098 2.3835974 -0.1722426
0.42193431 2.334578 -0.19004534
0.32954255 2.2991951 -0.20815283
0.15575294 1.4654956 -0.14637236
0.50958788 2.3271053 -0.25635508
0.23833664 1.3154455 -0.15657218
0.18952227 1.3198231 -0.16877368
0.15365197 1.4423736 -0.19810535
0.26540396 1.2072645 -0.17909285
0.23293677 1.2815616 -0.20115794
0.19674221 1.3663733 -0.22697526
0.14944442 1.4007871 -0.24568652
0.25815171 1.1699904 -0.21909866
0.21619761 1.1862894 -0.2322934
0.17703083 1.2241762 -0.25039354
0.15078825 1.4091862 -0.3017588
0.25774497 1.1628405 -0.26413947
0.22466084 1.2295641 -0.2894631
0.19072969 1.3179301 -0.32184258
0 0 -0
0.25334439 1.1379097 -0.30496454
0.21752851 1.1854964 -0.32753742
0 0 -0
0.082700118 0.77568626 -0.22899906
0.52935392 2.3644733 0.74856246
0.42762482 2.3239615 0.70183021
0.3358078 2.3156881 0.67020708
0.246575 2.3022451 0.63911867
0.53041893 2.3762329 0.65005714
0.42925406 2.3293891 0.60639334
0.33578125 2.3033326 0.57229286
0.25048366 2.3128138 0.54795134
0.52873975 2.3689048 0.55122244
0.4298951 2.334697 0.51421952
0.33640313 2.3014076 0.48060504
0.25162023 2.3078794 0.45643899
0.53463936 2.3978956 0.46288022
0.42848909 2.3236451 0.42079768
0.33662736 2.2948251 0.39033762
0.25233474 2.3062139 0.36811247
0.53583091 2.4022527 0.37038937
0.42948154 2.3224351 0.331763
0.34026387 2.3111877 0.30556276
0.25547904 2.3158836 0.28253049
0.52997828 2.374064 0.27504128
0.43324956 2.3425822 0.24622972
0.3411392 2.3106959 0.21914752
0.25592715 2.3095891 0.19627234
0.53153247 2.3792682 0.18596119
0.43151551 2.3291142 0.15778902
0.34176764 2.3110442 0.13368049
0.25709572 2.3131275 0.11065169
0.53690118 2.3997567 0.097090527
0.4325057 2.3281064 0.070857935
0.34430629 2.3200958 0.048230316
0.25978214 2.3284135 0.02555766
0.54049277 2.4142277 0.0070382408
0.43464085 2.3348339 -0.016207438
0.34394133 2.3112464 -0.037605233
0.2597869 2.3207374 -0.059885882
0.5357582 2.3872161 -0.082871951
0.43564874 2.3354902 -0.10285614
0.34580177 2.3140383 -0.12368491
0.26049054 2.3218908 -0.14576927
0.5406965 2.4017637 -0.17379181
0.43735087 2.3378241 -0.19052444
0.34334925 2.2951598 -0.20797431
0.19533232 1.7364508 -0.17355156
0.50636613 2.246341 -0.24779566
0.24109472 1.2856487 -0.15319878
0.19952846 1.33139 -0.17040616
0.16072336 1.4256506 -0.19594026
0.27171448 1.2007871 -0.17837591
0.24152668 1.2839931 -0.20176843
0.18914077 1.2587785 -0.209291
0.1574841 1.3949493 -0.24482748
0.26467228 1.1655066 -0.218559
0.23548321 1.2486262 -0.24477822
0.19331253 1.2812158 -0.26229814
0.15910192 1.4053189 -0.30113402
0.26422381 1.1583816 -0.26348996
0.22785749 1.2051883 -0.28404835
0.18662278 1.2360008 -0.30210915
0.11884933 1.0530633 -0.26754764
0.25902548 1.1306756 -0.30344605
0 0 -0
0.13730803 0.90777981 -0.25922662
0.098430678 0.87241727 -0.25772959
0.55328798 2.402148 0.76155019
0.44295189 2.3269441 0.70353854
0.3502979 2.3154852 0.67075783
0.26156491 2.3083513 0.64124727
0.55169344 2.4021244 0.65805382
0.44625992 2.3409855 0.61011356
0.34976196 2.3002689 0.57205415
0.26400566 2.3054311 0.54657573
0.55068612 2.3979304 0.55875218
0.44494396 2.3358555 0.51506633
0.35037038 2.298332 0.48040268
0.26633802 2.3111658 0.45740354
0.55395699 2.4146843 0.46676847
0.44476783 2.33161 0.42272633
0.35219294 2.3024647 0.39199725
0.26738819 2.3124709 0.36936614
0.55542713 2.4201236 0.37366322
0.44353756 2.3187833 0.33162385
0.35413775 2.3070962 0.30530334
0.2693395 2.3113141 0.28216934
0.54809439 2.3862627 0.27683896
0.45097932 2.3574655 0.2480803
0.3569769 2.3193836 0.22017506
0.27032536 2.3099549 0.19644068
0.55349231 2.4080303 0.18847109
0.44748864 2.3352425 0.15838721
0.35472459 2.3010099 0.13322346
0.27081826 2.3075383 0.11046173
0.55340886 2.4042072 0.097406134
0.44866848 2.3352249 0.071157038
0.35899413 2.3209035 0.048291992
0.27312833 2.318831 0.025470395
0.5539493 2.4050188 0.0070211715
0.45179448 2.3468523 -0.016309801
0.35934228 2.3169968 -0.037733961
0.27378717 2.3171139 -0.059834607
0.55399317 2.3994646 -0.083413601
0.4503493 2.3347354 -0.10294265
0.36030123 2.3138461 -0.12379047
0.27473247 2.3202488 -0.14576927
0.5560984 2.4013162 -0.17400306
0.45168728 2.3350966 -0.19052444
0.35788584 2.2959623 -0.2082421
0.22217107 1.8715864 -0.18719058
0.53586084 2.310991 -0.25528514
0.25143641 1.2968209 -0.15471099
0.21136723 1.3536656 -0.17341998
0.16689318 1.4029926 -0.19296327
0.26898202 1.1557214 -0.1719234
0.24449556 1.2572641 -0.19780022
0.20555943 1.3131624 -0.21853875
0.16534126 1.3880874 -0.24379662
0.27316102 1.1696081 -0.2196383
0.234309 1.2018592 -0.23588753
0.20299636 1.2916244 -0.26467907
0.16331418 1.3674116 -0.2932204
0.26597583 1.133927 -0.25829378
0.24085368 1.2324513 -0.29081675
0.19586438 1.2453948 -0.30469328
0.13677321 1.1485918 -0.29202592
0.27438736 1.1648486 -0.3130632
0.23874868 1.2168279 -0.33697805
0.13149336 0.83467078 -0.23857544
0.090511411 0.76032126 -0.224774
0.57682335 2.4358971 0.77335715
0.45833161 2.3298259 0.70524687
0.36300254 2.3037961 0.66800427
