# .PCD v0.7 - Point Cloud Data file format
VERSION 0.7
FIELDS x y z
SIZE 4 4 4
TYPE F F F
COUNT 1 1 1
WIDTH 1460
HEIGHT 1
VIEWPOINT 0 0 0 1 0 0 0
POINTS 1460
DATA ascii
0.84296221 0.11498156 0.10316516
1.9320416 0.049860485 0.21852748
1.9726049 0.12356355 0.20428328
0 0 0
0.84519327 0.11486518 0.072045088
1.9536802 0.050111827 0.14907317
1.9608415 0.12220828 0.13087051
0 0 0
0.84035516 0.11392386 0.040319007
1.9258811 0.048793353 0.076062791
1.920471 0.11875007 0.057577681
0 0 0
0.84031111 0.11355945 0.0092500625
1.9463745 0.04904063 0.0055389875
1.9532683 0.12005942 -0.01335493
0 0 -0
0.82724714 0.11148527 -0.021406125
2.0132325 0.049670395 -0.068213634
7.8549809 0.47992378 -0.34070557
0 0 -0
0.85957158 0.11562768 -0.054110847
2.0173967 0.048434351 -0.14245576
7.8603678 0.47612199 -0.63082278
0 0 -0
0.83536267 0.11211882 -0.083711952
7.313705 0.1735464 -0.78725404
7.7172165 0.46407142 -0.90546644
7.6596594 0.74284595 -0.97409034
0.85141927 0.11406209 -0.11732058
7.2948966 0.16711281 -1.057207
7.778831 0.46341652 -1.2034373
4.8156276 0.46516082 -0.79546803
0.86902094 0.11628117 -0.15290979
4.4225607 0.097914807 -0.80893815
4.1414933 0.24476705 -0.79921794
3.9337635 0.37755275 -0.79998946
0 0 -0
3.5567703 0.075330488 -0.78895438
3.4564276 0.20270495 -0.80183303
3.3333056 0.31957003 -0.80930489
0 0 -0
3.0149078 0.06101143 -0.78885847
2.9672403 0.17178173 -0.80769831
2.8270764 0.27029002 -0.80186349
2.7446609 0.36745018 -0.81290448
1.8178787 0.034643203 0.56171703
0.91875494 0.05272973 0.27332941
0.86702579 0.082870401 0.24946904
0.86185098 0.11496102 0.24000211
1.8459662 0.036338754 0.49295998
1.9478996 0.11128338 0.4994995
0.86523563 0.082044058 0.21368466
0.865578 0.11441277 0.20565371
1.8973101 0.03738261 0.43096781
1.9397629 0.11109026 0.42085978
0.86382651 0.081575789 0.17929098
0.86486018 0.11368825 0.17150222
1.9483268 0.038830027 0.36715662
1.96681 0.11212265 0.35084009
0.90719366 0.085207939 0.15334693
0.86567461 0.11345718 0.13853189
1.9170334 0.038038991 0.28854358
1.947741 0.11004657 0.27403483
0 0 0
0.84168297 0.10955081 0.1029244
1.8935658 0.037242714 0.21414571
1.9524703 0.11027959 0.20212427
0 0 0
0.83600026 0.10839573 0.071203433
1.8702102 0.036489468 0.14268433
1.9695243 0.11062212 0.13140222
7.7350965 0.71739298 0.44451618
0.8549071 0.11055893 0.040983867
1.9161539 0.036783669 0.075668275
1.9511036 0.10863101 0.058474991
7.7414975 0.7140348 0.15986314
0.82909125 0.10686728 0.0091191651
1.9466388 0.037096977 0.0055389875
1.9609573 0.1084587 -0.013402699
7.758348 0.71244824 -0.12538296
0.83089024 0.10678958 -0.021483034
1.9965121 0.037001669 -0.067638136
7.633327 0.41938585 -0.33097363
7.7599063 0.70781136 -0.41191348
0.84937549 0.10895442 -0.053425901
1.9827484 0.035431139 -0.13999112
7.7018967 0.41910842 -0.6178869
0 0 -0
0.83406073 0.10673837 -0.083514281
2.1343455 0.03754393 -0.22971383
6.938406 0.37452576 -0.81380308
7.6729655 0.69664049 -0.9752205
0.83342957 0.10645063 -0.11474954
5.4552646 0.091483817 -0.79050356
5.1475525 0.27497467 -0.79608482
4.8862 0.44173416 -0.80666262
0.86678642 0.11057279 -0.15239435
4.4693055 0.071516357 -0.81739265
4.1448784 0.21945456 -0.79959625
3.9535778 0.35498625 -0.80356085
3.7645757 0.47903135 -0.80802214
3.7094481 0.055795696 -0.82272959
3.4255013 0.17980768 -0.79438776
3.3255224 0.29824299 -0.80695564
3.1575227 0.4029057 -0.80362207
3.072299 0.043315824 -0.80379039
2.9855852 0.15446934 -0.81241864
2.798008 0.25019547 -0.79316825
2.7611406 0.35242456 -0.81712949
1.8142356 0.023438886 0.56053632
0.92863476 0.047581896 0.27617657
0.86560291 0.077377684 0.24891834
0.84532756 0.10748209 0.23521271
1.8519508 0.025089964 0.4945077
1.9330658 0.09854009 0.49553126
0.86862463 0.076990739 0.21440092
0.86722952 0.10922116 0.20588298
1.8984789 0.025753461 0.43118927
1.940408 0.099186003 0.42085978
0.90235609 0.079631343 0.18718302
0.86262059 0.10801368 0.17092347
1.9239631 0.026535776 0.36252782
1.9566453 0.099502407 0.34891143
0 0 0
0.87811488 0.10961137 0.14041241
1.8846012 0.025828395 0.28363284
1.9533248 0.098342352 0.27473035
1.485658 0.12956509 0.19506213
0.86696917 0.10743646 0.10593389
1.8967392 0.02566364 0.21448275
1.9620513 0.098747373 0.20304956
1.980819 0.1719472 0.18654628
0.89301968 0.1102216 0.076000832
1.8305182 0.024480054 0.13964202
1.961197 0.098086692 0.13080403
7.7313957 0.66922909 0.44405916
0.83574158 0.10287066 0.040034067
1.8993583 0.024803866 0.074997596
1.9147953 0.094827905 0.057368308
2.0051646 0.17254443 0.041384321
0.82873887 0.10165632 0.0091082565
1.933831 0.024983989 0.0055020037
1.9885526 0.097750038 -0.013586951
7.8153734 0.66935259 -0.1262358
0.83649123 0.10229606 -0.021611216
2.02968 0.025159396 -0.068755284
7.4022532 0.36114836 -0.32085234
7.8198237 0.66492212 -0.41486967
0.85200942 0.10398252 -0.053550433
1.9530051 0.022913482 -0.13787858
7.4076204 0.35752246 -0.5940913
7.7509599 0.65784031 -0.69711566
0.83766341 0.10197945 -0.083810784
2.0162268 0.023092113 -0.21698168
7.2639909 0.34741345 -0.85172474
7.6731415 0.64921242 -0.97471827
0 0 -0
2.2018836 0.023412028 -0.31904051
5.1501303 0.24343139 -0.79623753
7.7717662 0.65455151 -1.2823535
0 0 -0
7.416646 0.07316301 -1.356325
4.1520324 0.19429332 -0.80073124
3.9615417 0.33121082 -0.80475134
3.7509372 0.45392573 -0.8044818
3.6355262 0.032373223 -0.80627501
3.4567087 0.16018382 -0.80138183
3.3311644 0.27815589 -0.8078953
3.1945858 0.38772947 -0.81243426
3.0870183 0.024579279 -0.80758667
3.0173249 0.13755353 -0.82081032
2.823467 0.23501827 -0.79996145
2.751821 0.33408821 -0.81374949
1.8047911 0.012241699 0.55758458
0.93752795 0.04227161 0.27873904
0.8861801 0.073739067 0.25470075
0.85554093 0.1034504 0.23787348
1.8259845 0.013532809 0.48754284
1.9229883 0.086199962 0.4928031
0.89134002 0.073494889 0.21989226
0.85918522 0.10285659 0.20381957
1.8459435 0.01371295 0.41923025
1.9351221 0.087014608 0.41958958
0 0 0
0.88177961 0.10492148 0.17458886
1.9309685 0.014782722 0.36382389
1.9552518 0.087406844 0.34856075
1.5676761 0.12785695 0.26470602
0.89054018 0.10561712 0.14229293
1.8778023 0.014211824 0.28259116
1.9232227 0.084999673 0.27041814
2.014185 0.16321187 0.26431957
0.84789354 0.099794015 0.10352629
1.8332679 0.01355479 0.20729214
1.9705701 0.087057799 0.20387203
1.9957305 0.1609101 0.18785408
0.82836038 0.097084634 0.070445947
1.8326281 0.013262176 0.13979413
1.955781 0.085788816 0.13040525
1.9813578 0.159264 0.11374267
0.84230977 0.09843637 0.040319007
1.9004738 0.013156073 0.075037047
1.9383092 0.084073395 0.058056246
2.0051889 0.16015814 0.041363765
0.82736057 0.096338056 0.0090864412
1.9169482 0.013002449 0.0054536406
1.9901141 0.085589632 -0.013593776
7.8342848 0.62257391 -0.12647717
0.83809614 0.097276777 -0.021636851
1.9688324 0.012323451 -0.066690251
7.3963447 0.31538168 -0.32050633
7.8337121 0.61771309 -0.41539755
0.83974284 0.097259961 -0.052740954
1.9501164 0.010912891 -0.13766733
7.4256091 0.31273451 -0.59536892
7.7945681 0.6133945 -0.70068598
0.84420455 0.097522892 -0.084403783
1.9845145 0.010551186 -0.2135579
7.2233143 0.30105743 -0.84672278
7.665112 0.60118783 -0.97321135
0 0 -0
2.1069787 0.0094738919 -0.30527517
5.154489 0.21194801 -0.79669535
7.7825227 0.60738999 -1.2834891
0 0 -0
4.5947738 0.017131509 -0.84023792
4.1659007 0.16933171 -0.80319041
3.992815 0.30916697 -0.81070358
3.8498495 0.44194493 -0.82509887
3.6307747 0.010051929 -0.80519241
3.447892 0.13857959 -0.79912561
3.3124571 0.25613731 -0.80296201
3.1766772 0.36579138 -0.80729377
3.1045249 0.0056690262 -0.81214207
2.9631498 0.11686923 -0.80586267
2.8440464 0.21916825 -0.80539596
2.7414274 0.31576973 -0.81008774
1.8076986 0.0011693329 0.55847013
1.0757052 0.041889679 0.31973845
0.90291041 0.069555424 0.25938171
0.85711724 0.098308787 0.23813955
1.8173376 0.002317436 0.48522118
1.9205769 0.074286774 0.49205905
0.91888565 0.070092402 0.22657737
0.88688046 0.10065626 0.21023908
1.8255143 0.0023597241 0.41457951
1.9356196 0.075139284 0.41958958
0 0 0
0.88143176 0.099399053 0.17439595
1.8573196 0.0028222499 0.34993747
1.9301732 0.074421786 0.34400213
1.999135 0.15070389 0.33739641
0.87939388 0.098827302 0.14041241
1.7750123 0.0025422822 0.26711488
1.9444889 0.073988117 0.2733393
1.9924065 0.14914756 0.26133657
0.88104832 0.098219164 0.10749882
1.8263609 0.0022970664 0.20650566
1.9581455 0.07447353 0.20253551
2.0046232 0.14925289 0.18860137
0 0 0
1.8376606 0.0020226187 0.14017442
1.9612559 0.073974796 0.13073757
1.9842891 0.14725138 0.11385693
0 0 0
1.8945235 0.0014900222 0.074800342
1.942784 0.072327316 0.058175888
1.9891835 0.14660227 0.041014269
0.82197255 0.090602316 0.0090209916
1.9329919 0.0012503804 0.005499159
1.9576249 0.072161332 -0.013368578
7.8409486 0.57471114 -0.12652543
0.81681597 0.089730926 -0.021072857
1.9728687 0.00024318344 -0.066825666
7.3881569 0.26962829 -0.32007381
7.8433309 0.57006902 -0.41571429
0 0 -0
1.9710945 -0.0010643147 -0.1391461
7.4234037 0.26702261 -0.5950495
7.8011651 0.56577247 -0.70095378
0.83984101 0.091800474 -0.083909616
1.9934903 -0.0016330953 -0.21452084
7.2230406 0.25665981 -0.84649014
7.7022996 0.5565753 -0.97748089
0 0 -0
1.9842786 -0.0032532648 -0.28749493
7.3819246 0.25817755 -1.140709
4.8078771 0.34556597 -0.79254764
4.5196557 0.49219394 -0.7928974
2.2250955 -0.0053568468 -0.40689749
4.1933584 0.14468125 -0.80829781
3.9741066 0.28319868 -0.80653697
3.750391 0.40722829 -0.80323231
2.2483623 -0.0075711519 -0.49861744
3.4564667 0.11768632 -0.80093056
3.3246315 0.23656653 -0.8055461
3.1422348 0.34230274 -0.79799211
3.0435529 -0.013117406 -0.79619789
2.9647756 0.098717585 -0.80612487
2.8290181 0.20055644 -0.80077654
2.7471287 0.29935849 -0.81121439
1.8019391 -0.0098910518 0.5566991
1.8615808 0.061055686 0.55320734
0.9205811 0.065237157 0.26433805
0.88166255 0.095646866 0.24479149
1.8240808 -0.0088664554 0.48702693
1.890981 0.061524361 0.48437062
1.1837541 0.082994148 0.29175714
0.88167453 0.094589591 0.20886348
1.8264697 -0.0088461889 0.41480097
1.9331137 0.063165374 0.41895449
1.9831871 0.13827796 0.41079086
0.87129247 0.092845157 0.17227389
1.8386307 -0.0084879072 0.34641957
1.9227215 0.062321905 0.34259945
2.0098598 0.13911553 0.33905602
0.87605518 0.093012482 0.13978557
1.8570695 -0.0087350924 0.27946615
1.9320391 0.06164502 0.27153096
1.9883379 0.13657981 0.26068807
0 0 0
1.8233597 -0.0088947751 0.20616861
1.9396758 0.061854791 0.20058212
1.9836484 0.13545766 0.18654628
0 0 0
1.8376384 -0.0092530921 0.14017442
1.9457163 0.061435536 0.12967412
1.9861512 0.13514102 0.11391406
0 0 0
1.8715152 -0.010011643 0.073892951
1.9351987 0.0601568 0.057936605
1.9671028 0.1328447 0.040541425
0 0 0
1.9319631 -0.010604769 0.0054963138
1.9670264 0.060424544 -0.013429996
7.8533058 0.52719194 -0.12667026
7.8254914 0.81110162 -0.20175594
1.9588412 -0.011777987 -0.066351719
2.0571251 0.062437579 -0.089101627
7.8646164 0.52312553 -0.41666451
7.7803097 0.80449718 -0.48799393
1.9630709 -0.013105429 -0.13858277
7.396008 0.22060658 -0.59273386
7.8174095 0.5187521 -0.70211411
0 0 -0
1.9546676 -0.0135952 -0.21034811
7.2115731 0.2119559 -0.84497792
7.685771 0.50799584 -0.97496939
7.7419086 0.79629308 -1.0629218
1.9644285 -0.015274608 -0.28462717
5.1438594 0.14830826 -0.79471123
7.7696977 0.51054668 -1.2802444
4.5421901 0.46646538 -0.79633355
2.0823913 -0.017791107 -0.38081434
7.3361115 0.2080556 -1.4138118
3.9464281 0.25689867 -0.80058473
3.7674141 0.38570288 -0.80635613
2.2062953 -0.020967755 -0.48930755
3.4259608 0.095605992 -0.79371089
3.3803384 0.21969274 -0.81870174
3.1539209 0.32400677 -0.80043989
2.2501538 -0.023505501 -0.58867019
2.9566436 0.080288447 -0.8037647
2.8724515 0.18592931 -0.81273252
2.7575042 0.28337958 -0.81374949
1.7932462 -0.020847395 0.55404252
1.8580874 0.049529918 0.55206847
0.91904539 0.05946321 0.26378736
0.87360233 0.089352556 0.2423968
1.8114327 -0.019920522 0.48367345
1.8951967 0.050022606 0.48536271
1.9314178 0.12350927 0.47583634
0.89482784 0.090450525 0.21184395
1.8332068 -0.020127974 0.41635123
1.9305339 0.051225055 0.41831937
1.9654287 0.12492643 0.406946
0.88356149 0.088673025 0.17458886
1.8257694 -0.019632012 0.34401259
1.9476719 0.051169541 0.34698275
1.9821347 0.12498103 0.33424321
0.87464398 0.087438866 0.13947216
1.8401711 -0.019947473 0.27693635
1.9383206 0.049942128 0.27236557
1.9752839 0.12351073 0.25887233
0 0 0
1.8312197 -0.020170085 0.20706743
1.9609007 0.050489668 0.20274113
1.9794737 0.12297501 0.18607922
0 0 0
1.8584849 -0.020762367 0.14177163
1.9360819 0.049241994 0.12900947
1.9819608 0.12264337 0.11362842
0 0 0
1.8824092 -0.021621093 0.074326918
1.9315344 0.048181809 0.057816964
1.9868411 0.12193591 0.040932033
0 0 0
1.9498605 -0.022668116 0.0055475216
1.9473666 0.047862556 -0.013293512
7.8494067 0.47856909 -0.12655762
7.8303208 0.76307005 -0.20175594
1.9297509 -0.023444891 -0.065369986
2.0384927 0.049354669 -0.088279814
7.8646874 0.47467878 -0.41650614
7.7642388 0.75471514 -0.48668629
1.9080946 -0.024447478 -0.13470978
2.1096485 0.049972203 -0.16904452
7.8691616 0.47370827 -0.70648789
0 0 -0
1.9575299 -0.025627606 -0.21066909
7.227632 0.16804883 -0.84672278
7.7283559 0.46320143 -0.97999239
7.7239656 0.74658215 -1.0598094
1.975183 -0.027479265 -0.28620443
5.1683855 0.11728144 -0.79837424
7.7519989 0.46163133 -1.2768372
7.7965541 0.75236231 -1.3660513
2.0448666 -0.030019388 -0.37397873
4.2016897 0.093364097 -0.80962193
3.9772825 0.23440896 -0.80653697
3.748291 0.36051908 -0.8017745
2.1983159 -0.034382794 -0.48757553
3.4410927 0.074900895 -0.79709512
3.4301398 0.20180157 -0.83044779
3.2012088 0.30902731 -0.81194466
2.1745167 -0.036060531 -0.56892973
2.9667284 0.062348071 -0.80638713
2.8543239 0.1671754 -0.807298
2.7305391 0.26368761 -0.80529934
1.7911739 -0.031816218 0.55345219
1.8602731 0.038167302 0.55263788
0.93474817 0.054721855 0.26819298
0.86837691 0.083437368 0.24080034
1.8170724 -0.031134199 0.48522118
1.8877194 0.038236011 0.48337859
1.9515284 0.11277646 0.48061138
0.89052093 0.084498532 0.21069762
1.8281736 -0.031292494 0.41524389
1.9142007 0.039039776 0.41472048
1.9554033 0.11224707 0.40472001
0.88995034 0.083801866 0.17574637
1.8295449 -0.030900735 0.34475324
1.9430277 0.039118804 0.34610608
1.9877868 0.1130966 0.33507299
0 0 0
1.8360592 -0.031171033 0.27634114
1.9385906 0.038047876 0.27236557
1.9720447 0.11116507 0.25835356
0 0 0
1.8221198 -0.031252496 0.20605625
1.9253712 0.037754804 0.19903997
1.9583215 0.10960288 0.18402413
0 0 0
1.8403773 -0.031854812 0.1404026
1.9533068 0.037688717 0.13013938
1.9707142 0.10981344 0.11294288
7.7583981 0.71417683 0.37042195
1.9232028 -0.033892803 0.075944439
1.9138049 0.035990935 0.057278574
1.9586022 0.10814413 0.040335838
7.7241807 0.70776427 0.084614068
1.9486848 -0.034614049 0.0055446769
1.9696195 0.036318425 -0.013443644
7.6635032 0.42005438 -0.12351638
7.8239045 0.71401036 -0.20147394
1.9405626 -0.035486184 -0.065742373
1.9568472 0.035365455 -0.084733054
7.6241493 0.41322613 -0.40362558
7.7895966 0.70896024 -0.48799393
1.9148901 -0.036287162 -0.13520269
2.018223 0.035417605 -0.16169824
7.6372046 0.41273057 -0.68542266
0 0 -0
1.960318 -0.037695646 -0.21099007
2.1271474 0.036400687 -0.24916613
6.2896528 0.33825463 -0.79727983
7.7145867 0.69792491 -1.057915
1.9591459 -0.039280824 -0.28391021
5.2964787 0.087676734 -0.8180626
4.8902802 0.26111388 -0.80520248
4.6339121 0.41848794 -0.81145269
1.9856355 -0.041337438 -0.3631857
7.3764033 0.11863037 -1.4211892
3.9346018 0.20767567 -0.79760849
3.754329 0.33786386 -0.80260754
2.1658537 -0.047169279 -0.48043078
3.4648659 0.054150704 -0.80250984
3.408988 0.1795748 -0.82504457
3.1547625 0.28501716 -0.79970556
2.2119753 -0.050259508 -0.57879996
2.9352136 0.043669663 -0.79773319
2.8639455 0.15011181 -0.80974358
2.7808421 0.25133318 -0.81966454
1.7899897 -0.042783223 0.55315697
1.8585553 0.026724596 0.55206847
0.93986648 0.049236782 0.26956975
0.88327372 0.079402134 0.24479149
1.8129836 -0.042193048 0.48418936
1.8666079 0.02635161 0.47792226
1.9182411 0.09904737 0.47225502
0.92689627 0.082214758 0.21918054
1.8084491 -0.042055935 0.41081464
1.9192903 0.027363386 0.41577899
1.9501872 0.099946089 0.40350586
0 0 0
1.8293209 -0.04212603 0.34475324
1.9314182 0.02703055 0.34400213
1.9825342 0.10059779 0.33407724
0 0 0
1.8269359 -0.042230625 0.27500182
1.9150232 0.025831634 0.26902708
1.9568447 0.098267049 0.25627843
2.010674 0.1743134 0.24473134
1.832821 -0.042686723 0.20729214
1.8768306 0.025283694 0.19400229
1.9649234 0.097881995 0.1845846
1.9994394 0.172355 0.16950795
1.8471249 -0.043310169 0.140935
1.8407609 0.024219386 0.12262878
1.9753394 0.097917005 0.11317139
7.7496963 0.66544783 0.36980459
1.9249564 -0.045740187 0.07602334
1.9119908 0.024222046 0.057218757
1.9592289 0.096124344 0.040335838
2.0304801 0.17349568 0.022230692
1.9634314 -0.046928719 0.0055873501
1.9488072 0.02397407 -0.013300336
7.3902984 0.35961157 -0.11907519
7.8380995 0.66683775 -0.20173031
1.945304 -0.047514603 -0.065911636
1.9800042 0.023632037 -0.085727878
7.4130855 0.35618141 -0.39232871
7.8584418 0.66663438 -0.49204132
1.8817236 -0.047210407 -0.1328789
1.9914905 0.022726245 -0.15954226
7.4137583 0.35504648 -0.66516078
7.7391858 0.65420514 -0.77139521
1.9491165 -0.04944586 -0.20981315
2.0657554 0.022672262 -0.24195404
7.2647333 0.34600341 -0.92059511
7.7197108 0.6506592 -1.0580503
1.9400707 -0.050808892 -0.28118581
2.1820138 0.022729427 -0.33699298
4.9065747 0.23180124 -0.80763608
7.7266669 0.65002316 -1.3523067
1.9912446 -0.05367934 -0.36426499
4.1818995 0.041590795 -0.80564952
4.0131474 0.18713616 -0.81328291
3.740737 0.31351441 -0.79927552
2.1069696 -0.05882309 -0.46744031
3.465133 0.032889668 -0.80250984
3.4012871 0.15824769 -0.82293034
3.2781882 0.27590019 -0.83054817
2.2106581 -0.063803069 -0.57854682
3.0415728 0.026586538 -0.82657963
2.9301839 0.13556045 -0.8282209
2.7852001 0.23450702 -0.82050955
1.8078388 -0.054310706 0.55876529
1.8471812 0.015225399 0.54865181
1.0640318 0.04919672 0.30509016
0.88950789 0.074463464 0.24638797
1.8165536 -0.053430129 0.48522118
1.84736 0.014743202 0.47296199
1.9188128 0.087275401 0.47225502
0.93611389 0.077246316 0.22124396
1.8169297 -0.053409453 0.41280779
1.8803301 0.015268887 0.40731099
1.9458722 0.087757483 0.40249407
0 0 0
1.8201873 -0.053091872 0.34308684
1.9394236 0.015240973 0.34540477
1.9535595 0.087113395 0.32909843
1.9864948 0.16172279 0.31624135
1.8236771 -0.053352945 0.27455539
1.8983113 0.013957014 0.2666623
1.9712791 0.086869374 0.25809416
2.0295174 0.16340695 0.24689819
1.8335179 -0.053961128 0.20740449
1.857057 0.013621286 0.19194609
1.9644924 0.085780181 0.1844912
1.9944996 0.15960652 0.16900295
1.8577878 -0.054967478 0.14177163
1.8937565 0.013295501 0.12615146
1.9609417 0.085145079 0.11231446
1.9974046 0.15917239 0.095264927
1.9316311 -0.057759698 0.076299503
1.9091048 0.012470249 0.057129022
1.9507918 0.083715141 0.04015081
1.9946244 0.15811005 0.021827092
1.9541105 -0.058704969 0.0055617462
1.9489177 0.012015962 -0.013300336
2.1038272 0.089436345 -0.033888157
7.8589849 0.62006819 -0.20216611
1.9689507 -0.060182687 -0.066724107
2.0020912 0.011609969 -0.086679451
7.4191227 0.31085607 -0.39253989
7.8683538 0.61887288 -0.49241495
1.9342412 -0.060405817 -0.13661106
1.9567046 0.010322217 -0.15674748
7.4227633 0.30984062 -0.66578561
7.7599192 0.60802752 -0.7730754
1.9428138 -0.061216604 -0.20917119
2.0678418 0.01000621 -0.24218667
7.199316 0.29862547 -0.91205603
7.7630696 0.60636592 -1.063463
1.9664295 -0.063575432 -0.28505731
2.1336865 0.0091331303 -0.32951441
4.8694539 0.20011055 -0.80130869
7.736403 0.60306036 -1.3533375
1.9849788 -0.065701127 -0.3631857
4.1378884 0.015762042 -0.79713714
3.9456682 0.15973324 -0.79939425
3.7845213 0.29381108 -0.8082304
1.9865559 -0.06766244 -0.44080982
3.509109 0.011774493 -0.81266254
3.4196761 0.1380807 -0.82715893
3.1908884 0.248845 -0.80802816
2.0806668 -0.072831191 -0.54463381
2.9451785 0.0076719243 -0.80035561
2.9001894 0.11634421 -0.81952566
2.7894566 0.21763685 -0.82135463
1.7845558 -0.064573184 0.5516811
1.8098543 0.0038122721 0.53754783
1.8769575 0.075244904 0.53803807
0.91013038 0.070569031 0.2519756
1.8268125 -0.064952925 0.48805875
1.8561345 0.00342382 0.47519416
1.9319265 0.075996354 0.47535881
0 0 0
1.8009748 -0.064002782 0.40926439
1.8403177 0.0036516022 0.39863127
1.9493097 0.075930536 0.40310115
1.9157494 0.14487606 0.37772927
1.8208094 -0.06429401 0.343272
1.8823791 0.003242254 0.33523548
1.9530718 0.075087063 0.32893249
2.0189652 0.15190201 0.3212561
1.8243036 -0.064576797 0.27470422
1.8617209 0.0022643683 0.26151547
1.9301597 0.073194087 0.25264695
2.0087018 0.14933182 0.24424984
1.8401035 -0.065457642 0.20819096
1.8401957 0.0022060701 0.19019833
1.9649818 0.073724665 0.1844912
2.0014038 0.14780582 0.16950795
1.8643909 -0.066614844 0.14230403
1.8349328 0.001623299 0.12222999
1.9594319 0.073036984 0.11220021
2.0083053 0.14764592 0.095739827
1.9512118 -0.070330739 0.077088535
1.9061466 0.00075477996 0.057039291
1.9362822 0.071192712 0.039842434
2.0145051 0.14725333 0.022034345
1.9447196 -0.070368618 0.0055361423
1.9479547 5.7372003e-05 -0.013293512
2.0773578 0.075544715 -0.033453692
7.8736091 0.57263237 -0.20244811
1.9275955 -0.070759624 -0.065336131
1.9172041 -0.0006462257 -0.083002925
7.4178967 0.26522031 -0.39238152
7.8779759 0.57101488 -0.49278855
1.9358279 -0.07234747 -0.13675191
1.9527439 -0.0016806597 -0.15642807
7.4295015 0.26446673 -0.66623187
7.7486157 0.55932742 -0.77159286
1.970221 -0.074183814 -0.21216698
2.0509796 -0.0026601176 -0.24020916
6.9809074 0.24666831 -0.88417822
7.7804794 0.55971646 -1.0653574
1.9650134 -0.075601973 -0.28491393
2.0981243 -0.0038930806 -0.32401997
4.894258 0.17105557 -0.80520248
7.751749 0.55642569 -1.3553993
1.9747089 -0.077493757 -0.36138687
2.1396537 -0.0049784309 -0.41218838
3.8878014 0.13350189 -0.78748959
3.8174715 0.2728152 -0.81489444
2.0885301 -0.083968468 -0.46354315
3.0804615 -0.0085653309 -0.71339226
3.3417716 0.1144016 -0.80813026
3.2552159 0.23377578 -0.82393903
1.9844848 -0.081658795 -0.51957864
2.5572414 -0.009029706 -0.69493526
2.8450632 0.096651666 -0.80376559
2.7199183 0.19542842 -0.80051094
1.7898536 -0.075764246 0.55345219
1.8213468 -0.0073392089 0.54096448
1.8802663 0.063824534 0.53886414
0.91727686 0.065463588 0.25383815
1.8128653 -0.075597256 0.48444733
1.816402 -0.0077948249 0.46502557
1.9051811 0.063238814 0.46867371
1.7564946 0.12326122 0.41474646
1.8161374 -0.075701952 0.41280779
1.8266228 -0.0075836373 0.39566746
1.9419086 0.063711464 0.40148228
1.9763125 0.13726573 0.38949716
1.8154713 -0.075261556 0.34234625
1.8292005 -0.0080732312 0.32576755
1.9475821 0.062910795 0.32793671
2.0040946 0.13842213 0.31874871
1.822885 -0.075728245 0.27455539
1.8379334 -0.0090420563 0.25817698
1.9454383 0.061821874 0.25459239
2.0075996 0.13686882 0.24400909
1.8595234 -0.07757543 0.21043804
1.8302276 -0.0090360902 0.18917021
1.9524603 0.061260469 0.18327682
2.0002847 0.13538808 0.16933961
1.8629508 -0.078011557 0.14222798
1.8458838 -0.0096933041 0.12296112
1.959843 0.061012764 0.11220021
1.990238 0.13404508 0.094837524
1.9547368 -0.082470305 0.077246338
1.9111131 -0.010969818 0.057188842
1.9376819 0.05934117 0.039862994
1.9824464 0.13268617 0.02167438
1.942253 -0.082215287 0.0055304528
1.9419187 -0.011858418 -0.013252567
2.0378056 0.061588656 -0.03281004
7.8809648 0.52457559 -0.20255066
1.9411043 -0.083184868 -0.065810077
1.9671162 -0.012733301 -0.085165583
2.1241019 0.062898092 -0.11233523
7.8843188 0.52286386 -0.49297535
1.9333543 -0.08413738 -0.13661106
1.9357516 -0.013543879 -0.15507062
7.4299889 0.21884586 -0.66614264
7.7528954 0.5118379 -0.77169174
1.9756887 -0.086532496 -0.21280895
1.9992791 -0.014860758 -0.2341603
7.1796303 0.20959045 -0.90916771
7.7847567 0.5120309 -1.0654929
1.9595692 -0.087437071 -0.28419697
2.0091181 -0.016056061 -0.31028381
4.8675981 0.14022616 -0.80065978
7.7373228 0.50769037 -1.3523067
1.9830405 -0.090010323 -0.36300582
2.1582391 -0.018264892 -0.41578251
4.0374665 0.1138433 -0.81764799
3.8151696 0.24913158 -0.81406146
1.9738734 -0.091492996 -0.43821177
2.1996942 -0.019613983 -0.50943696
3.3035455 0.092802919 -0.79873335
3.2236943 0.21163818 -0.81561643
1.9713836 -0.09323965 -0.51628858
2.2512465 -0.021763347 -0.61180526
2.8552227 0.079460591 -0.80648285
2.795747 0.18364111 -0.82248127
1.7884007 -0.086698882 0.55315697
1.8212674 -0.018514644 0.54096448
1.8873492 0.052473255 0.54079163
1.0234712 0.066733152 0.28310668
1.8133322 -0.086765535 0.48470527
1.8182572 -0.018960113 0.4655216
1.8967968 0.051311318 0.46652493
1.97772 0.12659581 0.46679035
1.7981057 -0.086005516 0.40882146
1.8226328 -0.018751225 0.39482069
1.939326 0.051716618 0.40087518
1.9712421 0.12476484 0.38833964
1.8061409 -0.085979111 0.34067985
1.8133653 -0.019130671 0.32296222
1.9439883 0.050856318 0.32727289
1.9851923 0.1248825 0.31561452
1.822386 -0.086911835 0.27455539
1.8418043 -0.020363025 0.25873339
1.9309126 0.049502544 0.25264695
1.99453 0.1236876 0.24232376
1.849087 -0.088508703 0.2093145
1.8351109 -0.020321056 0.18968426
1.9219449 0.048500624 0.18038101
1.9990884 0.12298962 0.16917127
1.9102429 -0.091736749 0.14587876
1.8487827 -0.021053337 0.1231605
1.9591825 0.0489613 0.11214308
1.9810529 0.12122061 0.094362624
1.9551921 -0.09451104 0.077285796
1.9110098 -0.022695981 0.057188842
1.9370099 0.047426187 0.039842434
1.9742403 0.11997371 0.021576205
1.9517001 -0.094615392 0.0055589015
1.9488087 -0.023859276 -0.013300336
1.9851674 0.047807917 -0.031957205
7.8670712 0.47518441 -0.20211485
1.9116086 -0.093675114 -0.064828344
1.9480202 -0.02456372 -0.084343769
2.0895064 0.04904354 -0.11048763
7.8644648 0.47309834 -0.4915432
1.9477459 -0.096740894 -0.13766733
1.9326419 -0.025381902 -0.15483105
2.2175081 0.051699396 -0.1987806
7.7479429 0.46378165 -0.77090102
1.9761136 -0.098703071 -0.21291594
1.9594256 -0.026588771 -0.22950736
7.0855665 0.16333821 -0.89711249
7.7926965 0.46454966 -1.0661694
1.9807405 -0.1005631 -0.28735155
1.9902064 -0.02811821 -0.30738401
4.8930287 0.11091553 -0.80471569
7.7363591 0.45997164 -1.3516195
1.9716446 -0.10161939 -0.36102712
2.1806688 -0.031836949 -0.42013326
3.9655778 0.087468363 -0.80296564
3.8312721 0.2265836 -0.81718528
1.9791245 -0.10390986 -0.43951082
2.217066 -0.03337463 -0.51349801
3.3312628 0.07312832 -0.8053112
3.2007353 0.1904145 -0.80949688
1.9756045 -0.10559224 -0.51755393
2.2095807 -0.03492061 -0.60052896
2.8691266 0.06223195 -0.810287
2.8044837 0.16693939 -0.82473469
1.8508004 -0.10111052 0.57263851
1.8182441 -0.029642504 0.54011029
1.8809079 0.040745966 0.53886414
1.1085417 0.065451786 0.30652153
1.8243427 -0.098515466 0.48780078
1.809389 -0.029971967 0.46328947
1.8698916 0.039103344 0.45983985
1.9590248 0.11333402 0.46220499
1.7975442 -0.097036868 0.40882146
1.825415 -0.029982487 0.39545575
1.9210039 0.039434284 0.39703035
1.9651132 0.11227539 0.38698924
1.8036168 -0.096954264 0.34030956
1.8220731 -0.030404745 0.3245402
1.9383482 0.038808834 0.32627714
1.9928236 0.11309094 0.31671149
1.8257682 -0.098304816 0.27515066
1.8347136 -0.031544574 0.25775966
1.9192836 0.037421804 0.25109062
1.9883131 0.11105952 0.24148111
1.861408 -0.10054959 0.21077509
1.8269954 -0.031443767 0.1888618
1.9510741 0.037258144 0.18308999
1.9669729 0.10890333 0.16639385
1.9066571 -0.10329424 0.14565058
1.8575975 -0.032554209 0.1237587
1.9095366 0.035998181 0.10928666
1.9817594 0.10906282 0.094362624
1.9535775 -0.10645172 0.077246338
1.9258255 -0.03469133 0.057637502
1.9312668 0.035429992 0.039719082
1.9759378 0.10791227 0.021587115
1.9490858 -0.10647992 0.0055532116
1.9456261 -0.03576136 -0.013279864
1.9794252 0.035518628 -0.031860661
7.5733724 0.41082203 -0.19450094
1.9499164 -0.10754934 -0.066148609
1.9238596 -0.036066659 -0.083305694
2.0078945 0.034802545 -0.10615892
7.5911593 0.40992659 -0.47429499
1.9262004 -0.1075227 -0.13618855
1.9493923 -0.037566386 -0.15618852
2.1172018 0.036364485 -0.18976541
7.6940041 0.41319078 -0.76526755
1.9824196 -0.11121625 -0.21366489
1.9483024 -0.038395815 -0.22822779
2.1664016 0.036642201 -0.27425721
5.8136535 0.31078577 -0.79512775
1.9909548 -0.11333349 -0.28892881
1.9811035 -0.040149137 -0.30601037
4.9005237 0.081004545 -0.8058514
4.635355 0.24706618 -0.80956286
1.972948 -0.11382856 -0.36138687
2.0930581 -0.043404754 -0.40329769
4.0003395 0.063680395 -0.80991
3.8472407 0.20384735 -0.82030904
1.9852719 -0.11645176 -0.44102636
2.1427958 -0.04540899 -0.49635133
3.3714962 0.053316846 -0.81494296
3.185384 0.1698937 -0.80533558
1.9729879 -0.11759721 -0.51704776
2.2209017 -0.048731714 -0.60367584
2.8559828 0.044416636 -0.80648285
2.7680876 0.14773393 -0.81374949
1.8491915 -0.11240694 0.57234335
1.8209031 -0.040863004 0.54096448
1.8676653 0.028995242 0.53500921
1.833765 0.096984126 0.50687808
1.8256328 -0.1098236 0.48831671
1.7985176 -0.040831741 0.46056134
1.8720382 0.027657861 0.46031734
1.9606556 0.1013618 0.46243429
1.8105427 -0.10888413 0.41192195
1.8164029 -0.040984042 0.39355046
1.9280642 0.027745118 0.39844689
1.9608655 0.099965788 0.38602468
1.8118166 -0.10854816 0.34197593
1.816931 -0.041471876 0.32366356
1.9286894 0.026777722 0.32461753
1.967834 0.099563502 0.312637
1.8369757 -0.11021636 0.27693635
1.8235955 -0.04254749 0.25622952
1.9105538 0.02552538 0.24992335
1.983008 0.098561689 0.24075882
1.8974555 -0.11417744 0.21493217
1.84069 -0.042978477 0.19030114
1.8965111 0.024576327 0.17795226
1.9626279 0.096587263 0.16597302
1.9030015 -0.11481117 0.1454224
1.8753179 -0.044376481 0.12495508
1.8887575 0.024014262 0.10808696
1.9744098 0.096510783 0.093982704
1.9728354 -0.11964642 0.07803537
1.931572 -0.046652127 0.057816964
1.9214506 0.02345725 0.039513495
1.9725678 0.095592514 0.021543482
1.9733497 -0.11995415 0.0056243339
1.9483691 -0.047772359 -0.013300336
1.9726071 0.023289803 -0.031748019
7.417985 0.35675743 -0.19045043
1.962188 -0.12030689 -0.066588692
1.9016294 -0.047323748 -0.082354121
1.9631358 0.021978609 -0.10378341
7.443994 0.3561852 -0.46495476
1.9533814 -0.1210674 -0.13816026
1.9650688 -0.049932055 -0.15746614
2.0496604 0.02262531 -0.18369576
7.450881 0.35429898 -0.74085563
1.9836845 -0.12350162 -0.21387887
1.9371084 -0.050067365 -0.22694823
2.1308727 0.02296385 -0.2697365
7.0446525 0.33325711 -0.96319252
1.9773818 -0.12473764 -0.28706476
1.9492058 -0.051469419 -0.30112642
2.2250037 0.02312384 -0.36585364
4.6623683 0.21982583 -0.81402987
1.9604322 -0.12517999 -0.35922825
2.0387647 -0.054795682 -0.39289364
4.0535789 0.039651264 -0.82062411
3.8376722 0.17973396 -0.81801826
1.9708805 -0.12774689 -0.43799523
2.1191044 -0.057917289 -0.49093661
3.2473478 0.031424787 -0.78487301
3.1708705 0.14961419 -0.80141902
1.9654717 -0.12925662 -0.51527619
2.238889 -0.062872678 -0.60865837
2.8764105 0.027082091 -0.81218904
2.7603159 0.13033916 -0.81121439
1.8093812 -0.12113454 0.56024116
1.8196598 -0.052007698 0.54067975
1.8495435 0.01736345 0.52977753
1.8969141 0.088655725 0.52417314
1.8143201 -0.12032015 0.48547915
1.8098534 -0.052201629 0.46353748
1.8644044 0.016103631 0.45840731
1.9495722 0.088798068 0.45968306
1.8166518 -0.12044293 0.41347218
1.8073249 -0.051876143 0.39164519
1.8645451 0.01538886 0.38529345
1.957521 0.087756477 0.38525301
1.8336695 -0.12115333 0.34623444
1.8156582 -0.052591067 0.32348821
1.9179702 0.014858967 0.32279196
1.9763012 0.087838046 0.3138907
1.8550124 -0.12272608 0.27976376
1.8223102 -0.053706888 0.2560904
1.8561405 0.013408029 0.24279009
1.9597726 0.085355617 0.23786972
1.9056425 -0.12640978 0.21594335
1.8364146 -0.054154649 0.18988989
1.8538152 0.012647027 0.17393549
1.9502417 0.083985656 0.16487888
1.9151951 -0.12734561 0.14641115
1.8819917 -0.056090452 0.12542033
1.8629123 0.012253873 0.10660162
1.9560035 0.083583958 0.093080387
1.9581062 -0.13081676 0.077483051
1.9402412 -0.058775544 0.058086161
1.923558 0.011679149 0.039554615
1.97012 0.083360448 0.021510758
1.9685854 -0.13179295 0.005612954
1.9370447 -0.059389338 -0.01322527
1.9617146 0.011123313 -0.031571016
7.3511171 0.3083441 -0.18868154
1.9833503 -0.1338246 -0.06733346
1.9502338 -0.06050919 -0.084473528
1.9712225 0.009973038 -0.10420572
7.4161234 0.30925551 -0.46308672
1.9884293 -0.13549215 -0.1406953
1.9388214 -0.061171256 -0.15539001
1.996973 0.0097896261 -0.17896503
7.4529147 0.30857459 -0.74085563
1.9997524 -0.13682474 -0.21569775
1.969524 -0.06300018 -0.23078692
2.0496235 0.009511129 -0.25943929
7.3079152 0.30078244 -0.99891645
2.0140967 -0.1394662 -0.29251355
1.966633 -0.064007223 -0.30387363
2.1678727 0.009227436 -0.35644364
4.6419744 0.19032606 -0.81025004
1.986122 -0.1390617 -0.36408514
1.978524 -0.065327592 -0.38135463
3.966516 0.014460222 -0.80296564
3.7898395 0.154195 -0.80760562
1.9700595 -0.13983759 -0.43799523
2.0349734 -0.068115927 -0.47153378
3.3369043 0.011815483 -0.80648577
3.1581662 0.12959872 -0.79799211
1.9675366 -0.14152232 -0.51603544
2.2288165 -0.076278992 -0.60603601
2.8284039 0.0092744753 -0.79860276
2.7380548 0.11245473 -0.80445433
1.8638722 -0.13627529 0.57736129
1.8250546 -0.063371539 0.54238802
1.8457698 0.0060020336 0.52867609
1.9292065 0.078304902 0.53295362
1.8443837 -0.13368541 0.49373382
1.8085308 -0.063271828 0.46328947
1.8421333 0.0046076914 0.45291597
1.9471625 0.076719083 0.45899525
1.824632 -0.13222176 0.41546535
1.8089261 -0.063032769 0.39206856
1.8401217 0.0038961002 0.38023448
1.962925 0.075933352 0.38621759
1.8201497 -0.1314818 0.34382746
1.8133335 -0.063661665 0.32313755
1.8558991 0.0029901476 0.3123365
1.9787768 0.075785637 0.31420413
1.8305534 -0.13239391 0.27619231
1.8219464 -0.06488736 0.2560904
1.8571794 0.0020197916 0.24291979
1.9523232 0.073032193 0.23690669
1.9246525 -0.13953726 0.21819043
1.8509588 -0.065952964 0.19143204
1.8439016 0.0012651612 0.17300136
1.9517161 0.072054379 0.16496304
1.9362563 -0.14068429 0.14808443
1.8955722 -0.068138897 0.12635085
1.8649491 0.0008239093 0.10671588
1.9494922 0.07132493 0.092747964
1.9592597 -0.14297445 0.077561952
1.9418418 -0.070752323 0.058145981
1.9185946 -0.00012347887 0.039451823
1.965598 0.071089745 0.021456217
1.9617558 -0.14343196 0.0055958848
1.9276502 -0.070942707 -0.013163853
1.9537469 -0.00091002556 -0.031442288
2.0610018 0.073783837 -0.052887235
1.9914625 -0.14665228 -0.067638136
1.9288599 -0.071695164 -0.083565213
1.9652549 -0.0021158925 -0.10388898
7.4118967 0.26353243 -0.46271312
1.967665 -0.14621197 -0.13928694
1.9304408 -0.07276611 -0.1547512
1.9591472 -0.0024170591 -0.17557317
7.4407449 0.26234764 -0.73947197
2.0048242 -0.14953613 -0.21633971
1.956198 -0.074591786 -0.22927471
2.0248413 -0.0030282114 -0.25629991
7.222486 0.25288525 -0.98700839
2.0368879 -0.15360796 -0.29595488
1.9810164 -0.076646179 -0.30616298
2.0800679 -0.0039094952 -0.34200418
4.6381326 0.16166829 -0.80939108
1.9950398 -0.15199296 -0.36588398
1.9859356 -0.077773772 -0.38286796
2.1964402 -0.0054699527 -0.44463703
3.7692094 0.13019526 -0.80302405
1.9788983 -0.15267399 -0.4401603
2.0111542 -0.079675436 -0.46611899
3.1716723 -0.0082307821 -0.76654917
3.2073514 0.1119086 -0.81023121
1.9753118 -0.15427019 -0.51831317
1.9766459 -0.079794161 -0.53759146
2.2702327 -0.0064858133 -0.6410017
2.7780092 0.097025387 -0.81600285
1.8468091 -0.14642547 0.57234335
1.8131378 -0.074098945 0.53897142
1.8409652 -0.0053096465 0.52729934
1.8891888 0.065072343 0.5217784
1.8454552 -0.14515135 0.49424976
1.8090765 -0.074407384 0.46353748
1.8275608 -0.0066425698 0.44933465
1.9261945 0.064058319 0.45395136
1.8373969 -0.14448527 0.41856584
1.8036227 -0.073930807 0.39101008
1.8342352 -0.0073711351 0.37902033
1.9613925 0.063823812 0.38583174
1.8447809 -0.14464477 0.34864143
1.8040558 -0.074421659 0.32155958
1.8667299 -0.0084465733 0.31416208
1.9634104 0.063134789 0.31169674
1.8661826 -0.14648667 0.28169832
1.8185457 -0.075941436 0.25567311
1.8640976 -0.009410725 0.24382766
1.9269363 0.060245018 0.23377684
1.9138538 -0.15056475 0.21706688
1.8495253 -0.077267468 0.19132923
1.845866 -0.010059683 0.17318818
1.9322019 0.059464481 0.16327974
1.9343625 -0.15248393 0.14800838
1.9040905 -0.080146275 0.12694904
1.869911 -0.010647643 0.10700153
1.9528884 0.05945291 0.092890434
1.9683067 -0.15578192 0.077956468
1.9563508 -0.083303764 0.058594637
1.9215569 -0.011914347 0.039513495
1.9560022 0.058727633 0.021347137
1.9698105 -0.1561777 0.0056214887
1.9651427 -0.084399715 -0.013423172
1.9617033 -0.012950781 -0.031571016
2.0594172 0.061077107 -0.05283596
1.9815588 -0.15815328 -0.06733346
1.9623202 -0.084999055 -0.085035823
1.946232 -0.014037584 -0.10288599
2.1868007 0.064320177 -0.13649134
1.9915884 -0.16028312 -0.14104739
1.9498749 -0.085482873 -0.15634821
1.9690553 -0.014511516 -0.17646576
7.4263 0.21622379 -0.73789066
2.0316181 -0.16407573 -0.21933553
1.9715793 -0.087296329 -0.23113589
1.9890707 -0.015179792 -0.2517792
7.2962003 0.21065152 -0.99688667
2.0023699 -0.16336699 -0.29107967
1.9587884 -0.087826148 -0.30280527
2.0060008 -0.016079292 -0.3298361
4.6715331 0.1341393 -0.81506073
2.0028927 -0.1649581 -0.3675029
1.9756116 -0.089513324 -0.38097632
2.202246 -0.018997682 -0.44582748
3.7679818 0.10700984 -0.80260754
1.9516557 -0.16262455 -0.43431461
1.9814315 -0.090678029 -0.45935059
2.2141643 -0.019332381 -0.53515136
3.2719433 0.09406551 -0.82638687
1.975292 -0.16646881 -0.51856625
1.9828668 -0.092235006 -0.5394271
2.2557151 -0.020285761 -0.63692576
2.7881434 0.080254085 -0.81881952
1.8534918 -0.15840539 0.57470477
1.8308425 -0.08607813 0.54438108
1.8322462 -0.016527455 0.52482122
1.8895525 0.053479273 0.5217784
1.862821 -0.15802376 0.49915099
1.8027798 -0.085231766 0.46204939
1.806123 -0.017647415 0.44408208
1.9197402 0.052053519 0.45234644
1.8636827 -0.1580641 0.42476681
1.7972776 -0.084720127 0.38973987
1.8224043 -0.01850632 0.37659198
1.955862 0.051632371 0.38467425
1.895757 -0.16035119 0.35845447
1.8065155 -0.085629582 0.32208556
1.8193111 -0.019395845 0.30619597
1.9538877 0.0508295 0.31012964
1.9155009 -0.16218957 0.28928766
1.821013 -0.087240562 0.2560904
1.8402089 -0.020582285 0.24071495
1.9312392 0.048520155 0.23425835
1.9515083 -0.16558145 0.22144867
1.872862 -0.089757293 0.19379666
1.8397961 -0.021316305 0.1726277
1.9295418 0.047533974 0.16302724
1.9532609 -0.16603918 0.14952953
1.9215022 -0.092693441 0.12814543
1.8937694 -0.022404451 0.10837261
1.9322463 0.046959456 0.091893137
1.974283 -0.16845092 0.078232631
1.9617931 -0.095598042 0.058774102
1.9224473 -0.023716908 0.039534055
1.9473288 0.04650984 0.021248963
1.9688151 -0.16826129 0.0056214887
1.9496063 -0.095720455 -0.013320809
1.9365921 -0.02466893 -0.031168735
2.0087841 0.047240958 -0.051528517
1.9865255 -0.17082268 -0.067536578
1.9747337 -0.097679675 -0.085598111
1.9421151 -0.025925856 -0.10267483
2.1412559 0.049832832 -0.13362703
1.9696978 -0.17069173 -0.13956861
1.9722116 -0.098590128 -0.1581848
1.9490108 -0.026324114 -0.17468058
2.2045686 0.050651833 -0.21901496
7.4764705 -0.65000582 -0.80758268
1.9591032 -0.098791815 -0.22974001
1.9581884 -0.026960818 -0.24788634
7.2587242 0.16500077 -0.99160928
5.3542957 -0.46992922 -0.77874559
1.9522905 -0.099541441 -0.30188954
2.0137575 -0.028499287 -0.33113405
4.682117 0.10569511 -0.81677878
1.9900848 -0.17620344 -0.36534432
1.9750252 -0.10163376 -0.38097632
2.1932676 -0.032379836 -0.44404179
3.8027916 0.084649749 -0.80989641
1.952566 -0.1747707 -0.43474764
1.9623528 -0.10187452 -0.45506397
2.2072008 -0.032816723 -0.53350693
3.2249618 0.072913602 -0.81439251
1.9723065 -0.17841153 -0.51806015
1.9774451 -0.10414614 -0.53811592
2.2468877 -0.033995155 -0.63448024
2.7511718 0.062297706 -0.80783433
1.8734169 -0.17169358 0.58119857
1.8187927 -0.096699618 0.54096448
1.8148081 -0.027507342 0.51986486
1.8561151 0.041136641 0.51246572
1.8521945 -0.16857512 0.49657139
1.8244725 -0.097480603 0.46775371
1.8011259 -0.028652016 0.44288832
1.9025067 0.039905816 0.44821963
1.8821008 -0.1712639 0.42919609
1.7986758 -0.09585043 0.39016327
1.8085479 -0.029464696 0.37375897
1.9502559 0.039511207 0.38351676
1.9123538 -0.17357931 0.36178723
1.7921926 -0.095975481 0.31963089
1.8152139 -0.030492313 0.30553213
1.9354012 0.038466819 0.30715215
1.9223481 -0.17465562 0.29047814
1.829343 -0.098893553 0.25734237
1.8390566 -0.031856034 0.24058527
1.9225676 0.036499787 0.23317492
1.9445182 -0.17701207 0.22077456
1.8812151 -0.10173067 0.19472195
1.8336579 -0.032498822 0.17206722
1.8939312 0.035030253 0.15999731
1.9581633 -0.17856434 0.14998588
1.9109342 -0.1039399 0.12748076
1.8796215 -0.033772882 0.10757281
1.905533 0.03461273 0.090610914
1.9871432 -0.1818365 0.078784958
1.9521871 -0.10714059 0.058504906
1.926264 -0.035586245 0.039616287
1.941579 0.034453932 0.021183515
1.9826829 -0.18170752 0.0056641619
1.9370008 -0.10701924 -0.013238918
1.9474009 -0.036758743 -0.03134574
2.0140338 0.035001256 -0.051656701
2.0202725 -0.18621923 -0.068721429
1.9591343 -0.10896238 -0.084949315
1.9309369 -0.037627947 -0.10209415
1.984849 0.034008928 -0.12385095
7.5705199 -0.70287895 -0.53672653
1.9526601 -0.1096279 -0.15666763
1.9647456 -0.038595513 -0.17610872
2.1560848 0.036303021 -0.21417212
7.4931307 -0.69780439 -0.80982953
1.982259 -0.11215734 -0.23253179
1.9877428 -0.039567865 -0.25165361
7.2942734 0.1210343 -0.9963454
7.4796185 -0.7027353 -1.0884658
1.9723632 -0.11270257 -0.30509463
1.978029 -0.040134318 -0.32529336
4.6383524 0.076235667 -0.8090474
1.9948421 -0.18896767 -0.36642364
1.9596595 -0.11290317 -0.37813884
2.1018965 -0.043932118 -0.42558965
3.8071513 0.061377726 -0.81072938
1.9475696 -0.18637612 -0.43388161
1.9597454 -0.11380041 -0.4546127
2.1943245 -0.046093859 -0.53045297
3.2011123 0.052725047 -0.8082729
1.9692487 -0.19032387 -0.51755393
1.9864022 -0.11684421 -0.54073828
2.2649179 -0.048169959 -0.63964301
2.7716496 0.045748204 -0.81374949
1.8951498 -0.18541826 0.58828276
1.8353899 -0.10887951 0.54608941
1.8194108 -0.038744614 0.52124161
1.8640431 0.029870518 0.51459432
1.8665113 -0.1814324 0.50069875
1.8199719 -0.10844304 0.46676168
1.8009162 -0.039702978 0.44288832
1.8871437 0.028000453 0.44455135
1.9062501 -0.18526158 0.43495414
1.800005 -0.10700108 0.39058664
1.807354 -0.04053922 0.37355658
1.928877 0.027239107 0.37927261
1.9298369 -0.1871119 0.3653051
1.8161389 -0.10843731 0.32401422
1.8100634 -0.041516621 0.30470234
1.9247378 0.026441464 0.30542836
1.9173033 -0.18606555 0.28988287
1.8366095 -0.1105925 0.25845519
1.8308964 -0.042953629 0.2395477
1.8641894 0.023950025 0.22607255
1.9532855 -0.18990161 0.22189809
1.895449 -0.11416876 0.1962641
1.8384006 -0.043868076 0.1725343
1.8741828 0.023162372 0.15831402
1.9590156 -0.19076933 0.15013799
1.9351596 -0.11717081 0.1291424
1.9143115 -0.046147492 0.1095723
1.8837359 0.022655671 0.089566126
1.9770396 -0.19315152 0.078429885
1.9684538 -0.12015224 0.059013382
1.9370039 -0.047675516 0.039842434
1.9267555 0.022365879 0.021019893
1.974564 -0.193188 0.0056442479
1.9622581 -0.12049598 -0.013416347
1.9431406 -0.048607066 -0.031281374
2.0032151 0.02251911 -0.051374704
2.0240648 -0.19910108 -0.068890691
1.9604231 -0.12110455 -0.085035823
1.9346628 -0.049577571 -0.10230531
1.9800303 0.021774609 -0.12353961
7.6137128 -0.75403649 -0.54010659
1.9499608 -0.12148317 -0.15650792
1.9644718 -0.050650239 -0.17610872
2.009995 0.021507684 -0.1996436
7.4906874 -0.74396479 -0.81004351
1.9815335 -0.12431815 -0.23253179
1.9567183 -0.05096294 -0.24776076
2.2222481 0.023235811 -0.30351794
7.5726552 -0.7583794 -1.1026614
1.9972787 -0.12642589 -0.30906284
1.9737999 -0.052166242 -0.32464442
4.6594195 0.047986884 -0.81265539
4.4159675 -0.4456718 -0.81163639
1.9599097 -0.12498778 -0.378328
1.9908743 -0.053834531 -0.40316927
3.8074563 0.03801633 -0.81072938
1.9638718 -0.20010401 -0.43777874
1.9774824 -0.12700947 -0.45889938
2.1940002 -0.05955711 -0.53045297
3.2333701 0.033413023 -0.81635082
1.9940276 -0.2050757 -0.52438718
1.9760182 -0.12840459 -0.53811592
2.2395673 -0.0613808 -0.63257813
2.7603645 0.028621441 -0.81036937
1.8873242 -0.19635111 0.58621651
1.8318175 -0.11995129 0.54523522
1.8210607 -0.049960308 0.52179229
1.8478049 0.018270379 0.51007098
1.9028432 -0.1967572 0.51075917
1.8076723 -0.11884549 0.46378553
1.7919023 -0.050506204 0.44073951
1.8590535 0.016175041 0.43790257
1.9244775 -0.19896026 0.43938342
1.821745 -0.11951524 0.39545575
1.8100079 -0.051712077 0.37416369
1.9162525 0.015301374 0.37676471
1.9188772 -0.19794127 0.36345357
1.8124921 -0.11938477 0.32348821
1.8048459 -0.052478872 0.30387256
1.8902972 0.014368254 0.29994348
1.9180927 -0.19802952 0.2901805
1.8368845 -0.12192523 0.25859427
1.8276249 -0.054098975 0.23915862
1.8563596 0.012457828 0.22510952
1.9520835 -0.20188317 0.22189809
1.9215108 -0.12757608 0.19903997
1.8530246 -0.055595335 0.17393549
1.8683112 0.011624967 0.15780903
1.9945047 -0.20658699 0.15295213
1.9403777 -0.12944101 0.1295412
1.9149903 -0.057922807 0.10962943
1.866859 0.010996834 0.088758804
1.9817804 -0.20589833 0.078666598
1.9557118 -0.13142397 0.058654457
1.94367 -0.059774976 0.039986342
1.9178573 0.010493866 0.02092172
1.9872663 -0.20674875 0.0056840763
1.974452 -0.13341026 -0.013505061
1.93581 -0.060311079 -0.031168735
1.9843218 0.010130226 -0.050887618
2.0009367 -0.20923008 -0.068145923
1.9755914 -0.13421467 -0.085727878
1.9263374 -0.06119385 -0.10188299
1.9242361 0.0093532884 -0.12005261
7.6277909 -0.80272269 -0.54144454
1.9949248 -0.1365775 -0.16018106
1.9840342 -0.063338675 -0.17789392
1.9852118 0.0090606418 -0.19717278
7.4840035 -0.78970408 -0.80982953
1.9896513 -0.13708872 -0.2335787
1.9603351 -0.063095838 -0.24826308
2.020227 0.0087268082 -0.27591309
7.5757322 -0.80566734 -1.1038085
2.0053387 -0.13929494 -0.31043646
1.9635804 -0.063955046 -0.32302198
4.649775 0.019355314 -0.81093735
4.3505521 -0.46605352 -0.80012387
1.9610651 -0.13714823 -0.37870634
1.9944248 -0.066179305 -0.40396291
3.8291354 0.014736312 -0.81531101
3.7087643 -0.40090328 -0.82727623
1.965004 -0.13831978 -0.45619199
2.0187278 -0.067197368 -0.48816705
3.2373924 0.013589089 -0.81732994
3.0689225 -0.3346653 -0.80758667
1.9646049 -0.13977349 -0.53523129
2.2170262 -0.074379191 -0.62632847
2.7633667 0.011695808 -0.81121439
1.9174236 -0.21138281 0.59595728
1.8377402 -0.13166839 0.54722822
1.8130335 -0.060875103 0.51958948
1.837279 0.0068923398 0.50714415
1.9284914 -0.21137661 0.51798201
1.8320318 -0.13174151 0.47023389
1.7837946 -0.061233636 0.43882948
1.8484108 0.0047403397 0.43538061
1.9203123 -0.21044619 0.438719
1.8268265 -0.13111079 0.39672598
1.7949758 -0.062307499 0.37112829
1.8427193 0.0034071149 0.36229602
1.9293493 -0.21099356 0.36567542
1.8529681 -0.13347459 0.33085218
1.7946347 -0.063205123 0.30221295
1.8626958 0.0027288247 0.29555559
1.9699235 -0.21560471 0.29821628
1.8558553 -0.13462681 0.26137635
1.8282495 -0.06534747 0.2392883
1.8504447 0.0010637612 0.22438723
1.9527835 -0.21407369 0.2221228
1.9415258 -0.14087555 0.20119898
1.8436937 -0.066640556 0.17309476
1.8384537 0.0001584299 0.15528408
1.9723854 -0.21653609 0.15135491
1.9524839 -0.14228728 0.13040525
1.9136012 -0.069635563 0.1095723
1.884871 -0.00046261694 0.089613624
2.0072968 -0.22100702 0.0797318
1.9628437 -0.14400661 0.05889374
1.9502605 -0.071958035 0.040130254
1.9348845 -0.0012853749 0.021107158
1.9720446 -0.21740438 0.0056442479
1.9835689 -0.1462581 -0.013573303
1.9453954 -0.072560534 -0.03132965
1.9773489 -0.0020383215 -0.050708164
7.5961542 -0.8414498 -0.25887328
2.0026278 -0.14840142 -0.086938962
1.9438876 -0.073693432 -0.1028332
1.9342377 -0.0024665049 -0.12067528
7.6385846 -0.8512786 -0.54257125
1.9701922 -0.14703512 -0.15826465
1.9666882 -0.074867181 -0.17637651
1.9673183 -0.0030924049 -0.19539377
7.4938393 -0.83726621 -0.81143445
1.9976865 -0.14996356 -0.23462562
1.9747814 -0.075693019 -0.25014672
2.0281689 -0.003683632 -0.27699566
7.6031003 -0.85578895 -1.1085403
2.0172572 -0.15256575 -0.31242058
1.9749831 -0.076460212 -0.32496887
2.1328032 -0.0042086933 -0.37196597
4.4033237 -0.49905351 -0.81037718
1.9807479 -0.15074332 -0.38267878
1.9812495 -0.077914931 -0.40138358
2.2339175 -0.0051100329 -0.47565016
3.589839 -0.41034734 -0.80129528
1.963147 -0.15029985 -0.45596641
1.9862258 -0.078318954 -0.48041463
3.1220353 -0.0060517807 -0.7882008
3.0629668 -0.35304645 -0.80657429
1.9617859 -0.15167667 -0.53470677
2.0655541 -0.081988566 -0.58366746
2.3344858 -0.0044436986 -0.6853072
1.931275 -0.22491227 0.60068011
1.8454992 -0.14361142 0.54979074
1.8145469 -0.072074831 0.52014017
1.8276471 -0.0043581356 0.50448334
1.9300374 -0.2235391 0.51875591
1.8263599 -0.1426031 0.46899378
1.7814448 -0.072099105 0.43835199
