# .PCD v0.7 - Point Cloud Data file format
VERSION 0.7
FIELDS x y z
SIZE 4 4 4
TYPE F F F
COUNT 1 1 1
WIDTH 1553
HEIGHT 1
VIEWPOINT 0 0 0 1 0 0 0
POINTS 1553
DATA ascii
-0.59143132 1.6607659 -0.22314794
-0.64786166 1.628599 -0.23937729
-0.32090604 1.1670457 -0.17536473
-0.36110717 1.1472533 -0.18574294
-0.47055721 1.322953 -0.23086905
-0 0 -0
-0.26658094 0.97240084 -0.18438107
-0 0 -0
-0.36133808 1.0178565 -0.2186479
-0.38745791 0.97533232 -0.22345561
-0 0 -0
-0.26772165 0.85331881 -0.20711388
-0.30005407 0.84550589 -0.21683262
-0 0 -0
-0.22225782 0.81681556 -0.22144729
-0.25273952 0.80768746 -0.22998424
-0 0 -0
-0 0 -0
-0.60844123 2.2465241 0.71904504
-0 0 0
-0.83558404 2.3567078 0.71619093
-0.91226232 2.2970514 0.68222326
-0 0 0
-0.73161227 2.3442881 0.62871456
-0.79498225 2.2475471 0.58614063
-0.93131095 2.3531528 0.59609771
-0.62733835 2.3103833 0.54369271
-0.71715653 2.2968404 0.5212056
-0.82140166 2.3250785 0.50954252
-0.9216274 2.3335643 0.49328589
-0.59586304 2.1924977 0.42807165
-0.72093588 2.3110709 0.4311423
-0.83053011 2.3547118 0.42021042
-0.91915298 2.329917 0.39741725
-0 0 0
-0.71338415 2.290941 0.33704892
-0.81738985 2.3213305 0.32190439
-0.92725122 2.3565874 0.3070879
-0.63473129 2.3379328 0.27391776
-0.73279512 2.3534214 0.25476295
-0.81287587 2.3114727 0.22989005
-0.89823538 2.2861226 0.20746627
-0.62141335 2.2903011 0.18101743
-0.72958666 2.3457131 0.16363798
-0.83175707 2.3670106 0.1435637
-0.89126235 2.2705874 0.11597057
-0.63560247 2.3455124 0.095946424
-0.71994692 2.3187151 0.072652563
-0.80493271 2.2943861 0.049998347
-0.87593496 2.2342904 0.02617942
-0.62478781 2.3068798 0.0067992704
-0.73569161 2.372494 -0.016951276
-0.8189556 2.3373604 -0.03985801
-0.90513664 2.311269 -0.063654386
-0.63417703 2.3464155 -0.082330301
-0.72321594 2.3352871 -0.10584062
-0.82143784 2.3490422 -0.13155048
-0.91002405 2.3254223 -0.15579441
-0.62076741 2.3028636 -0.16836961
-0.69386709 2.2446771 -0.18820876
-0.79822999 2.2838266 -0.216811
-0.77256566 1.9758966 -0.21071295
-0.54261398 2.0151765 -0.22457819
-0 0 -0
-0 0 -0
-0.62487584 1.5993205 -0.23450583
-0.320409 1.1938447 -0.17909285
-0.35347909 1.1475585 -0.18543771
-0.45723134 1.3109081 -0.2282732
-0 0 -0
-0.25476155 0.95216227 -0.18024373
-0 0 -0
-0.35121921 1.0089469 -0.21626699
-0.4109737 1.0533189 -0.24074061
-0.23006131 0.86316359 -0.19810462
-0.26648369 0.86798388 -0.21027248
-0.29837453 0.85742927 -0.21941675
-0 0 -0
-0.21475899 0.80881351 -0.21891648
-0.24438852 0.79815048 -0.22683737
-0 0 -0
-0 0 -0
-0 0 0
-0.68033004 2.2258584 0.69129568
-0.80248219 2.3082166 0.69994515
-0.90550685 2.3214648 0.6878109
-0 0 0
-0 0 0
-0.82986093 2.3927553 0.62266994
-0.89040697 2.2907798 0.5789026
-0.60990345 2.3019347 0.54081362
-0.69876647 2.2871771 0.51803011
-0.81897974 2.3643134 0.51702982
-0.8792603 2.2669051 0.47804555
-0.62723762 2.3651903 0.46102872
-0.68087494 2.230705 0.41536239
-0.80188501 2.3187566 0.4129082
-0.89663327 2.3143313 0.39381292
-0.61423481 2.3169754 0.36071667
-0.68719196 2.2554891 0.33120656
-0.7973066 2.3094316 0.31956989
-0.89738816 2.3224144 0.30191159
-0.6147759 2.3206518 0.27144596
-0.71544212 2.3483582 0.25373486
-0.78894162 2.2881794 0.22708765
-0.87594104 2.2702091 0.20553048
-0.6310811 2.383713 0.1880908
-0.72098964 2.3692369 0.16496728
-0.79998231 2.3220417 0.14053589
-0.90749133 2.3543036 0.11995973
-0.61941075 2.3426061 0.095670268
-0.70541549 2.3221326 0.072622657
-0.78823799 2.2917185 0.049833879
-0.89310491 2.319876 0.027117517
-0.61062127 2.3106699 0.0067992704
-0.70457292 2.3224194 -0.016562296
-0.81564254 2.3744929 -0.04040511
-0.8970378 2.3326414 -0.064090192
-0.61823869 2.3444643 -0.082127184
-0.71582592 2.3626282 -0.1068787
-0.83809757 2.4447234 -0.13661823
-0.90683669 2.3598433 -0.15772472
-0.60459596 2.2989116 -0.16780627
-0.69537336 2.2994614 -0.19244087
-0.78420168 2.2886813 -0.216811
-0.84281874 2.1951957 -0.23354349
-0.53857517 2.0502019 -0.22810896
-0.55263108 1.830323 -0.2239238
-0.56200933 1.6416177 -0.21963182
-0.61398619 1.6003495 -0.23409989
-0.30630976 1.1699383 -0.17522134
-0.32932347 1.0929302 -0.17628029
-0.42906669 1.2548671 -0.21805201
-0 0 -0
-0.2533859 0.97083998 -0.18348165
-0 0 -0
-0 0 -0
-0.39225587 1.0238539 -0.23345175
-0.22549763 0.86739361 -0.19875415
-0.25694975 0.85560691 -0.20688826
-0.28871435 0.84636444 -0.21612786
-0 0 -0
-0 0 -0
-0.23865597 0.79686165 -0.22605065
-0 0 -0
-0 0 -0
-0.62660658 2.4314623 0.77571851
-0.70619792 2.3622475 0.73229504
-0.78303224 2.2976279 0.69526416
-0.90296799 2.3575835 0.69685757
-0 0 0
-0.68920463 2.3076057 0.61656189
-0.77140486 2.2690859 0.58924443
-0.88639909 2.3225725 0.58555138
-0.59527963 2.3037453 0.5403707
-0.72753197 2.4346941 0.55042022
-0.79501152 2.3414745 0.51095903
-0.87895334 2.3080194 0.48556927
-0.59573448 2.3033476 0.44825321
-0.69026822 2.3121972 0.42973965
-0.80252135 2.3675282 0.4207083
-0.87925571 2.3114815 0.39240256
-0.60074914 2.3235729 0.36116311
-0.68097514 2.2852874 0.3349624
-0.78121424 2.3086448 0.31879169
-0.88629031 2.3362305 0.302995
-0.60201651 2.3301528 0.27212009
-0.69505441 2.3326848 0.25157583
-0.7755242 2.2948635 0.22727446
-0.87046647 2.297905 0.20755044
-0 0 0
-0.68480724 2.3009353 0.15991591
-0.78763586 2.3325822 0.14087868
-0.8601498 2.2729456 0.11554316
-0 0 0
-0.68688393 2.3120449 0.072173998
-0.77575833 2.301249 0.049936671
-0.87213671 2.3075404 0.026910262
-0.60042465 2.3298669 0.0068447883
-0.68945628 2.3238227 -0.016541824
-0.79691029 2.3671339 -0.040195923
-0.85940462 2.2763758 -0.062398214
-0.6033439 2.3462775 -0.082059473
-0.67804247 2.2884281 -0.10333194
-0.78332657 2.3314939 -0.13001959
-0.89198756 2.3644292 -0.15766244
-0.59369999 2.3151393 -0.16872171
-0.67022663 2.2664053 -0.18932667
-0.76190019 2.2689009 -0.21449025
-0.75141883 1.9936086 -0.21160245
-0.53486681 2.0881419 -0.2319607
-0.49554765 1.6784121 -0.20496298
-0.56233966 1.6760736 -0.22377582
-0.61567938 1.6346849 -0.23856539
-0.30206281 1.1833029 -0.17694202
-0.33881155 1.1499138 -0.18513246
-0.41226706 1.2303431 -0.21334702
-0.47966263 1.2741548 -0.23743971
-0.25033504 0.98381615 -0.18564025
-0 0 -0
-0 0 -0
-0.37701428 1.0024391 -0.22803716
-0.22065084 0.87065363 -0.19918716
-0.25032261 0.85249364 -0.2057602
-0.28628924 0.85641688 -0.21824215
-0 0 -0
-0.20931631 0.8292104 -0.22372504
-0.23538913 0.8038677 -0.22762407
-0 0 -0
-0 0 -0
-0 0 0
-0 0 0
-0.77318281 2.3151548 0.69911909
-0.88441414 2.3522522 0.69366461
-0 0 0
-0.67503244 2.3117912 0.61656189
-0.75347757 2.2617993 0.58614063
-0.88169271 2.3534894 0.59197086
-0.58232379 2.3120828 0.54147804
-0.67256522 2.3021469 0.51951206
-0.7630074 2.2933424 0.49942455
-0.86546218 2.3152072 0.48595509
-0.59624404 2.3650863 0.45954752
-0.67772281 2.3220594 0.43079162
-0.78145176 2.3527548 0.41722316
-0.8733474 2.3390391 0.39616358
-0.58503079 2.3214619 0.36027023
-0.67414123 2.3141422 0.33857906
-0.76141691 2.2964537 0.31645715
-0.85669625 2.3006904 0.29769829
-0.58697963 2.3309119 0.27178302
-0.6785028 2.3292656 0.25075334
-0.7723822 2.3326595 0.23054394
-0.84905791 2.2835894 0.20578298
-0.59253484 2.3545337 0.18520062
-0.69381243 2.3846128 0.16543254
-0.76609606 2.3155708 0.13956472
-0.82010239 2.207953 0.11198141
-0.59280866 2.3587525 0.096025325
-0.66264862 2.2816598 0.071097218
-0.75472534 2.28508 0.049484383
-0.843355 2.2734728 0.026452124
-0.58027101 2.3102305 0.0067765117
-0.66682833 2.2991974 -0.016337099
-0.77140886 2.3387446 -0.039632726
-0.85514635 2.307853 -0.063116029
-0.59063679 2.3567219 -0.082296453
-0.67482769 2.3299708 -0.10501881
-0.77930939 2.3675582 -0.13176163
-0.85597682 2.3118281 -0.15380183
-0.56714875 2.269383 -0.16513038
-0.66267419 2.2925 -0.19116324
-0.7439177 2.2612336 -0.21332988
-0.79164964 2.1400425 -0.22662514
-0.50350285 2.0171056 -0.22372222
-0.55133373 1.9104456 -0.23288076
-0.5291205 1.6097493 -0.21448322
-0.59224004 1.6021875 -0.23328799
-0.29814103 1.1985797 -0.17894946
-0.33421087 1.1605183 -0.18650606
-0.37793455 1.1512846 -0.19923204
-0.46091023 1.2475034 -0.2319418
-0.24784453 0.99965537 -0.1883385
-0 0 -0
-0 0 -0
-0.36476007 0.98821747 -0.22428861
-0.21296418 0.86251295 -0.19702208
-0.24669951 0.85963207 -0.20711388
-0.27860895 0.85076749 -0.21636279
-0 0 -0
-0.2079208 0.84551042 -0.22777435
-0.22885928 0.79973036 -0.22605065
-0.25258178 0.77197355 -0.22933675
-0.26807475 0.72541755 -0.22702737
-0 0 0
-0.64398307 2.2545955 0.69642055
-0.75238651 2.2997544 0.69306135
-0.8639577 2.3413565 0.68887526
-0 0 0
-0.64887291 2.2739692 0.60540134
-0.74289906 2.2765348 0.58876687
-0.85111326 2.3150036 0.580966
-0.56394362 2.2985647 0.53749168
-0.65896344 2.3081098 0.51993543
-0.74710065 2.2923944 0.49821037
-0.83772296 2.2836266 0.47823846
-0.57492405 2.3410242 0.45417809
-0.66184205 2.3204937 0.42973965
-0.7633397 2.3462522 0.41523162
-0.85592079 2.3360074 0.39475319
-0.57077551 2.3250079 0.36027023
-0.66020036 2.3191876 0.33871818
-0.74731177 2.3010824 0.31645715
-0.85244381 2.3329444 0.3011893
-0.57905823 2.3605261 0.27481657
-0.66310865 2.3295584 0.25034213
-0.76174051 2.3487194 0.23166488
-0.83298093 2.2831395 0.20527798
-0.56858045 2.3193879 0.18215831
-0.65324527 2.2976484 0.15911832
-0.75464344 2.3287756 0.14007887
-0.85784584 2.3537161 0.11910491
-0.57547325 2.3506989 0.095551908
-0.65873271 2.3212614 0.072203904
-0.74469054 2.3020341 0.049751643
-0.83451951 2.2926991 0.026615744
-0.56893659 2.3254035 0.0068106498
-0.66034222 2.3301845 -0.016528176
-0.76749456 2.3757837 -0.040179834
-0.81910837 2.2529283 -0.061475314
-0.57213593 2.3437958 -0.081720948
-0.65779811 2.3244545 -0.10458628
-0.751899 2.3323772 -0.1295445
-0.83939004 2.3104701 -0.15336595
-0.55887532 2.2960818 -0.16682042
-0.64155114 2.2715814 -0.18908712
-0.7202546 2.235419 -0.21047357
-0.72146541 1.9877132 -0.21002111
-0.49604893 2.0404453 -0.22596906
-0.48461676 1.7187806 -0.20915066
-0.54507333 1.6932361 -0.22515716
-0.73576736 2.0286622 -0.29472232
-0.29614002 1.2225089 -0.1822474
-0.3249425 1.1549364 -0.18528509
-0.36663523 1.1404303 -0.19696067
-0.45458999 1.2540127 -0.23262906
-0.24101353 0.99828863 -0.18779884
-0 0 -0
-0 0 -0
-0.35136262 0.97020525 -0.21970706
-0.20743969 0.86285424 -0.19680557
-0.24036832 0.85737741 -0.20621142
-0.27546132 0.85894001 -0.21800724
-0 0 -0
-0 0 -0
-0.21927151 0.78439081 -0.22133033
-0.25430059 0.79367137 -0.23531474
-0 0 -0
-0 0 0
-0.62859124 2.2529643 0.69471222
-0.73796797 2.303412 0.69278598
-0.83644915 2.3103583 0.67823207
-0.55615401 2.3286417 0.6392228
-0.64271092 2.3059032 0.61284173
-0.72743863 2.2764254 0.58757311
-0.8332597 2.3101103 0.57844406
-0.54779041 2.2934453 0.53549856
-0.66657919 2.3902469 0.53750652
-0.732723 2.2960024 0.49800801
-0.85958016 2.3884342 0.49907339
-0.56580484 2.3664904 0.45843661
-0.65155447 2.3387368 0.43236962
-0.73575842 2.3095493 0.40792939
-0.83054626 2.3105443 0.38958174
-0.55098212 2.3053837 0.35669881
-0.64542711 2.3212867 0.33843997
-0.73528194 2.3122389 0.31736502
-0.82370907 2.2979472 0.296013
-0.55763912 2.3350401 0.27144596
-0.64986801 2.3374164 0.25075334
-0.73646659 2.3191876 0.228302
-0.8243286 2.3032184 0.20662463
-0.56058758 2.3490195 0.18421187
-0.65995878 2.3766034 0.16430263
-0.74456722 2.3466847 0.14087868
-0.82522851 2.308145 0.11654045
-0.56451344 2.3687656 0.096143678
-0.6455453 2.3291125 0.072323553
-0.72360826 2.2846382 0.049278799
-0.82716095 2.3166106 0.026833905
-0.55002373 2.3093948 0.006753752
-0.64309794 2.323591 -0.016453108
-0.74054009 2.3413618 -0.039520089
-0.81232131 2.2776852 -0.062013675
-0.56282693 2.368654 -0.082465716
-0.64325696 2.3274837 -0.10454302
-0.73937696 2.3426604 -0.12986122
-0.83591866 2.3456619 -0.15535854
-0.54753584 2.3111153 -0.16766542
-0.63502187 2.3023813 -0.19132295
-0.70742363 2.242646 -0.21074136
-0.71359444 2.0042896 -0.21130595
-0.47184378 1.9941061 -0.22051243
-0.46536058 1.6901219 -0.20531195
-0.51439595 1.6322067 -0.216618
-0.56888103 1.5990661 -0.23179948
-0.26138228 1.1087118 -0.16504073
-0.31104249 1.1321311 -0.18131687
-0.34926248 1.1097152 -0.19128223
-0.44754705 1.2586348 -0.23297267
-0 0 -0
-0 0 -0
-0.27399784 0.87243688 -0.1851166
-0.33950981 0.95575321 -0.21595849
-0.20458756 0.87456757 -0.19918716
-0.23767528 0.86823255 -0.20846756
-0.26698315 0.85041285 -0.21542309
-0 0 -0
-0.1959931 0.84140271 -0.22600278
-0.21979041 0.80527145 -0.22683737
-0.23905717 0.76215929 -0.22553259
-0 0 -0
-0 0 0
-0.62332177 2.2882259 0.70439267
-0.70886093 2.2601979 0.67846769
-0.82096702 2.3118136 0.67716777
-0 0 0
-0.62091893 2.2817605 0.60540134
-0.70997816 2.2697244 0.58470809
-0.79699391 2.2527809 0.56285381
-0.52642387 2.2654181 0.52819026
-0.64060318 2.3527997 0.52819175
-0.72212517 2.3116722 0.50043631
-0.80473733 2.2798557 0.47534475
-0 0 0
-0.63486648 2.3341405 0.43079162
-0.72744465 2.3328488 0.41124859
-0.81635338 2.3155971 0.38958174
-0.54354489 2.3376162 0.36116311
-0.62935585 2.3185134 0.33746624
-0.70929331 2.278837 0.31217721
-0.80465508 2.2889099 0.29420727
-0.5448752 2.3451929 0.27223244
-0.63264751 2.3308005 0.24962245
-0.72488207 2.3322198 0.22914273
-0.80391049 2.2903688 0.20502549
-0.54368317 2.3417308 0.18337521
-0.62630576 2.310307 0.15945065
-0.71386933 2.2987692 0.1377366
-0.81600797 2.3273041 0.1172528
-0.54816294 2.3643975 0.095828071
-0.63202506 2.3359241 0.072413273
-0.70572799 2.2766209 0.049011536
-0.81094825 2.31598 0.026768459
-0.53606886 2.3137004 0.0067565967
-0.63117588 2.3361816 -0.016514527
-0.73089051 2.3611441 -0.039777551
-0.81582171 2.3326387 -0.063372388
-0.5469321 2.3662202 -0.082262591
-0.62714213 2.3246348 -0.10424025
-0.72469407 2.346199 -0.12980844
-0.80175447 2.2942159 -0.15162246
-0.5380488 2.3348444 -0.16914421
-0.61777318 2.2946839 -0.19036473
-0.69864422 2.2631233 -0.21225876
-0.69833088 2.0001752 -0.21041647
-0.45826131 1.9911501 -0.21987048
-0.46709707 1.7380266 -0.21077918
-0.51168096 1.6590327 -0.21975741
-0.5293597 1.5173954 -0.21948557
-0.266518 1.1623851 -0.17278373
-0.29871467 1.1139725 -0.17811178
-0.34999865 1.1363562 -0.19550049
-0.41257057 1.18322 -0.21854074
-0.22808751 0.99829412 -0.18725918
-0 0 -0
-0.27382228 0.89096534 -0.188688
-0 0 -0
-0.19726861 0.86723882 -0.19723859
-0.23209198 0.86873335 -0.20824195
-0.26261643 0.85482246 -0.21612786
-0 0 -0
-0 0 -0
-0.21186469 0.79541498 -0.22369048
-0.24002376 0.78201205 -0.2309671
-0 0 -0
-0 0 0
-0 0 0
-0.71500498 2.3297563 0.69801766
-0.78235751 2.2467117 0.65667981
-0 0 0
-0.60790116 2.2892725 0.60639334
-0.71053284 2.3213944 0.59688449
-0.78634614 2.266825 0.56514651
-0.53271329 2.3580179 0.54900777
-0.61034393 2.2971787 0.51485461
-0.7010572 2.2935827 0.49557969
-0.80742073 2.3329675 0.48537633
-0.53238636 2.3540854 0.45473355
-0.59300381 2.2342718 0.4116804
-0.70966351 2.3259499 0.40925705
-0.78083432 2.2589545 0.37923887
-0.51719898 2.2878585 0.35297856
-0.61537141 2.3232887 0.33760533
-0.70771843 2.3239336 0.31775412
-0.79383034 2.3031898 0.29541111
-0.53047514 2.3484921 0.27223244
-0.61349535 2.3163691 0.24766906
-0.7088201 2.3309083 0.22858225
-0.79373282 2.306565 0.20603548
-0 0 0
-0.6172213 2.3333986 0.16077997
-0.70671654 2.3260324 0.13910769
-0.81340212 2.3662736 0.11896244
-0.53364497 2.3677166 0.095828071
-0.61972135 2.3474898 0.072652563
-0.69058502 2.2770813 0.048929304
-0.79802102 2.3246953 0.026812091
-0.52252138 2.3198729 0.0067651314
-0.62039787 2.3535476 -0.016610065
-0.71349108 2.3560147 -0.039616637
-0.80376315 2.3442199 -0.063551836
-0.52977383 2.3578305 -0.081856363
-0.61718976 2.3448639 -0.10497555
-0.70941788 2.3477337 -0.12965007
-0.80124831 2.338748 -0.15423772
-0.52741891 2.3546495 -0.17034131
-0.60823965 2.3157852 -0.19180207
-0.69856644 2.3131344 -0.21654321
-0.69667876 2.0354915 -0.21367796
-0.47186401 2.1093876 -0.23260264
-0.47330055 1.8052295 -0.2185729
-0.49776635 1.6497937 -0.21812491
-0.53254318 1.5571772 -0.22476296
-0.25313833 1.1359853 -0.16862544
-0.29587555 1.1310823 -0.18055376
-0.30942923 1.0269961 -0.17635605
-0.44449472 1.300387 -0.23967321
-0 0 -0
-0 0 -0
-0 0 -0
-0 0 -0
-0.19489336 0.88177872 -0.2002697
-0.22380908 0.85882837 -0.20553458
-0.25736639 0.85641772 -0.21612786
-0 0 -0
-0.18731621 0.85130322 -0.22802743
-0.20698014 0.7967 -0.22369048
-0.23023976 0.76687896 -0.22607604
-0.25050178 0.7326858 -0.22730905
-0 0 0
-0.60361505 2.3281803 0.71435779
-0.67443758 2.2466285 0.6718592
-0.78661895 2.3043811 0.67211229
-0 0 0
-0.59845775 2.3107781 0.61110562
-0.67705852 2.2615211 0.58041054
-0.76490182 2.24949 0.5596441
-0.52680582 2.4002948 0.55808783
-0.60408247 2.3311553 0.52162904
-0.68079954 2.2771988 0.49112776
-0.78079724 2.3016391 0.47785264
-0.52088428 2.3707452 0.45732567
-0.60321462 2.3303187 0.42868766
-0.6934045 2.3236458 0.40809536
-0.78597444 2.319828 0.38864148
-0.51778752 2.3576324 0.36324647
-0.59243584 2.2934628 0.33273673
-0.69089842 2.3196797 0.31658688
-0.77237576 2.2863855 0.29264238
-0.5181849 2.3614085 0.27335596
-0.60101217 2.3268313 0.24838872
-0.69450462 2.3352137 0.22858225
-0.7862525 2.3312199 0.20780292
-0.51575989 2.3521223 0.18367946
-0.59267366 2.2975292 0.15805487
-0.7003932 2.3571212 0.14070728
-0.77781963 2.3087447 0.1158281
-0.51654232 2.3592331 0.095354646
-0.60779774 2.3609281 0.072951667
-0.68399155 2.3061972 0.049463827
-0.78151 2.3229139 0.026735734
-0.51148325 2.3376887 0.006807805
-0.6009661 2.3379402 -0.016473582
-0.69249111 2.3382978 -0.039246541
-0.78363258 2.332051 -0.063090391
-0.51721442 2.3698244 -0.082161032
-0.60179687 2.3447359 -0.10480254
-0.68849051 2.3300159 -0.12843592
-0.77639961 2.312397 -0.15218286
-0.51041645 2.3461447 -0.1694963
-0.58783621 2.2953327 -0.18980578
-0.67392266 2.2820339 -0.21324062
-0.70126462 2.0906737 -0.21901496
-0.45975655 2.1161299 -0.23303063
-0.51362687 2.0092134 -0.24288462
-0.48623037 1.6480592 -0.21749704
-0.52297854 1.5604155 -0.22476296
-0.25432688 1.1752409 -0.17421763
-0.2757411 1.0811645 -0.17231208
-0.31845924 1.0809345 -0.18527931
-0.39645502 1.1835233 -0.21768169
-0 0 -0
-0 0 -0
-0.25706351 0.87451148 -0.18452138
-0.2945469 0.88021857 -0.19763222
-0 0 -0
-0.21781553 0.85735279 -0.20485774
-0.2523807 0.85891342 -0.21636279
-0 0 -0
-0.18491854 0.86568195 -0.23157059
-0.20066631 0.79234219 -0.22211705
-0.22932492 0.78120494 -0.2298802
-0 0 -0
-0 0 0
-0.56935328 2.2528419 0.69015676
-0.65684927 2.2378106 0.66800427
-0.78133309 2.3356748 0.67982852
-0 0 0
-0.57525712 2.2787137 0.60168111
-0.66807967 2.2824082 0.58470809
-0.75477713 2.2652223 0.56239527
-0.50536233 2.3720078 0.55077952
-0.57851774 2.2902818 0.51167911
-0.66544038 2.2766335 0.49011597
-0.76046968 2.2877641 0.47399428
-0 0 0
-0.58456922 2.3167932 0.42553166
-0.68106705 2.3344834 0.40925705
-0.77950495 2.3480406 0.39255926
-0.49382687 2.316277 0.35640121
-0.58391339 2.3191416 0.3359361
-0.67582053 2.3210194 0.31619778
-0.76675463 2.3165276 0.29589263
-0.50223666 2.3577406 0.27256951
-0.58963788 2.3420506 0.24962245
-0.68349844 2.3509035 0.2297032
-0.75036073 2.2707174 0.20199555
-0.49799645 2.3396387 0.18246253
-0.603625 2.4007928 0.16490082
-0.67171407 2.3124788 0.13779373
-0.77021378 2.3333929 0.11682539
-0.50724959 2.3867931 0.096340947
-0.59475946 2.37043 0.073131137
-0.6731689 2.3218737 0.049710531
-0.76379871 2.3172188 0.026615744
-0.49526012 2.3319793 0.0067822007
-0.58660948 2.3415837 -0.016473582
-0.67757446 2.3405821 -0.039214354
-0.77337247 2.3491592 -0.063423663
-0.50618464 2.3895748 -0.082736529
-0.58739847 2.3483844 -0.10480254
-0.68914425 2.3860037 -0.13128655
-0.7737354 2.3521967 -0.15448679
-0.49395043 2.3394725 -0.16879211
-0.57663774 2.3105021 -0.190764
-0.65051591 2.2535899 -0.21020579
-0.66729838 2.030652 -0.21229428
-0.41271272 1.9574145 -0.21526979
-0.47968161 1.9255891 -0.23241547
-0.47610891 1.6510117 -0.21749704
-0.52359402 1.5946598 -0.22922845
-0.25504291 1.2145525 -0.17980979
-0.2624281 1.0559809 -0.16803862
-0.2946187 1.0231302 -0.17505811
-0.38457805 1.1718934 -0.21510457
-0 0 -0
-0 0 -0
-0.25304595 0.88078243 -0.18551344
-0.29645273 0.90431511 -0.2026303
-0 0 -0
-0.21395533 0.86434716 -0.20621142
-0.24844727 0.86511707 -0.21753739
-0.26425716 0.8051545 -0.2139402
-0.17312583 0.83553863 -0.22321886
-0.19741899 0.80011684 -0.22395271
-0.22213863 0.77427185 -0.22743466
-0.24119249 0.73479307 -0.22702737
-0 0 0
-0.60685456 2.4647956 0.75393367
-0.65397459 2.2796855 0.67929369
-0.76038277 2.3202729 0.67397487
-0 0 0
-0.56751096 2.3076 0.60837746
-0.65406251 2.2864647 0.58470809
-0.73965567 2.2661097 0.5614782
-0.49198249 2.3807938 0.55210829
-0.56725633 2.3051767 0.51421952
-0.65872103 2.3060982 0.49557969
-0.7479369 2.2970524 0.4749589
-0.49234965 2.3798459 0.45788115
-0.57339764 2.3327651 0.42781097
-0.65997094 2.3149099 0.40510809
-0.76966435 2.366868 0.39490992
-0.48401067 2.3405676 0.35967499
-0.56471866 2.3024836 0.33301491
-0.6593954 2.3174927 0.31516021
-0.75283241 2.3221328 0.296013
-0.49198252 2.3812132 0.27492893
-0.57644087 2.3504546 0.25013649
-0.65518433 2.3062093 0.22493914
-0.73886847 2.2828631 0.20266889
-0.48423612 2.3455799 0.18269071
-0.57131815 2.3327346 0.15998237
-0.66896158 2.356895 0.14019313
-0.75434554 2.333323 0.11658794
-0.48250908 2.3409281 0.094368361
-0.5726099 2.3429637 0.072173998
-0.65046191 2.2961404 0.049073212
-0.74710858 2.3142493 0.02652848
-0.48154724 2.3379126 0.0067907358
-0.56440818 2.3130803 -0.016248383
-0.6632002 2.3446956 -0.039214354
-0.75648952 2.3462489 -0.063218571
-0.49111074 2.3906779 -0.082668833
-0.57557923 2.3626215 -0.10527832
-0.65767616 2.330601 -0.12801361
-0.75377923 2.3398001 -0.15336595
-0.4841882 2.3649359 -0.17041174
-0.55632865 2.2888131 -0.18868788
-0.64100152 2.272877 -0.21163395
-0.66336191 2.0612316 -0.21506162
-0.43654189 2.1352499 -0.23452853
-0 0 -0
-0.47161928 1.6739551 -0.22013412
-0.51986563 1.6167072 -0.23193482
-0.23258057 1.1423918 -0.16891223
-0.26710209 1.1036779 -0.17536455
-0.31773007 1.1294054 -0.19290464
-0.37135178 1.1554734 -0.21166839
-0 0 -0
-0 0 -0
-0 0 -0
-0.27834162 0.86700416 -0.19388366
-0 0 -0
-0.20773464 0.86185533 -0.20530896
-0.23473229 0.83667707 -0.2100199
-0.27474004 0.85476035 -0.22666891
-0.17409089 0.86693752 -0.23131751
-0.18980086 0.79005349 -0.22080585
-0.22179881 0.79137367 -0.23205401
-0.23609205 0.73443216 -0.22646402
-0.46302161 2.3199229 0.73085201
-0 0 0
-0.63452673 2.2642162 0.67351133
-0.72875226 2.2707422 0.65827632
-0.46551365 2.3247979 0.63303185
-0.566199 2.3647401 0.62251425
-0.64367944 2.3035283 0.5880506
-0.75566757 2.3642483 0.5846343
-0.47104603 2.3522136 0.54479998
-0.55127966 2.3010104 0.51252592
-0.64376909 2.3072667 0.49497262
-0.73740512 2.3128166 0.47727391
-0.47368112 2.3625879 0.45399296
-0.56044799 2.3419845 0.42886296
-0.64046353 2.2999158 0.40178886
-0.73594916 2.3113163 0.38488045
-0.47041732 2.3473718 0.36027023
-0.54966033 2.3020525 0.3324585
-0.64516312 2.3214951 0.31516021
-0.740372 2.3323858 0.29673526
-0.478728 2.3910077 0.27571541
-0.55461603 2.3229871 0.24684657
-0.64581305 2.3274546 0.22662057
-0.73086751 2.3063517 0.20435219
-0.47316 2.3651283 0.18398368
-0.5586139 2.3429902 0.16044763
-0.65822119 2.3744242 0.14099294
-0.73066992 2.3083861 0.11511575
-0.47185478 2.362462 0.095117934
-0.55706626 2.3415711 0.07202445
-0.64089286 2.3164692 0.049422707
-0.72807288 2.3035347 0.02635395
-0.46954173 2.3525913 0.0068248743
-0.56314534 2.3709829 -0.016630538
-0.63788557 2.309206 -0.038554616
-0.73906976 2.3413134 -0.062962212
-0.46706781 2.3465967 -0.081043884
-0.55646133 2.3466668 -0.10441326
-0.64230222 2.3307414 -0.12780245
-0.73040211 2.3158262 -0.15149792
-0.4725793 2.3825393 -0.171468
-0.54204482 2.2912135 -0.18860804
-0.62492764 2.2690852 -0.21091987
-0.66266334 2.1032276 -0.21901496
-0.42478424 2.1447155 -0.23527747
-0 0 -0
-0.46739215 1.6988178 -0.22302237
-0.50398564 1.600965 -0.22922845
-0.24509785 1.2428359 -0.18353792
-0.26259068 1.1149156 -0.17689079
-0.28909874 1.0523592 -0.17943864
-0.3391237 1.0778543 -0.19706464
-0.20058067 1.0212301 -0.19031723
-0 0 -0
-0.24791758 0.90461707 -0.18987845
-0.2768288 0.8808257 -0.19659096
-0.16589245 0.84892792 -0.1918259
-0.20399974 0.86975312 -0.20688826
-0.23652816 0.86341339 -0.21636279
-0.26861709 0.8536554 -0.22593457
-0.16802961 0.86419076 -0.23030518
-0.18363166 0.78556514 -0.2192324
-0.21008013 0.7676571 -0.22471741
-0 0 -0
-0 0 0
-0.53911161 2.3114851 0.70496207
-0.62036812 2.2671397 0.67323601
-0.72722936 2.3147151 0.66971761
-0 0 0
-0.53739208 2.3068426 0.60639334
-0.62595481 2.2943187 0.58470809
-0.7190575 2.2982397 0.56720996
-0.46365753 2.3914387 0.55321562
-0.54669112 2.345278 0.52162904
-0.62959987 2.3111734 0.49497262
-0.7214461 2.3116777 0.47611639
-0.46423182 2.3914967 0.45899206
-0.54316509 2.3329139 0.42658365
-0.62220013 2.2885771 0.39913353
-0.72410434 2.3233318 0.38613415
-0.44997796 2.3191497 0.35550833
-0.54336733 2.3391426 0.33732715
-0.62078089 2.2880886 0.31010208
-0.72103959 2.3207684 0.29468882
-0.47652856 2.4582837 0.28313074
-0.5464285 2.3525071 0.24962245
-0.62917703 2.3227246 0.22577985
-0.716407 2.3098409 0.20426801
-0.45750135 2.3621135 0.18352734
-0.5325039 2.2958307 0.15699144
-0.63190383 2.3350518 0.13842215
-0.71590102 2.3109176 0.11502077
-0.45848826 2.3711991 0.095354646
-0.54404032 2.3507876 0.072203904
-0.62327844 2.3078103 0.049155448
-0.71717542 2.3184667 0.026473939
-0.45661527 2.3632827 0.006847633
-0.54543519 2.3607533 -0.016534999
-0.63255507 2.3458998 -0.039101716
-0.72675526 2.3524899 -0.063141659
-0.45341688 2.3533437 -0.081179298
-0.54586929 2.3665867 -0.10514858
-0.62331998 2.3172808 -0.12685224
-0.7258926 2.3517351 -0.15355276
-0.45964402 2.3942106 -0.17210175
-0.52954072 2.3012962 -0.18916698
-0.6097002 2.2680676 -0.21047357
-0.66675174 2.1624079 -0.22474732
-0.426404 2.2244234 -0.2437299
-0.44815794 1.9515163 -0.23450929
-0.44049257 1.6403329 -0.21498553
-0.49882013 1.6191775 -0.23139353
-0.24525923 1.2851455 -0.18956025
-0.25066957 1.0943491 -0.17338043
-0.28289166 1.0550662 -0.17960086
-0.31134173 1.0111843 -0.1845226
-0.18402587 0.96832377 -0.18024373
-0 0 -0
-0 0 -0
-0.26768118 0.87035453 -0.19388366
-0 0 -0
-0.20039234 0.87858707 -0.20869318
-0.23097484 0.86390936 -0.21612786
-0.25652578 0.83304822 -0.22005978
-0 0 -0
-0.18543851 0.81584817 -0.22736184
-0.20362765 0.76242322 -0.22281533
-0.23129788 0.75102925 -0.23068911
-0.43311381 2.3179169 0.72849065
-0.51919442 2.2895079 0.69727468
-0.61239833 2.2931945 0.67984444
-0.71187967 2.315448 0.66865325
-0 0 0
-0.53585339 2.3658412 0.62102616
-0.61111581 2.2953012 0.58399183
-0.7063669 2.3072622 0.56835628
-0.43639386 2.3271463 0.53771317
-0.51306397 2.2637568 0.50278771
-0.61289096 2.3055286 0.49294901
-0.70294982 2.3019843 0.47322264
-0.44846106 2.3885052 0.45788115
-0.52818829 2.3333223 0.42605764
-0.62078935 2.3400099 0.40743151
-0.71213967 2.3352885 0.38738781
-0.44941902 2.3947597 0.36666912
-0.52987695 2.3462963 0.33788356
-0.61307365 2.3158178 0.31334448
-0.70620859 2.3232491 0.29444805
-0.45374522 2.4201419 0.2784119
-0.53264081 2.3587265 0.24993089
-0.60626322 2.2938139 0.2226038
-0.70858604 2.3351707 0.20611963
-0.44189754 2.3589957 0.18307099
-0.51972371 2.3048947 0.15739022
-0.61323142 2.3224752 0.13745096
-0.70286691 2.3190906 0.11521073
-0.44503227 2.3798609 0.095591359
-0.53026414 2.3570073 0.072293639
-0.617513 2.3434954 0.049833879
-0.70583236 2.3323944 0.02658302
-0.43935072 2.3512952 0.0068049603
-0.52721447 2.3474693 -0.016418988
-0.62018406 2.3574727 -0.039230451
-0.70392007 2.3291543 -0.062398214
-0.43805322 2.3511691 -0.081010036
-0.531775 2.3718412 -0.10523508
-0.62049586 2.3645275 -0.12922776
-0.70769846 2.343724 -0.15274328
-0.44512683 2.3979669 -0.17217219
-0.5156278 2.3054748 -0.18924683
-0.60133064 2.2929616 -0.21243729
-0.61525112 2.039748 -0.21160245
-0.41600853 2.2445948 -0.24565578
-0.42211205 1.8912212 -0.22694823
-0.44273862 1.69003 -0.22113872
-0.48601675 1.6127211 -0.23004036
-0.23701 1.2846797 -0.18927346
-0.23407179 1.0514917 -0.16635975
-0.29164401 1.1150151 -0.18949759
-0.2869485 0.95270616 -0.17352684
-0.17968039 0.97814214 -0.18186268
-0.21419318 0.96433586 -0.19029899
-0 0 -0
-0.25951797 0.86261457 -0.19180113
-0.16230547 0.88835472 -0.2002697
-0.19394359 0.87504435 -0.2075651
-0.22566964 0.86531037 -0.21612786
-0.26091772 0.86617118 -0.22838239
-0.15775797 0.8680914 -0.23081134
-0.18334258 0.83016276 -0.23103319
-0.20258492 0.77762765 -0.22689122
-0.2250246 0.74692196 -0.22899906
-0.41854373 2.3186502 0.72790027
-0 0 0
-0.59758902 2.2941182 0.67901838
-0.6959933 2.3142338 0.66705686
-0.42402065 2.3405778 0.63509548
-0.5177874 2.3530006 0.61680996
-0.59653246 2.2971277 0.58351427
-0.67907304 2.2677276 0.55758065
-0.42436656 2.3422544 0.54059219
-0.52816826 2.3985789 0.53200233
-0.59701246 2.3026102 0.4915325
-0.66803241 2.236681 0.45894688
-0.43186748 2.3805757 0.45584449
-0.50857472 2.3124809 0.42167437
-0.59876215 2.3141792 0.40228674
-0.70344281 2.3585432 0.390522
-0 0 0
-0.51695585 2.3562744 0.33885729
-0.59017706 2.2859335 0.30880514
-0.6959005 2.3408604 0.29613337
-0.43552181 2.4043031 0.27627715
-0.51496071 2.3473761 0.24838872
-0.60062623 2.3302705 0.22577985
-0.69566178 2.3442509 0.20654047
-0.42652687 2.3567572 0.18269071
-0.51325744 2.3431287 0.15978298
-0.60668683 2.3561659 0.13922194
-0.70480353 2.377948 0.11791766
-0.42828965 2.3707471 0.095117934
-0.51323104 2.3484986 0.071934715
-0.59316945 2.308507 0.049011536
-0.68015766 2.2983279 0.026146697
-0.42562574 2.3578832 0.0068163397
-0.51599771 2.365315 -0.01652135
-0.60471338 2.3573594 -0.039166082
-0.68848211 2.3295949 -0.062295672
-0.4260968 2.3675835 -0.081483975
-0.51699913 2.3740833 -0.10519183
-0.5995397 2.3431368 -0.12785524
-0.69104326 2.3403647 -0.15224513
-0.43410152 2.4212718 -0.17365097
-0.50231832 2.3124917 -0.18956622
-0.58527607 2.2888885 -0.21172322
-0.61426604 2.0826173 -0.21565463
-0.40468076 2.2608073 -0.24715368
-0.40608129 1.8733915 -0.22450542
-0.433097 1.6955985 -0.22151545
-0.48479417 1.6451352 -0.23423521
-0.3407335 1.9126011 -0.28147259
-0.23763898 1.0992748 -0.17368568
-0.27455592 1.0766252 -0.18268345
-0.28777695 0.97712892 -0.17765024
-0 0 -0
-0 0 -0
-0 0 -0
-0.25477222 0.86606729 -0.19221763
-0.15091664 0.85568339 -0.19269192
-0.18775091 0.87240833 -0.20666265
-0.22035594 0.86667871 -0.21612786
-0.24518789 0.83241314 -0.21908064
-0 0 -0
-0.17703141 0.82561082 -0.22945976
-0.19757277 0.77792335 -0.2266195
-0.21989506 0.7464478 -0.22843572
-0.39430773 2.2637572 0.70989466
-0 0 0
-0.59059989 2.3256946 0.68727893
-0.66655111 2.2666724 0.65215653
-0 0 0
-0.4944348 2.3144486 0.60589731
-0.58123475 2.2960379 0.58232051
-0.66788065 2.281193 0.55987334
-0.40662757 2.3256021 0.53616291
-0.49627855 2.3214924 0.51421952
-0.58575225 2.3176236 0.49396083
-0.69940072 2.3952067 0.49058509
-0.41589662 2.375437 0.45436329
-0.50300962 2.3559959 0.42903829
-0.57779914 2.2910364 0.39763987
-0.68315202 2.3429036 0.38723111
-0.40960011 2.3406763 0.35759166
-0.50021929 2.348748 0.33732715
-0.58436692 2.3222053 0.31321478
-0.67542928 2.3241141 0.29348502
-0.40963888 2.3433065 0.26897418
-0.50386268 2.3660579 0.25003368
-0.57928187 2.3059089 0.22307086
-0.67959893 2.3427334 0.20603548
-0.41102874 2.3534365 0.18223436
-0.50219089 2.3618495 0.16084643
-0.58176875 2.3182054 0.13676542
-0.68213838 2.3544049 0.11654045
-0.41304854 2.3693929 0.094960131
-0.4952853 2.3349807 0.071426228
-0.5923512 2.3654444 0.050142258
-0.66659832 2.3043792 0.026168514
-0.41012043 2.3545394 0.0067992704
-0 0 -0
-0.58611506 2.3445354 -0.03889253
-0.6794464 2.3520231 -0.062782757
-0 0 -0
-0 0 -0
-0.58660078 2.3525851 -0.12817198
-0.67224193 2.3292179 -0.15124884
-0.41736665 2.4130778 -0.17287637
-0.48935336 2.3213825 -0.19004534
-0.57338798 2.3011346 -0.21252654
-0 0 -0
-0.39875245 2.3092964 -0.25218233
-0.4154321 1.974986 -0.23637047
-0.42771685 1.7184409 -0.22415255
-0.46920612 1.6290369 -0.23152885
-0.37223145 2.166302 -0.31846696
-0.23088948 1.1007122 -0.17368568
-0.2667549 1.0735015 -0.18187225
-0.28586364 0.99307662 -0.18022738
-0.16650268 0.97348619 -0.18060349
-0 0 -0
-0 0 -0
-0.25053442 0.87137425 -0.19305065
-0 0 -0
-0.18498294 0.88594133 -0.20959564
-0.21433277 0.86518407 -0.21542309
-0.24490401 0.85067314 -0.22348674
-0.14289981 0.84516037 -0.2242312
-0.17078306 0.82101279 -0.2278863
-0.19094644 0.77164733 -0.22444569
-0.2174347 0.75515944 -0.23068911
-0.39164054 2.3330343 0.73085201
-0.48027498 2.3146331 0.70211488
-0.57308602 2.31621 0.683424
-0.65396184 2.2753518 0.65348685
-0 0 0
-0 0 0
-0.57806444 2.3438742 0.59354192
-0.6619038 2.3133225 0.56675136
-0.39121586 2.321322 0.53461266
-0.49532068 2.3886113 0.5284034
-0.57245708 2.3249776 0.49477026
-0.65776628 2.3050976 0.47129348
-0.39477199 2.3391838 0.44695717
-0.48095733 2.3224041 0.42237568
-0.56773049 2.3108187 0.4004612
-0.6595614 2.3147566 0.38190293
-0.39473686 2.3402202 0.35714522
-0.48559785 2.3508031 0.33718801
-0.56892675 2.3209319 0.31256631
-0.65627468 2.3110251 0.29131818
-0.39327171 2.3340178 0.26762596
-0.49094498 2.3768981 0.25085616
-0.56843531 2.3229594 0.22437866
-0.66521144 2.3468592 0.20603548
-0.395753 2.3509977 0.18185405
-0.48849547 2.3687954 0.16111228
-0.56705946 2.319792 0.13665117
-0.66387004 2.3450906 0.11587559
-0.39486015 2.3502038 0.094092205
-0.48336565 2.3497245 0.071785159
-0.57711524 2.3661206 0.050080582
-0.65625387 2.3218975 0.026321227
-0.40096316 2.3885698 0.0068903067
-0.48069787 2.3411031 -0.016309801
-0.57266438 2.3519733 -0.038956895
-0.65685564 2.3272853 -0.062013675
-0.39453676 2.3578484 -0.080976188
-0.48421595 2.3626318 -0.10441326
-0.5723902 2.3571105 -0.12822476
-0.65522879 2.3236928 -0.15062617
-0.40288034 2.4175611 -0.17301719
-0.476897 2.3331311 -0.190764
-0.56184149 2.3152566 -0.2135084
-0.59729582 2.1206491 -0.21881728
-0.38669649 2.3244498 -0.25357327
-0.4489558 2.2013288 -0.263125
-0.46040019 1.8994035 -0.24738404
-0.45678625 1.6233014 -0.23031098
-0.35796261 2.1626868 -0.31760663
-0.26076439 1.2822419 -0.20207369
-0.26062715 1.0770361 -0.18219672
-0.28269851 1.0052438 -0.18211728
-0.17363708 1.0540793 -0.19535398
-0.19913992 0.98158789 -0.1929473
-0 0 -0
-0.2491504 0.88701957 -0.19617444
-0 0 -0
-0.17954342 0.88705969 -0.20959564
-0.20810831 0.86270326 -0.21448341
-0.24072985 0.85589325 -0.22446586
-0.1406645 0.86416394 -0.22903976
-0.16364419 0.81163961 -0.22500168
-0.19004048 0.78870964 -0.22906503
-0.21071844 0.74909008 -0.22843572
-0 0 0
-0.46247268 2.2996805 0.69670522
-0.56832027 2.3589361 0.69498885
-0.63607955 2.2654006 0.64949572
-0.37870067 2.3346345 0.63148403
-0.46981069 2.3393376 0.61085761
-0.55913705 2.3284922 0.58876687
-0.64376682 2.3032787 0.56331235
-0.37649667 2.320791 0.53394824
-0.47410771 2.3590276 0.5212056
-0.55886543 2.3313034 0.49537733
-0.64887911 2.3279939 0.47515178
-0.3728475 2.2950025 0.43806988
-0.47347882 2.3590953 0.42851228
-0.55399966 2.3161769 0.40079314
-0.64269781 2.3092451 0.38033584
-0.37783432 2.3269808 0.35476425
-0.46688825 2.3323762 0.33412775
-0.55605602 2.3301661 0.31334448
-0.63810229 2.3006594 0.28951252
-0.38403377 2.367774 0.27122125
-0.47596094 2.3779151 0.25065055
-0.55717045 2.3389945 0.22559303
-0.63963318 2.3105626 0.20250055
-0.3829149 2.3632243 0.18261464
-0.47258297 2.3648989 0.16064703
-0.5548948 2.3319688 0.13716532
-0.65000069 2.3510454 0.11597057
-0.38202724 2.3624465 0.094486721
-0.4675712 2.3457842 0.071575783
-0.55080783 2.3200071 0.0490321
-0.6396001 2.3172052 0.026223052
-0.38518316 2.3840749 0.0068703927
-0.46534851 2.3391049 -0.016275682
-0.55845279 2.356416 -0.038972989
-0.65026665 2.3592203 -0.062757127
-0.38053852 2.3631849 -0.081077747
-0.46562386 2.34498 -0.10350495
-0.55883521 2.3644655 -0.12843592
-0.64334327 2.3363299 -0.15118659
-0.3845644 2.3983192 -0.171468
-0.46683195 2.3575251 -0.19252071
-0.54213017 2.2953961 -0.21136616
-0.56817472 2.0657463 -0.21278846
-0.38484088 2.4043381 -0.26202571
-0.43659526 2.2098885 -0.26382294
-0.40044653 1.6974896 -0.22076201
-0.45023006 1.6384937 -0.23207012
-0.34888747 2.191231 -0.32147813
-0.23035309 1.169399 -0.18406411
-0.24564457 1.0430775 -0.17619382
-0.29974282 1.091506 -0.19740826
-0 0 -0
-0.18364692 0.93461525 -0.18348908
-0.21153998 0.90072525 -0.18729913
-0.2418921 0.88192898 -0.19471668
-0 0 -0
-0.17447196 0.89005673 -0.21004686
-0.20214452 0.86112505 -0.21377864
-0.23778474 0.86576885 -0.22666891
-0.13431247 0.85832012 -0.22726819
-0.16383874 0.83914781 -0.23234439
-0.17750837 0.75706708 -0.21955462
-0 0 -0
-0.36459377 2.3480504 0.73409897
-0.44817019 2.3015339 0.69642055
-0.54198629 2.3118365 0.68011975
-0.62828445 2.2915723 0.65588158
-0.36928031 2.3684168 0.63999671
-0.44842115 2.3060405 0.6014331
-0.54285067 2.3233685 0.58661807
-0.62680322 2.2968562 0.56079042
-0.36465347 2.3384738 0.53749168
-0.45178321 2.3216 0.5123142
-0.54655224 2.343272 0.49719855
-0.63458258 2.3319316 0.47515178
-0.36163962 2.315695 0.44158778
-0.45617774 2.3474598 0.42588234
-0.54067147 2.3233743 0.40145695
-0.63058823 2.32077 0.38158953
-0.36827648 2.3595436 0.35937741
-0.45219141 2.3332527 0.33384952
-0.53659052 2.3113191 0.31036147
-0.62578982 2.311239 0.29035518
-0.36460012 2.3386681 0.26762596
-0.4611721 2.3798141 0.25054774
-0.54235858 2.3404291 0.2254062
-0.62726343 2.3211775 0.2030897
-0.3647247 2.3418839 0.18078926
-0.4523778 2.3383656 0.15865307
-0.54012537 2.3333845 0.13705108
-0.63504219 2.3530607 0.11587559
-0.36936578 2.3765943 0.094960131
-0.45563078 2.3613679 0.071964622
-0.53296262 2.3077567 0.04870316
-0.61938679 2.2988794 0.025972167
-0.3710078 2.3893578 0.0068789274
-0.45287821 2.3517356 -0.016343923
-0.54106379 2.3471322 -0.038763802
-0.62720799 2.3313093 -0.061911132
-0.36557263 2.3625124 -0.080976188
-0.44820958 2.3320949 -0.10281289
-0.54498774 2.3707695 -0.12859429
-0.62640512 2.3305948 -0.15056391
-0.36893004 2.3947184 -0.1710455
-0.45254532 2.3613243 -0.19260058
-0.52781266 2.2977087 -0.21127692
-0.562455 2.0951426 -0.21545695
-0.37400988 2.4322047 -0.26480752
-0.41258231 2.1578953 -0.25730881
-0.40799373 1.7782385 -0.23093364
-0.43400821 1.6182579 -0.2288225
-0.23773748 1.5545059 -0.22784512
-0.22280335 1.1688489 -0.18375885
-0.23968033 1.0464888 -0.17651829
-0.27544212 1.0276681 -0.18555345
-0.15358657 1.0094509 -0.18671955
-0 0 -0
-0 0 -0
-0.23723488 0.88623101 -0.19534142
-0 0 -0
-0.16646592 0.87771034 -0.20688826
-0.20010187 0.87656373 -0.21730247
-0.22945546 0.85597342 -0.22373152
-0.12272054 0.81703269 -0.21613255
-0.16173153 0.85625732 -0.23680247
-0.17435731 0.76471013 -0.22145671
-0.20126161 0.75069273 -0.22815406
-0 0 0
-0.43013594 2.2835155 0.69015676
-0.5303551 2.3263662 0.683424
-0.60798246 2.2721045 0.64922959
-0.35231033 2.3543944 0.63561141
-0.44482869 2.3649201 0.61606592
-0.5404169 2.3787379 0.59974957
-0.61495262 2.3091242 0.56285381
-0.3474113 2.3213787 0.5330624
-0.43825281 2.3281701 0.513161
-0.52804875 2.3284354 0.49335375
-0.61925483 2.3319881 0.47438014
-0.3551445 2.3693786 0.45140085
-0.44340226 2.358923 0.42746034
-0.52618778 2.3256865 0.40129101
-0.61684257 2.3265047 0.38190293
-0.35525665 2.3715384 0.3608655
-0.43841368 2.3389032 0.33426684
-0.52938414 2.3455193 0.31451175
-0.60804665 2.3015978 0.28866982
-0.35656607 2.3831184 0.27245715
-0.44876006 2.3943312 0.25178146
-0.52733135 2.3407991 0.22512595
-0.60843635 2.3076391 0.20157474
-0.35418049 2.3697178 0.18276677
-0 0 0
-0.52382529 2.3278885 0.13653691
-0.615251 2.3366282 0.1148783
-0.35197583 2.3600385 0.09421055
-0.44021636 2.359206 0.071815066
-0.52558118 2.3412242 0.049340475
-0.60272741 2.2929657 0.025863085
-0.36385584 2.4420321 0.0070240162
-0.43587679 2.3407068 -0.016248383
-0.52752632 2.3543105 -0.038828168
-0.61086124 2.3273785 -0.06170604
-0.35547268 2.3943686 -0.081991777
-0 0 -0
-0.52977747 2.3711452 -0.12843592
-0.60652393 2.3131552 -0.149194
-0.34897938 2.361412 -0.16851045
-0.44204339 2.3856192 -0.19435728
-0.51023179 2.2853508 -0.20984876
-0.56168997 2.1447613 -0.22020097
-0.35907912 2.4344537 -0.26480752
-0.40944368 2.2150795 -0.26382294
-0.43205389 1.9375734 -0.25127688
-0.43084168 1.646771 -0.23247607
-0.26366615 1.7977958 -0.26326218
-0.21562724 1.1701939 -0.18375885
-0.24804749 1.1143992 -0.18771292
-0.28632578 1.0951021 -0.19740826
-0.14653783 1.004534 -0.18564025
-0 0 -0
-0 0 -0
-0.23105127 0.88483095 -0.19471668
-0 0 -0
-0.16318513 0.8902142 -0.20959564
-0.19914025 0.89770287 -0.22223581
-0.22738782 0.86955971 -0.22691369
-0 0 -0
-0.15352876 0.84109515 -0.23234439
-0.17132723 0.77328223 -0.2236305
-0 0 -0
-0 0 0
-0.41851979 2.2993155 0.69414282
-0.51128852 2.3079891 0.67709094
-0.60060292 2.3009751 0.65641367
-0.36267567 2.5296159 0.682302
-0.44312862 2.4381375 0.6344189
-0.52015948 2.3564065 0.5933032
-0.60126191 2.314738 0.56331235
-0.34506461 2.406482 0.55210829
-0.42798188 2.3529313 0.51803011
-0.5137518 2.3316317 0.49335375
-0.60567242 2.3385935 0.4749589
-0.37119484 2.5845406 0.49194914
-0.42645678 2.3480377 0.42500564
-0.51084918 2.3240554 0.4004612
-0.59909427 2.3168592 0.37970901
-0.37287161 2.5978265 0.39494309
-0.42617184 2.3532426 0.3359361
-0.51561946 2.351629 0.31490085
-0.59564656 2.3120151 0.28951252
-0.34870502 2.4324749 0.27785012
-0.43157893 2.3833368 0.25034213
-0.51934391 2.3731689 0.22792836
-0.60592747 2.3566871 0.20553048
-0.35023379 2.445874 0.18847109
-0.42435831 2.3476682 0.15891893
-0.51400876 2.3515408 0.1377366
-0.59643072 2.3229444 0.11402348
-0.34271741 2.3987534 0.095670268
-0.4296332 2.3835042 0.072473101
-0.50992781 2.3385439 0.049217124
-0.59534997 2.3227739 0.026157603
-0.33671331 2.359082 0.0067793564
-0.42504683 2.3630209 -0.016384866
-0.51328325 2.35848 -0.038844258
-0.60152614 2.3504519 -0.062218763
-0.34175932 2.4034309 -0.082228743
-0.41973394 2.338403 -0.10285614
-0.51775962 2.3860619 -0.12906939
-0.60344386 2.3603463 -0.15199606
-0.3382574 2.3901761 -0.17041174
-0.42932877 2.3990803 -0.19523565
-0.4934558 2.2757845 -0.20868839
-0.52783906 2.0671771 -0.21189895
-0.3349579 2.371635 -0.25774598
-0.39514634 2.2136393 -0.26335767
-0.43107566 1.9906077 -0.25780684
-0.41730067 1.6359427 -0.23058163
-0.17516239 1.2476091 -0.18253417
-0.21242489 1.193874 -0.1872692
-0.2510033 1.1612307 -0.19533826
-0.27619419 1.083474 -0.19500294
-0.1399633 1.0024915 -0.18510059
-0 0 -0
-0.19058849 0.88434583 -0.18313251
-0.22320467 0.87675363 -0.19263415
-0.12320697 0.88870227 -0.19897065
-0.15924777 0.89983255 -0.21162616
-0.1915815 0.88940573 -0.2198866
-0.21893407 0.85872471 -0.22373152
-0 0 -0
-0.14501593 0.82301414 -0.2270996
-0.17568746 0.81665713 -0.23585819
-0.19179721 0.75217623 -0.22787237
-0 0 0
-0.41103858 2.3396063 0.70553154
-0.49610654 2.3063836 0.67571419
-0.59289175 2.3298399 0.66359782
-0 0 0
-0.40573111 2.3129494 0.60118502
-0.50874346 2.3737962 0.59688449
-0.58728659 2.3193276 0.56354165
-0.37467566 2.7322066 0.62629849
-0.40593168 2.3121955 0.50850362
-0.50578594 2.3644271 0.49962687
-0.59035099 2.3384604 0.47418723
-0 0 0
-0.41272143 2.3544893 0.42570701
-0.50048947 2.3454702 0.40361443
-0.58414286 2.3176184 0.37923887
-0.35853848 2.6118219 0.39672884
-0.41172457 2.3558133 0.3359361
-0.50097394 2.3537786 0.31477112
-0.58435029 2.3271804 0.29095703
-0.33755216 2.4621336 0.28099602
-0.416262 2.3820207 0.24993089
-0.50104898 2.3587809 0.22624692
-0.59097129 2.3584273 0.20536214
-0.36281636 2.6495054 0.20398687
-0.40977386 2.3492448 0.15885246
-0.50226396 2.3673468 0.13847928
-0.58701551 2.3459401 0.11497328
-0 0 0
-0.40951937 2.3545828 0.071515962
-0 0 0
-0.58617526 2.346756 0.026386674
-0 0 0
-0.40882975 2.355732 -0.016316624
-0 0 -0
-0.58588326 2.3492489 -0.062090583
-0 0 -0
-0 0 -0
-0 0 -0
-0.58050507 2.3301084 -0.14981669
-0 0 -0
-0.41833073 2.4232793 -0.19699237
-0 0 -0
-0.52259368 2.1003125 -0.2149628
-0.30084836 2.2288027 -0.24201801
-0 0 -0
-0.45047653 2.1437016 -0.27727106
-0.41107881 1.6538571 -0.23274671
-0.17066188 1.2722015 -0.18597552
-0.20643261 1.2029473 -0.18849017
-0.21652877 1.0323741 -0.1734357
-0.2524423 1.0163107 -0.18263271
-0 0 -0
-0 0 -0
-0.18716471 0.89509231 -0.1851166
-0.22017562 0.88759971 -0.19471668
-0.11711103 0.88460237 -0.19788811
-0.14929864 0.87486374 -0.20553458
-0.18492752 0.88485575 -0.21847709
-0.21997257 0.88545829 -0.23034066
-0 0 -0
-0.14319567 0.84291583 -0.23234439
-0.16418451 0.78663135 -0.22689122
-0.18740971 0.75427014 -0.22815406
-0 0 0
-0.39299345 2.3203459 0.69898301
-0.48803362 2.3385575 0.68425006
-0.58067286 2.3418543 0.6659925
-0 0 0
-0.39605415 2.3421409 0.60812944
-0.49634293 2.3873317 0.59951079
-0.57537574 2.3323376 0.56583434
-0.3081671 2.354454 0.53926343
-0.40086958 2.3686061 0.52035886
-0.48669216 2.3454316 0.49497262
-0.57739735 2.3477557 0.47534475
-0.31466573 2.3998733 0.45602962
-0.38809687 2.2967908 0.41483641
-0.48369005 2.3369088 0.40162292
-0.5682627 2.314445 0.37814191
-0.31719694 2.4208171 0.36741316
-0.39594582 2.3504829 0.33482325
-0.4897294 2.3723454 0.31684625
-0.57194686 2.3384366 0.2919201
-0.32746649 2.502584 0.2853778
-0.39321238 2.3345048 0.24468757
-0.49038333 2.3803387 0.22802179
-0.57034624 2.3368402 0.20317386
-0.34009176 2.602247 0.20018399
-0.39419353 2.3448272 0.15838721
-0.48692393 2.3664725 0.13825077
-0.57190055 2.3465867 0.11483081
-0.33611962 2.5781565 0.10265321
-0.39456853 2.3540938 0.071426228
-0.48239785 2.3505018 0.049340475
-0.56892842 2.3386493 0.026255777
-0.32465562 2.492939 0.0071520358
-0.39519227 2.3631277 -0.016350746
-0.48450306 2.3655808 -0.038860351
-0.57287318 2.3586283 -0.062244404
-0.31352526 2.4173553 -0.082567275
-0.39462394 2.3650575 -0.10380772
-0.484045 2.3707108 -0.12790804
-0.5753746 2.3714535 -0.15224513
-0.30596495 2.3713927 -0.16879211
-0.39707586 2.3874519 -0.19387819
-0.47285789 2.3177769 -0.21199098
-0.53125614 2.1924543 -0.22405548
-0.30697167 2.3844419 -0.25870892
-0.38062859 2.2947478 -0.27243093
-0.45236701 2.2203059 -0.28681481
-0.40115631 1.6573113 -0.23288202
-0.19248497 1.5048987 -0.21981533
-0.2701245 1.63419 -0.25579721
-0.23870055 1.173893 -0.19696067
-0.2589401 1.0705038 -0.19208218
-0.12727849 1.001206 -0.18456092
-0.16686751 1.0124744 -0.19767639
-0 0 -0
-0.21426596 0.88703245 -0.19430016
-0.11241414 0.8911159 -0.19918716
-0.14392777 0.87576336 -0.20553458
-0.18412678 0.90883762 -0.22411519
-0.21544731 0.89056093 -0.23131979
-0 0 -0
-0.13428223 0.82092232 -0.22605065
-0.16202655 0.80082965 -0.23069538
-0.18413198 0.76100141 -0.22984409
-0 0 0
-0.37766877 2.3160908 0.69699001
-0.4683381 2.3151245 0.6765402
-0.56108892 2.3238218 0.65987271
-0.32190731 2.5828412 0.694942
-0.38058597 2.3378339 0.60639334
-0.46173483 2.2913299 0.57468039
-0.55900794 2.3273063 0.56377089
-0.30348498 2.4346826 0.55720192
-0.37894142 2.3256843 0.51040888
-0.47673273 2.3704557 0.49962687
-0.56595117 2.3636596 0.47785264
-0.29579407 2.3686044 0.44973448
-0.39138454 2.4060199 0.43412295
-0.46080846 2.2972906 0.3943207
-0.55772465 2.3332577 0.38064927
-0.31850094 2.5522432 0.38705614
-0.37691951 2.3245201 0.33078924
-0.47302428 2.3646107 0.31541961
-0.55620807 2.3361075 0.29119781
-0.32070607 2.5735691 0.29324254
-0.37840313 2.3339279 0.24437913
-0.47284499 2.3686574 0.22662057
-0.5601427 2.3577464 0.20468883
-0.331507 2.6636529 0.20474745
-0.38059539 2.3521266 0.15871952
-0.47083277 2.361583 0.13779373
-0.55818301 2.352967 0.11497328
-0.30921543 2.4909253 0.099102557
-0.38011664 2.3564706 0.071426228
-0.47030622 2.3651845 0.049587179
-0.56124955 2.3703141 0.026572112
-0.29741704 2.3986216 0.0068760822
-0.38211492 2.3743935 -0.016412165
-0.46414077 2.3390868 -0.038377613
-0.55609035 2.3523703 -0.061988041
-0.29770705 2.4112983 -0.082296453
-0.37709561 2.3486919 -0.1029859
-0.46154517 2.3334715 -0.12574369
-0.5601247 2.3720253 -0.15205833
-0.29080075 2.3682754 -0.16844003
-0.37958416 2.3721261 -0.19244087
-0.45515147 2.3030469 -0.21038432
-0.51847869 2.1985784 -0.22435199
-0.29197252 2.3833199 -0.25838795
-0.36341098 2.2774241 -0.27010444
-0.43181971 2.1880007 -0.28229406
-0.44663921 1.8960209 -0.2660349
-0.14559388 1.1965888 -0.17464779
-0.19289654 1.2131981 -0.18971117
-0.22882356 1.1617814 -0.19468929
-0.24943225 1.0596066 -0.18984866
-0.11936186 0.98731947 -0.18186268
-0 0 -0
-0.17465593 0.8896277 -0.18352933
-0.21195261 0.9016602 -0.19721571
-0.10589805 0.88306493 -0.19723859
-0.14037651 0.88817722 -0.20824195
-0.17442936 0.88896608 -0.21894692
-0.20264627 0.86072159 -0.22324196
-0 0 -0
-0.13194142 0.83888996 -0.23077096
-0.15155813 0.7734763 -0.22254361
