# .PCD v0.7 - Point Cloud Data file format
VERSION 0.7
FIELDS x y z
SIZE 4 4 4
TYPE F F F
COUNT 1 1 1
WIDTH 1609
HEIGHT 1
VIEWPOINT 0 0 0 1 0 0 0
POINTS 1609
DATA ascii
1.330899 0.45035824 0.18377861
1.2994529 0.49297038 0.16853119
0.96977448 0.25055021 0.11325229
1.3975136 0.41640779 0.15071931
1.357299 0.45868447 0.13442168
1.2971143 0.49135822 0.11715742
1.1681859 0.30161589 0.09202987
1.4038956 0.41782919 0.097571306
1.3356067 0.4509902 0.08066532
1.3237829 0.50095862 0.067293324
1.9806204 0.51071602 0.080757543
1.3998746 0.41588786 0.043699216
1.3396319 0.45159417 0.029069763
1.3347629 0.5044747 0.015565847
2.1236069 0.54726982 0.0062388284
1.4140424 0.41953301 -0.010065672
1.3891987 0.46768233 -0.02358976
1.3663867 0.51585466 -0.037454311
2.4188728 0.62201172 -0.084598444
1.4138634 0.41891614 -0.063841745
1.4028722 0.47133172 -0.078233473
1.3531035 0.51046211 -0.090226263
1.5286102 0.39200056 -0.11140139
1.4185346 0.41949236 -0.11849886
1.359641 0.4565694 -0.12853348
1.3445917 0.50679535 -0.14271553
1.499648 0.38412708 -0.16658799
1.4469398 0.42720592 -0.17669624
1.373214 0.46072724 -0.18334045
1.3175765 0.49624529 -0.19228669
1.4431692 0.36839914 -0.21580043
1.3736399 0.40473038 -0.22115165
1.3267121 0.44455871 -0.23005785
1.2852184 0.48382756 -0.2395014
1.3956462 0.35512647 -0.26335013
1.3659607 0.4017683 -0.27428779
1.3059809 0.43672481 -0.27876619
1.3494022 0.50750601 -0.30696511
1.5151266 0.38398042 -0.34662896
1.4787773 0.43422189 -0.35692173
1.4316636 0.47858688 -0.36483324
1.3647255 0.51381284 -0.36815339
1.5439821 0.38974506 -0.41657397
1.6179227 0.47376132 -0.4581328
1.7891018 0.59755331 -0.532583
2.5089114 0.94469362 -0.78699064
0.73206109 0.18387508 0.23318784
0.72781104 0.2127243 0.22521204
0.72217518 0.2411819 0.2180789
0.79040009 0.29717943 0.23308408
0 0 0
0.75788814 0.22129987 0.20213112
0.75362599 0.25105688 0.19530061
1.6233791 0.60816991 0.40832695
0.84634519 0.21316147 0.19820975
0.83680314 0.24446949 0.18883647
1.9746161 0.65696543 0.43001503
2.0532644 0.76754373 0.4309741
1.8867329 0.47564998 0.36660117
2.0016775 0.58421528 0.37135395
1.9802821 0.65773743 0.35117114
1.5386953 0.57451612 0.26060921
1.0212132 0.25735554 0.15848319
1.9908849 0.57997197 0.29128373
1.3665781 0.45310548 0.18831795
1.3033835 0.48533419 0.16865155
1.0059826 0.25333059 0.11729702
1.8431662 0.53690463 0.1984231
1.3808814 0.45723271 0.13647677
1.3085105 0.48651537 0.1179149
0.9988637 0.25137103 0.078567646
1.3930202 0.40530467 0.096640788
1.3582534 0.44937193 0.08186502
1.3240227 0.4917832 0.067150854
2.1348939 0.53654784 0.086911991
1.3918413 0.40422404 0.043370198
1.3518711 0.4465014 0.029275347
1.3368958 0.49592751 0.015554939
2.1734788 0.54592246 0.0063753831
1.4309961 0.41502684 -0.010168036
1.3958403 0.46040237 -0.023654126
1.3714008 0.50815558 -0.037505582
2.2685022 0.5685274 -0.079215832
1.4192861 0.41106677 -0.063971505
1.3990979 0.46052939 -0.077863947
1.3683776 0.5066551 -0.091035739
1.5193738 0.37971154 -0.11055637
1.4239547 0.41161093 -0.11873841
1.370932 0.45101959 -0.12933682
1.3495427 0.49922606 -0.14291319
1.4846128 0.37058389 -0.16466212
1.4504881 0.41859505 -0.17681256
1.3882674 0.45631996 -0.18497294
1.3336073 0.49296081 -0.19418113
1.4492441 0.36049265 -0.21637399
1.3865439 0.39930269 -0.22283049
1.3453529 0.44164175 -0.23281595
1.2872387 0.47559106 -0.23932958
1.4226233 0.35271096 -0.2680271
1.3646253 0.39229417 -0.27353117
1.3226072 0.43328014 -0.28174233
1.3378098 0.49379775 -0.30363306
1.539254 0.38005915 -0.35160863
1.4776682 0.42406517 -0.35601929
1.4428868 0.47251591 -0.3669475
1.3742188 0.5077818 -0.36986688
1.8122107 0.4456436 -0.48819637
1.6829592 0.4816134 -0.47570285
1.7899908 0.58566654 -0.53176785
2.3760574 0.87806118 -0.74361324
0 0 0
0.73278958 0.20930764 0.2263509
0.72364146 0.23674616 0.2180789
0.75422603 0.27830851 0.22190882
0 0 0
0.75084764 0.21425299 0.199899
0.76346081 0.24913931 0.19744939
1.9852023 0.72986156 0.49820015
0.89214998 0.21888541 0.20861852
0.85426378 0.2438916 0.19243538
1.95347 0.63664383 0.42455131
2.056093 0.75425476 0.43058825
0 0 0
1.9853427 0.56625164 0.36767197
1.9805294 0.64435387 0.35050726
1.9149883 0.70165801 0.32360673
1.0112488 0.24825555 0.15669748
1.9934537 0.56747407 0.29114464
1.3731049 0.44593689 0.18883674
1.319391 0.48209754 0.17033687
0.97953159 0.24028789 0.11403877
1.9133947 0.54464769 0.2056198
1.3618785 0.44168666 0.13432828
1.3114711 0.47847733 0.1179149
1.2008522 0.29437983 0.094311602
1.4108367 0.40111551 0.097704232
1.3628845 0.44164494 0.081979275
1.3232614 0.48228174 0.066960894
2.1303816 0.52153748 0.086596385
1.3942953 0.39567626 0.043370198
1.3526828 0.43758261 0.029234231
1.3427323 0.48874116 0.015587663
2.1738734 0.53186303 0.006366848
1.4142737 0.40078571 -0.010031551
1.3967361 0.45121425 -0.023621943
1.3848276 0.50348866 -0.037787583
2.2020419 0.53753287 -0.076778419
1.4544663 0.4115999 -0.065442115
1.4085505 0.45408082 -0.078233473
1.3874079 0.50404298 -0.092094295
2.1632986 0.52655542 -0.15717314
1.4772954 0.417225 -0.12297051
1.3727256 0.44229376 -0.12924756
1.3469681 0.48889893 -0.14232019
1.5206729 0.369688 -0.16840689
1.457809 0.41103479 -0.17739418
1.3749871 0.44262511 -0.18283816
1.3347441 0.48409304 -0.19391049
1.4504669 0.35136044 -0.21623059
1.3927734 0.39185816 -0.223441
1.3489769 0.43368053 -0.23297819
1.2901326 0.46768376 -0.23932958
1.3960741 0.33704957 -0.26263055
1.3717335 0.38524112 -0.27447698
1.332707 0.4275519 -0.28332961
1.3141452 0.47592148 -0.29759371
1.541557 0.37060732 -0.35160863
1.474614 0.41341248 -0.35466558
1.4457589 0.46365362 -0.3669475
1.4119464 0.51189804 -0.3791686
1.8525451 0.44352585 -0.49831966
1.7481506 0.48868448 -0.4932729
1.7917176 0.574085 -0.53122437
2.3732817 0.86052179 -0.74107814
0 0 0
0 0 0
0.72874248 0.23347478 0.21918032
0.74776214 0.27072209 0.21951412
0.77057552 0.18403806 0.21152651
0.74654895 0.20808122 0.1984109
0.75850016 0.24238101 0.19577813
1.9841496 0.71568519 0.4968245
0.90011567 0.214993 0.21016878
0.85574418 0.23864534 0.19243538
0.9768039 0.31172732 0.21187094
2.0551426 0.739631 0.42943072
1.7337698 0.41452745 0.33586591
1.9992121 0.55696547 0.36960062
1.9797479 0.63069284 0.34967747
1.9731641 0.70927185 0.33269593
1.0300652 0.24618351 0.15937607
1.9921277 0.55390537 0.29044908
1.3049457 0.41496706 0.17910957
1.3148482 0.471313 0.16937384
1.0080492 0.24073577 0.11718467
1.8956169 0.52703524 0.20335798
1.3569715 0.4309113 0.13358097
1.3190732 0.47210017 0.11833572
0 0 0
1.5507529 0.43062845 0.1072088
1.3693752 0.43448183 0.082207784
1.3290174 0.47516212 0.067103364
2.1685336 0.51679504 0.088016644
1.4641237 0.4058018 0.045463935
1.3553424 0.42927447 0.029234231
1.3372306 0.47746691 0.015489491
2.1936333 0.52245307 0.0064152111
1.4359813 0.39743507 -0.010168036
1.409965 0.4459523 -0.023798948
1.3888324 0.49531785 -0.037813216
2.1994643 0.52262503 -0.076575302
1.4579273 0.40293384 -0.065485366
1.4084532 0.44452786 -0.078075103
1.394235 0.49686065 -0.092343368
2.3305283 0.55213505 -0.16907378
1.4711792 0.40576729 -0.12225185
1.3678147 0.43146551 -0.12853348
1.352755 0.48162618 -0.14261669
1.5238801 0.36057931 -0.16851386
1.4650915 0.40340039 -0.1779758
1.400386 0.44133681 -0.18585196
1.3442237 0.47821873 -0.19485772
1.4448895 0.34063724 -0.21508349
1.3989633 0.38435215 -0.22405149
1.361966 0.42865378 -0.23476283
1.2790551 0.45480812 -0.23675245
1.5168601 0.35637513 -0.28493619
1.3759655 0.37733644 -0.27485529
1.3156685 0.41319934 -0.279163
1.3207273 0.46915868 -0.29842675
1.5533081 0.36336532 -0.35377371
1.4912177 0.40821502 -0.35804981
1.4569232 0.45739424 -0.36906183
1.4178014 0.50419945 -0.37990296
1.8580585 0.43280894 -0.49907893
1.7995256 0.49116167 -0.50690937
1.7786777 0.55789608 -0.52633327
2.3486841 0.83533293 -0.73178297
0.72787535 0.16864385 0.23082645
0.73900259 0.20130722 0.22748978
0.72740948 0.22813582 0.21835425
0.73487514 0.26096752 0.21525687
0.77545458 0.1801811 0.21255836
0.7468769 0.2032422 0.1981629
0.75441223 0.23598294 0.19434559
0.92405313 0.3269136 0.23087324
0.89286911 0.20747943 0.20817561
0.84493327 0.23005228 0.18968327
0.85624415 0.26747543 0.18536179
2.0059769 0.70806432 0.41824165
2.0406561 0.47468317 0.39474431
1.994992 0.54262096 0.36819798
1.9826391 0.61823988 0.34951153
1.9877249 0.70076352 0.33441973
1.024814 0.23829079 0.15833437
1.9849763 0.53881788 0.28891897
1.3813142 0.42993724 0.18922582
1.3280174 0.466858 0.17069802
1.0201541 0.23701958 0.11842055
1.4841094 0.40283072 0.15894412
1.3548362 0.42109945 0.13311389
1.3144234 0.46135753 0.11766241
0 0 0
1.9992486 0.54198033 0.13798231
1.3758292 0.42725569 0.082436301
1.3300227 0.46633744 0.067008384
2.1901581 0.5077672 0.088766217
2.0860257 0.56441069 0.064666465
1.3846897 0.42923892 0.02980987
1.3457977 0.4712356 0.015554939
2.2016685 0.51011187 0.0064294352
2.1112518 0.57040566 -0.014924492
1.4040784 0.4346315 -0.023654126
1.4050562 0.49140716 -0.038172122
2.2084723 0.51046997 -0.076778419
1.4603722 0.39398056 -0.065485366
1.4187874 0.4382351 -0.078497417
1.3972574 0.48829645 -0.092343368
2.348453 0.54118478 -0.17013006
1.4697912 0.39569616 -0.12193245
1.3894701 0.42894053 -0.13031867
1.3566242 0.47364479 -0.14271553
1.5318776 0.35256016 -0.16915584
1.4876819 0.39981654 -0.18041861
1.4334043 0.44209236 -0.18987039
1.3415196 0.46800354 -0.1940458
1.461422 0.3350828 -0.21723433
1.4051137 0.37678495 -0.22466199
1.3551402 0.4173843 -0.23314042
1.2985654 0.45278969 -0.23984501
1.5199771 0.34728023 -0.28511605
1.3962775 0.3737103 -0.27844942
1.3519064 0.41548428 -0.28630576
1.3235812 0.46104604 -0.29842675
1.5754997 0.35837492 -0.35832039
1.5012239 0.40106902 -0.3598547
1.4569148 0.44758976 -0.36835706
1.4318546 0.49932164 -0.38284037
1.8587921 0.42097259 -0.49857277
1.8062353 0.48110422 -0.50795829
1.6118648 0.49473134 -0.476064
2.2667902 0.79057229 -0.70474255
0 0 0
0 0 0
0 0 0
0.73646259 0.25645348 0.21525687
0.78031522 0.17627116 0.2135902
0 0 0
0.75027472 0.22964424 0.19291307
0.79637742 0.2762579 0.19854639
0 0 0
0.87466586 0.23239246 0.19603428
0.85505956 0.26135778 0.1847547
2.0139928 0.69702619 0.41901329
1.4137932 0.31973529 0.27309933
1.9963808 0.52986455 0.36784729
1.9967705 0.60922855 0.35133708
1.9798523 0.68435931 0.3323825
1.0060018 0.22741927 0.15520938
1.6800048 0.44498429 0.24412748
1.3810806 0.42058697 0.18883674
1.3242871 0.45643622 0.16985536
1.0012349 0.22615798 0.11606112
0.99327892 0.26307207 0.10620262
1.3897815 0.42262715 0.13628995
1.3417274 0.46171385 0.1198507
2.1563315 0.48671409 0.16862001
1.4363086 0.37992662 0.098967083
1.3832011 0.42025688 0.082721949
1.3470284 0.4630385 0.067720734
2.1903086 0.49366006 0.088647872
2.0875168 0.55109018 0.064606644
1.3739028 0.41667232 0.029522052
1.363796 0.46816367 0.015729468
2.2028062 0.49615365 0.0064237458
2.1533897 0.56763601 -0.015197459
1.4249009 0.43151429 -0.02395986
1.4127733 0.4843978 -0.038300302
2.1969361 0.49362296 -0.076270625
1.5806334 0.41603726 -0.070762262
1.4214495 0.42952132 -0.078497417
1.4049482 0.48133123 -0.092654705
2.3400486 0.5241484 -0.16928504
1.4837607 0.38970888 -0.12289066
1.410192 0.42587787 -0.1320146
1.3529145 0.46305612 -0.14202368
1.5252794 0.34120065 -0.16819289
1.4766567 0.38715431 -0.17879006
1.4218431 0.42899033 -0.18798676
1.357491 0.46425197 -0.19594026
1.4344711 0.31965175 -0.21293265
1.4073992 0.36815622 -0.22466199
1.3633446 0.41076943 -0.23411387
1.3069123 0.44672513 -0.24087587
1.9033195 0.42259404 -0.35653001
1.3842927 0.36141503 -0.27561194
1.3525531 0.40661699 -0.28590894
1.3208317 0.45101961 -0.2971772
1.6015007 0.35396847 -0.36373308
1.509313 0.39332417 -0.36120841
1.4596337 0.43864188 -0.36835706
1.4339739 0.49021292 -0.38259557
2.7268159 0.599994 -0.73039645
1.8175594 0.47219619 -0.51031852
1.6093397 0.48317143 -0.47443363
1.7976679 0.61461401 -0.55770993
0.7326901 0.16031164 0.23171197
0.74234521 0.19246395 0.2277745
0.72647125 0.21808659 0.21725284
0.75444305 0.25753519 0.22004627
0.77477616 0.17003021 0.21178448
0.7549417 0.19551885 0.19965099
0.74887884 0.22420079 0.19219682
0.79344982 0.26979944 0.19740006
0 0 0
0.86566836 0.22432443 0.19370557
0.82756054 0.24741048 0.17848153
2.0145149 0.68339461 0.41824165
10.701947 2.3513603 2.064446
2.0319998 0.52599335 0.37380862
1.9844068 0.59217137 0.34851575
1.9858851 0.67283219 0.33269593
0 0 0
1.0105809 0.26104823 0.14661558
1.9680691 0.58617395 0.26859951
1.3505757 0.45624498 0.17286485
2.0770302 0.45578119 0.24043642
1.0102839 0.26095271 0.10784759
1.363719 0.40557706 0.13348755
1.3398141 0.45188022 0.11942987
2.2001839 0.48244369 0.17181444
0 0 0
1.3752266 0.40863377 0.082093529
1.3574169 0.45731583 0.068100654
2.1864634 0.47871527 0.088371702
2.1276426 0.54774064 0.065743245
1.3793091 0.40908718 0.029583724
1.3514792 0.45468512 0.015554939
2.197017 0.48070446 0.0063981418
2.1984775 0.5651173 -0.0154909
1.4131411 0.4185043 -0.023718491
1.4157188 0.47572005 -0.038300302
2.1833241 0.4765107 -0.075695127
2.4202166 0.62116963 -0.1081763
1.4192699 0.41937649 -0.078233473
1.4078752 0.47270155 -0.092654705
2.0625021 0.44870844 -0.14900464
1.5160589 0.38826373 -0.12536605
1.4204204 0.41947386 -0.13272868
1.3604474 0.45632833 -0.14251785
1.5244296 0.33120203 -0.16787192
1.5126836 0.38669607 -0.1828614
1.4415761 0.42531121 -0.19024712
1.3781635 0.46189615 -0.1985113
1.4663911 0.31733298 -0.21737771
1.4115468 0.36000213 -0.22496723
1.3667859 0.40267527 -0.23427613
1.3245746 0.44370422 -0.24362482
1.5702809 0.33855298 -0.29375049
1.4102744 0.35896987 -0.28034106
1.3192899 0.38780653 -0.27836937
1.3226467 0.44259632 -0.29696897
1.5740515 0.33778507 -0.35702133
1.5107538 0.38381588 -0.36098278
1.4772191 0.43406194 -0.37211579
1.4489064 0.48540899 -0.38577777
2.834517 0.60548192 -0.75823551
1.819487 0.46079803 -0.51005626
1.6076571 0.47193226 -0.473075
1.7959464 0.60174316 -0.5560199
0 0 0
0.73700649 0.18626122 0.22578149
0.72410601 0.21254191 0.21615143
0.75143826 0.25137213 0.21871588
0.77863973 0.16587698 0.21255836
0.76364142 0.1927799 0.20163509
0.75117236 0.21987432 0.19243558
0.79970753 0.26646432 0.19854639
0 0 0
0.87271398 0.22044469 0.19497579
0.83282298 0.24342699 0.17929098
2.00191 0.66544968 0.41476914
10.696952 2.2815502 2.0607429
2.0246882 0.51086581 0.37187994
1.988003 0.57998413 0.34851575
1.9899762 0.66063434 0.33269593
0 0 0
1.0188859 0.25653502 0.14758933
1.9963812 0.58129436 0.27197158
1.3335583 0.44139862 0.17033687
2.1011686 0.44758272 0.24290819
1.0504502 0.2644628 0.11195999
1.3671379 0.39747977 0.13358097
1.3425616 0.44365075 0.11942987
2.1718946 0.46229181 0.16938059
1.163141 0.29244545 0.079891488
1.3911304 0.40408671 0.082893334
1.3545063 0.44709972 0.067815714
2.2255232 0.472976 0.089831419
2.1338718 0.53540516 0.06583298
1.4029187 0.40674099 0.030036014
1.3694384 0.45139253 0.015729468
2.1725364 0.46139798 0.0063184854
2.1786234 0.54578495 -0.015327118
1.4108802 0.40843534 -0.023638034
1.4157625 0.4660866 -0.038223393
1.7599161 0.37280375 -0.060935255
2.4142904 0.6038835 -0.10774376
1.4103037 0.40733492 -0.077600002
1.4135934 0.46498969 -0.092841513
1.6152804 0.3410463 -0.11654191
1.5222814 0.37991956 -0.12568545
1.4181828 0.40936929 -0.13228238
1.3717302 0.45076814 -0.14340736
1.5507549 0.32697022 -0.17054674
1.507318 0.37548652 -0.18193083
1.4575039 0.4203063 -0.19200517
1.3932092 0.45744929 -0.20027041
1.4363487 0.30161774 -0.21264587
1.4242793 0.35395613 -0.22664608
1.3768166 0.3964656 -0.23557404
1.3385043 0.43925446 -0.24568652
1.5742543 0.32931438 -0.29411027
1.4848838 0.36827442 -0.29471752
1.4120779 0.4056854 -0.29741672
1.3225492 0.43355834 -0.29634419
2.6102574 0.54341853 -0.59128278
1.5282112 0.37828425 -0.36459261
1.4845259 0.42633122 -0.37329042
1.4518576 0.47650954 -0.38577777
2.7841816 0.57688987 -0.74380982
1.5440195 0.3809678 -0.43217108
1.6262485 0.46657076 -0.47769436
1.7886649 0.58712119 -0.55263984
0 0 0
0 0 0
0 0 0
0 0 0
0.79099691 0.16344227 0.21565387
0 0 0
0.74690551 0.21365863 0.19100304
0.79207432 0.25853217 0.19625372
8.6837378 1.7944633 2.0137668
0.88543844 0.21788809 0.19751619
0.83053434 0.2372364 0.17848153
1.9984915 0.65072334 0.41322583
10.568324 2.1864069 2.0333405
2.0210924 0.49678794 0.37065262
1.9934208 0.56831574 0.34884766
1.9939923 0.64841163 0.33269593
2.2146788 0.45797786 0.34032965
1.0050523 0.2465042 0.14536366
1.9960957 0.5679484 0.27145281
1.3966794 0.45280159 0.17804116
2.184644 0.45136935 0.25223354
0.98152977 0.24071677 0.10445486
1.940357 0.55124724 0.18925527
1.356635 0.43908671 0.12043986
2.201056 0.45439976 0.17143416
0 0 0
1.4099109 0.40017748 0.08386451
1.3781337 0.4455401 0.068860494
2.2332766 0.46032012 0.090028673
2.1497393 0.52538675 0.066221803
1.4178932 0.40166771 0.030303275
1.3712307 0.44267413 0.015718561
2.1890385 0.45088318 0.0063583134
2.1906745 0.53454036 -0.015388536
1.4335644 0.40548557 -0.023975952
1.41479 0.45616382 -0.038120851
1.7004945 0.34932816 -0.058802523
2.3868885 0.58149111 -0.10635966
1.4502584 0.40925086 -0.079658777
1.4135699 0.45538917 -0.092654705
1.4971412 0.30651915 -0.10788049
1.5081176 0.36656949 -0.12432797
1.4532608 0.40985167 -0.13531719
1.3763647 0.4429526 -0.14360502
1.544939 0.31585559 -0.1696908
1.5231065 0.36950898 -0.18355936
1.4657849 0.41296953 -0.19275863
1.3969332 0.44919544 -0.20040575
1.49054 0.30346039 -0.22038887
1.4321878 0.34660506 -0.22756183
1.3811232 0.38854462 -0.23589854
1.3402364 0.43073186 -0.24551471
1.5704609 0.31847569 -0.29303095
1.5100235 0.36468899 -0.29925746
1.4069912 0.3948946 -0.29582945
1.3242533 0.42513618 -0.29613593
2.9331772 0.59189183 -0.66359633
1.5816466 0.38122731 -0.3767758
1.4927292 0.41878968 -0.37469992
1.4529079 0.46699876 -0.38528821
2.8588071 0.57408094 -0.76279104
1.8362645 0.44114044 -0.51320314
1.7180407 0.48151639 -0.50378001
1.8004551 0.57877791 -0.55517489
0 0 0
0.73923671 0.17720298 0.22578149
0 0 0
0.74437016 0.23889169 0.21578903
0.80145836 0.16048269 0.21823345
0.75841266 0.18158972 0.19965099
0.75287873 0.21037839 0.19219682
0.79179138 0.25307453 0.19579518
8.7051029 1.7432534 2.0162027
0.88295692 0.21154021 0.19666938
0.84612358 0.23608376 0.18151693
1.9790753 0.630997 0.40840292
10.738598 2.1530082 2.0635202
1.6966461 0.40601549 0.31068894
1.9968704 0.55607367 0.34884766
1.99511 0.63526559 0.3322258
2.2184167 0.44457451 0.34047845
1.0248468 0.24470234 0.14800662
1.9727931 0.54825592 0.26782134
1.4003776 0.44452354 0.17816153
2.1639886 0.43327421 0.24953705
0.97621578 0.23307273 0.10373519
1.9456216 0.53986347 0.1894421
1.3602535 0.43105528 0.12052401
2.1950033 0.43912536 0.17074963
2.131403 0.50816739 0.14595817
1.3815532 0.38298443 0.082036406
1.3713185 0.43406135 0.068385594
2.1821663 0.4358443 0.087858833
2.1587572 0.51357436 0.066401273
2.0746083 0.57397771 0.044262517
1.3767816 0.43515617 0.015751285
2.1848993 0.43607295 0.0063383994
2.2085071 0.52455479 -0.0154909
1.3994019 0.386565 -0.023364482
1.4156556 0.44687238 -0.038069576
1.6977049 0.33791205 -0.058633257
2.3106987 0.54793233 -0.10281289
1.4585185 0.40193638 -0.079975516
1.4144338 0.4461067 -0.092530169
1.561615 0.30974805 -0.11238724
1.5481696 0.36625889 -0.12744217
1.4672714 0.40410051 -0.13638832
1.3695656 0.43150869 -0.14261669
2.370013 0.46940684 -0.25999284
1.5311449 0.36152586 -0.1842573
1.4692478 0.40423101 -0.19288419
1.4081688 0.44329318 -0.20162362
2.506062 0.49421683 -0.370087
1.4265918 0.33599827 -0.22634083
1.3863357 0.38084704 -0.23638524
1.3494322 0.42456988 -0.24671738
2.5357008 0.49803913 -0.47255513
1.5409099 0.36215669 -0.30493239
1.3923731 0.38159099 -0.29225805
1.3240378 0.41612294 -0.29551119
3.2242014 0.6300543 -0.72854871
1.5868014 0.37218276 -0.37745264
1.4971457 0.41013625 -0.37516978
1.4686942 0.46214944 -0.38871515
2.9097588 0.56576121 -0.7754451
1.8436351 0.43096331 -0.51451433
1.7543797 0.48011059 -0.5135622
1.7874978 0.56253493 -0.5501048
0.76736075 0.14826353 0.24145272
0.73937654 0.17244604 0.22549677
0 0 0
0.73662561 0.23143056 0.21312825
0.78914905 0.1529877 0.21462202
0.77460849 0.18044944 0.2036192
0.75696594 0.20652163 0.19291307
0.78125286 0.24443303 0.19281468
8.7108488 1.6888789 2.0150955
0 0 0
0.83905238 0.22857101 0.1796957
1.8986105 0.59253293 0.3910405
10.755465 2.0878258 2.0642607
0 0 0
2.025938 0.55079591 0.35332862
1.9951988 0.62183636 0.33159897
2.2162488 0.4300124 0.33973438
1.0301874 0.23930569 0.14856304
1.9474112 0.52835178 0.26393047
1.4040269 0.43621716 0.17828192
2.1383166 0.4145042 0.24627879
0 0 0
1.4607122 0.39567611 0.14198816
1.3514521 0.41915864 0.11951404
2.1105332 0.40877452 0.1639805
2.1947441 0.50905746 0.15007903
2.0459409 0.55366564 0.12128363
1.3844515 0.42889035 0.068907984
2.1995153 0.42529199 0.088450611
2.1998465 0.50910819 0.067567781
2.1080124 0.56931829 0.044899829
1.3832468 0.42788216 0.015794918
2.1521876 0.41582912 0.0062359837
2.2058382 0.50964314 -0.015449955
1.7724576 0.47793049 -0.029543521
1.4355633 0.4434889 -0.038531024
2.2493179 0.43337426 -0.07759089
2.2010911 0.50769663 -0.097795524
1.4648145 0.39401707 -0.080186665
1.4133298 0.43624207 -0.092281103
2.3511071 0.45136893 -0.16900337
2.2915821 0.52730542 -0.18836847
1.4822274 0.39845124 -0.13754869
1.3940588 0.4298408 -0.14488986
2.4431553 0.4683331 -0.26769632
1.51107 0.34701121 -0.18158185
1.4831982 0.39829585 -0.19439112
1.4203312 0.43756154 -0.20297679
2.5508485 0.48680803 -0.37625271
1.44982 0.33209306 -0.22969857
1.3991303 0.37514451 -0.23816989
1.3520119 0.41628191 -0.24671738
4.2936749 0.81599492 -0.79922444
1.5440601 0.35291383 -0.30512154
1.4344554 0.38367698 -0.30059129
1.3433936 0.41316634 -0.29925972
3.5560834 0.67228252 -0.80259436
1.6090015 0.36698875 -0.38219056
1.5146585 0.40495914 -0.37892851
1.4807686 0.45598245 -0.39116296
2.91888 0.54896951 -0.77696365
1.8481266 0.42007065 -0.51503879
1.8102903 0.48349151 -0.52905059
1.6341075 0.50326353 -0.50193894
0 0 0
0.7394858 0.16769406 0.22521204
0 0 0
0 0 0
0 0 0
0.78137004 0.17697713 0.20510727
0 0 0
0.77436143 0.23707029 0.19075127
8.7124214 1.6337808 2.0131023
0 0 0
0.85084987 0.22618595 0.18192166
1.1805528 0.36050177 0.24268816
10.768073 2.0217922 2.0642607
0 0 0
2.0121224 0.53380293 0.35034129
2.0018108 0.61044663 0.3320691
2.216902 0.4160409 0.3394368
1.0094194 0.2279627 0.14536366
1.0917701 0.28902769 0.14772324
1.3629855 0.4143129 0.17274447
1.9699057 0.36933178 0.22661695
1.9599452 0.44258919 0.20767599
0.98952603 0.26153529 0.096028827
1.3673477 0.41490909 0.12069234
1.2162501 0.22783335 0.094387658
2.186146 0.49294743 0.14928143
2.054126 0.54237592 0.12156926
1.3870571 0.42038745 0.068907984
1.7100033 0.31976935 0.06868533
2.2048793 0.49603939 0.067627601
2.1182339 0.55815637 0.045043744
1.3877603 0.41996592 0.015816733
2.1645286 0.40445247 0.0062644323
2.1972156 0.49346924 -0.015368064
2.2133942 0.58228105 -0.03683285
1.4248606 0.43062329 -0.038172122
2.2077215 0.41132706 -0.076067515
2.2519331 0.50489122 -0.099914931
1.4768636 0.3875564 -0.080714561
1.4035591 0.42381129 -0.09147162
2.2851789 0.4241904 -0.16407411
2.3473041 0.52498305 -0.19268042
1.4846444 0.38934898 -0.13754869
1.3900012 0.41926739 -0.14419803
2.4401171 0.45224622 -0.26705435
1.524803 0.3403292 -0.18297774
1.4913722 0.39069608 -0.19514456
1.4362705 0.43284079 -0.20487124
5.3148761 0.98053914 -0.78304732
1.4479717 0.32233188 -0.22908807
1.4042698 0.36730164 -0.23865663
1.3668033 0.4116717 -0.2489509
4.2666736 0.78376913 -0.79328823
2.038909 0.45287168 -0.40235183
1.4102281 0.36793986 -0.29503581
1.3927338 0.41900459 -0.30967242
3.6091211 0.65939885 -0.81363624
1.5864935 0.35162818 -0.37632456
1.5265204 0.39811069 -0.38127771
1.4816818 0.44632873 -0.39067343
3.0364161 0.55180687 -0.80733353
1.8902457 0.41746333 -0.52605283
1.8216045 0.4745582 -0.53149611
1.6151154 0.48658457 -0.49517882
0.74279547 0.13408335 0.23318784
0.74611783 0.16439109 0.22692035
0 0 0
0.73110223 0.21987502 0.21073356
0.83374768 0.15104228 0.22623019
0.77392614 0.17030562 0.20287515
0.75662357 0.19648471 0.19219682
0 0 0
8.7203627 1.5799439 2.0126595
0 0 0
0.88729644 0.23005503 0.18940897
0.84521914 0.25244269 0.17343137
0.82285535 0.14927669 0.15756443
0 0 0
2.0153599 0.52144676 0.35034129
2.0064652 0.59843451 0.3322258
0.913647 0.16566513 0.13973308
1.0146682 0.22261359 0.14592007
0.99847579 0.25778422 0.13488339
1.8393835 0.54681939 0.23269342
0.81056011 0.146827 0.093141027
2.1734605 0.47680756 0.22998574
0 0 0
1.3813312 0.40991318 0.12170233
0.85361308 0.15448725 0.066170238
2.2086229 0.48379424 0.15061074
0 0 0
1.3876951 0.41130102 0.068813004
0 0 0
2.1756568 0.47545892 0.066640556
2.1467953 0.55161768 0.04557826
1.3979818 0.41371292 0.015903998
1.033296 0.18652213 0.0029871273
2.1953173 0.47891244 -0.015333944
2.2082088 0.56645304 -0.036688033
1.4246 0.42102242 -0.038095213
2.2033181 0.39653379 -0.075830534
2.0246089 0.44089478 -0.089707173
2.3973134 0.61340189 -0.13081144
1.4463357 0.42706189 -0.094086871
2.2759564 0.40804839 -0.16322909
1.9998085 0.43439746 -0.16393408
1.4966551 0.38269946 -0.13844128
1.4221356 0.41945758 -0.14726187
6.9458652 1.2432984 -0.75932884
1.5385106 0.33349162 -0.18437362
1.5052762 0.38448411 -0.19665147
1.4474529 0.42654046 -0.20608909
5.3656111 0.95589381 -0.78964323
1.5078806 0.32597053 -0.23824549
1.4064971 0.35867828 -0.23865663
1.3598534 0.40049422 -0.24723278
4.2481565 0.75345165 -0.78897101
1.5713117 0.33890799 -0.30966148
1.4666018 0.37305191 -0.30634516
1.4140449 0.41597158 -0.31383747
3.6332896 0.64080226 -0.81818295
1.5790972 0.33983734 -0.37406844
1.545891 0.39304793 -0.3855063
1.4797423 0.43585914 -0.38944951
3.0664258 0.53784525 -0.81441987
2.632519 0.56447732 -0.73164886
1.8412718 0.46763626 -0.53638715
1.5987421 0.47097129 -0.48926371
0.75584078 0.13165452 0.23702511
0.74711245 0.1598099 0.22692035
0.73889261 0.18763851 0.21835425
0 0 0
0.83656222 0.14625645 0.22674611
0.77969348 0.16656564 0.20411521
0.76628739 0.19398323 0.19434559
0.7828173 0.22919083 0.19212689
0.83763939 0.14645983 0.1931161
9.1569452 1.9575318 2.0282986
0.89248919 0.22556621 0.19021842
0.84204274 0.24587661 0.1724668
0.82181984 0.14388599 0.15719414
0 0 0
0 0 0
2.0100994 0.58611178 0.3322258
0.7948364 0.13909018 0.12142938
2.1840935 0.46515235 0.31367946
1.0365787 0.26084784 0.13981181
1.9971366 0.58040369 0.25219488
0.80655164 0.14099517 0.092579253
2.1666162 0.46139067 0.22895764
0.97817659 0.24573389 0.094627634
1.3627664 0.39532223 0.1198507
0.80837983 0.14118391 0.062595524
2.1861746 0.46483782 0.14888264
2.1584294 0.54167193 0.12733924
1.3988273 0.40528023 0.069240414
0.8357352 0.14569099 0.033494454
2.2147117 0.4697744 0.067747243
2.1646872 0.54207784 0.045886643
1.3966517 0.40401584 0.015860366
0 0 0
2.1943011 0.46460465 -0.015306646
2.2135828 0.55337799 -0.036720213
1.4290773 0.41282818 -0.038146485
2.1879854 0.3799293 -0.075221188
1.6714762 0.35326564 -0.073963001
2.4136281 0.60182148 -0.1314977
1.4412575 0.41596523 -0.093588725
2.2508955 0.38931555 -0.16125739
1.6161894 0.34069684 -0.13231307
1.4922098 0.37182322 -0.13781646
1.4304194 0.41237754 -0.14785486
6.9514036 1.2003176 -0.75911486
1.4686042 0.3089163 -0.17576563
1.4931663 0.3716464 -0.19476785
1.4557554 0.41929638 -0.206901
5.3586955 0.92077428 -0.78777915
1.5311314 0.32117581 -0.2416032
1.386646 0.34456831 -0.23492508
1.3755389 0.39595795 -0.24963813
4.4621348 0.76319259 -0.82782596
1.5493335 0.3242318 -0.30493239
1.5135761 0.3751277 -0.31567046
1.4287906 0.41080076 -0.31654477
3.5967295 0.61162275 -0.8090896
2.9153097 0.60871136 -0.68970275
1.58507 0.39267072 -0.39466825
1.5075456 0.4340139 -0.39605862
3.034374 0.51305228 -0.8050558
2.71246 0.56423265 -0.75289023
1.8394355 0.45517379 -0.53502852
1.6135886 0.46460408 -0.49292544
0.7632302 0.12812151 0.23909134
0.75746512 0.15717028 0.22976753
0 0 0
0 0 0
0.87174189 0.14690033 0.23603263
0.79113549 0.16394068 0.20684338
0.77029169 0.18997532 0.19506186
0.78795213 0.22545429 0.19304396
0.83371425 0.14050712 0.19200878
9.1410313 1.8955541 2.0221591
0.87959278 0.21657375 0.18718302
0.8567453 0.24447474 0.17516762
0.81881124 0.13818654 0.15645352
11.377755 2.3562717 2.0692728
0 0 0
2.0127082 0.5734964 0.3320691
0.80152541 0.13519737 0.12232224
2.1936951 0.45314455 0.31465319
0.99193364 0.24315128 0.13358644
1.9767861 0.56135893 0.2491854
0.783885 0.13208117 0.089882769
2.1694064 0.44808787 0.22895764
0.94485068 0.23120786 0.091264755
1.9931046 0.56494051 0.17497864
0.79939818 0.13456595 0.061834946
2.1792135 0.44939971 0.14821799
0 0 0
1.3897545 0.39342463 0.068670534
0 0 0
2.1842649 0.44932869 0.066730291
2.1718578 0.529733 0.045968875
1.4145002 0.39978996 0.016034896
0 0 0
2.1647856 0.44449466 -0.015081448
2.2033358 0.53647375 -0.036494937
1.3969483 0.39427629 -0.037223585
0 0 -0
1.664804 0.34119773 -0.073573723
2.4075716 0.5846439 -0.13096981
1.4610735 0.41198963 -0.094709545
1.563494 0.26055226 -0.11189432
1.6026236 0.32757971 -0.13103546
1.5264045 0.37041134 -0.14076202
1.4367542 0.40467203 -0.14825021
0 0 -0
1.5035601 0.30664754 -0.17972067
1.504096 0.36458084 -0.19589803
1.4621158 0.4114297 -0.20744228
5.4032998 0.89434093 -0.79351473
1.564064 0.31807739 -0.24648717
1.4261379 0.34510469 -0.2412525
1.3732009 0.38617685 -0.24877907
4.2376704 0.69806576 -0.78537333
2.7869396 0.5654012 -0.54781896
1.5320463 0.36974248 -0.3190434
1.4331676 0.40255511 -0.31696126
3.5329728 0.57849902 -0.79393399
2.9667325 0.60047513 -0.70098346
1.5968987 0.38521689 -0.39701748
1.5092469 0.4244931 -0.39581385
3.0326903 0.49364689 -0.80379039
2.6373558 0.53174829 -0.73112434
1.8450005 0.44455495 -0.53584373
1.7401797 0.48951113 -0.53066945
0.78003651 0.12602663 0.2441093
0 0 0
0.74394339 0.17923254 0.21918032
0 0 0
0.86785841 0.14077516 0.23474284
0.78547794 0.15774804 0.20510727
0.7742756 0.18592554 0.19577813
0 0 0
0.83456069 0.1353889 0.19200878
9.1639881 1.841741 2.0246997
0 0 0
0.86201 0.24026705 0.17593928
0.81091374 0.13174155 0.15478715
11.409373 2.2899017 2.0724287
0 0 0
2.0228496 0.56298953 0.33316606
0.80624419 0.13091071 0.12291748
2.1983762 0.44006452 0.31493139
1.0146253 0.24212372 0.13643973
1.9754102 0.54789239 0.2485835
0.78860408 0.1279052 0.09033218
2.1048157 0.42129761 0.22186376
0 0 0
1.9926921 0.55163705 0.17464198
0.80513018 0.13045581 0.062215235
2.1741025 0.43445566 0.14768627
2.1571441 0.51329505 0.12688221
1.4354663 0.39686775 0.070807584
0.81181347 0.13127699 0.03246871
2.1722765 0.43298694 0.066281632
2.1779854 0.51708961 0.046030551
2.0916538 0.57734287 0.02367056
0.80160195 0.12951085 0.0023100451
2.1586456 0.42944741 -0.015020031
2.1978297 0.52086902 -0.036350116
1.4378906 0.39632267 -0.038249031
0.83180159 0.1339432 -0.028538011
1.9128294 0.37981522 -0.084430277
2.4101415 0.56963056 -0.130917
1.4731964 0.40566659 -0.095332228
0 0 -0
2.3174345 0.4588933 -0.18924683
1.5141084 0.35760444 -0.13942312
1.4641564 0.40270999 -0.15081987
0 0 -0
2.4827139 0.49049592 -0.29639369
1.5178916 0.35807845 -0.19740492
1.4722559 0.40455079 -0.20852482
5.4037986 0.86039197 -0.79279774
2.5492122 0.50215441 -0.40124753
1.4983433 0.35285959 -0.25309607
1.3869441 0.38087425 -0.25084078
4.3866382 0.6949861 -0.81217605
2.8019187 0.55056214 -0.55008894
1.5276071 0.35876644 -0.31765455
1.4705104 0.40332595 -0.32466662
3.6261454 0.57093167 -0.81406927
3.1089842 0.60943371 -0.73369753
1.6001786 0.37563342 -0.39725241
1.5249125 0.41881955 -0.39924079
3.0872762 0.48310608 -0.8174569
2.8603008 0.55845714 -0.79196399
1.8383238 0.43102899 -0.53312647
1.7847862 0.49026129 -0.54334468
0.79023641 0.12270404 0.24706104
0 0 0
0 0 0
0 0 0
0.86679661 0.13514975 0.23422693
0.8035481 0.15625396 0.20957153
0.78674912 0.18382245 0.19864316
0 0 0
0.82381338 0.12846258 0.18935122
9.1540117 1.78137 2.0200424
0 0 0
0.86820191 0.23626156 0.17690386
0.80296838 0.12539871 0.15312079
11.378753 2.2112131 2.0643632
0 0 0
2.0348434 0.55289763 0.33457643
0.78651458 0.12275883 0.11979247
2.180619 0.42261055 0.3120102
0.99870616 0.23185733 0.13410521
1.9566957 0.52979386 0.24581477
0.78446501 0.12229869 0.089770414
0.99704152 0.19321162 0.10496891
0 0 0
1.3246007 0.35795349 0.11589495
0.80197453 0.12489941 0.061911002
1.2098372 0.23405387 0.082084849
2.1806786 0.50477743 0.1280819
2.1032891 0.56763399 0.10357568
0.80865431 0.12567952 0.032310907
1.92953 0.37230676 0.058804009
2.1869621 0.50506586 0.046153903
2.118329 0.57074112 0.023932353
0 0 0
2.1494567 0.41392499 -0.01493814
2.2155993 0.51074266 -0.036591485
2.3844032 0.64149219 -0.063321114
0.80297762 0.12425189 -0.027522422
2.2388897 0.4302963 -0.098703839
2.3941269 0.55035704 -0.12986122
1.487224 0.39972833 -0.096079446
0 0 -0
2.4122319 0.46230167 -0.19675283
1.5541325 0.35700384 -0.14290424
1.4627556 0.39268649 -0.15042454
0.82940632 0.12754115 -0.090302035
2.4447043 0.46741918 -0.29150808
1.4891176 0.34165871 -0.19338651
1.4766244 0.39602289 -0.20879546
0 0 -0
2.7027202 0.51518649 -0.4249042
1.4360365 0.32889956 -0.24222593
1.3835458 0.37082672 -0.24980994
4.2964873 0.65370458 -0.79472733
4.0303679 0.76629156 -0.79032719
1.5937992 0.36400789 -0.33094802
1.4786264 0.39581299 -0.32591614
3.6102741 0.54575288 -0.80973911
3.3931112 0.64353508 -0.79980248
1.5636002 0.35693845 -0.38762063
1.5452474 0.41422486 -0.40389168
3.0700912 0.46113607 -0.81214207
2.8883276 0.54555285 -0.79878223
1.7874511 0.40754682 -0.51763809
1.783127 0.47805846 -0.54193634
0.7815243 0.11644489 0.2441093
0.77153438 0.14533059 0.23318416
0 0 0
0 0 0
0.85614336 0.12811284 0.2311314
0.81591648 0.15346947 0.21254769
0.79070312 0.179637 0.19935943
0.80043364 0.21316686 0.19510737
0.81879956 0.12253935 0.18802243
9.1570854 1.7237221 2.0183487
9.5668316 2.1695914 2.0270402
0.90282744 0.23974404 0.1836559
0.79789162 0.11959542 0.15200987
11.394043 2.1417165 2.064714
0 0 0
1.9876007 0.52698654 0.32627079
0.79996634 0.11983502 0.121727
1.4911361 0.27950469 0.21310729
0.97979832 0.22114067 0.1313816
1.0068291 0.26598871 0.12627801
0.77930427 0.11660078 0.0890963
0.84471303 0.15832123 0.088827752
1.0023671 0.22581162 0.096402489
1.0290433 0.27131942 0.089888029
0.7810306 0.11673364 0.060237736
0.8316927 0.15561043 0.056362715
2.1915269 0.49314091 0.12853892
1.3474975 0.35480577 0.066248544
0.8015039 0.11953619 0.031995293
0.92462015 0.17252962 0.028145764
2.1880691 0.4911994 0.046112783
2.1275938 0.55925781 0.023997802
0.78532749 0.11701155 0.002258837
1.6564852 0.30846384 -0.011498751
2.2186913 0.49713838 -0.036591485
2.2461572 0.58954328 -0.059552614
0 0 -0
2.2473812 0.41764584 -0.098963358
2.3721197 0.5299952 -0.1284887
1.4799945 0.38806397 -0.095456764
0.80522871 0.11900007 -0.057461146
2.3885596 0.44258824 -0.19459684
1.944152 0.43405512 -0.17851871
1.4651376 0.3837038 -0.15042454
0 0 -0
2.4445963 0.45186836 -0.29115909
1.4737566 0.32862869 -0.19112615
1.4761509 0.38620269 -0.20838951
0 0 -0
5.0860672 0.93719041 -0.79867947
1.5555356 0.34623742 -0.26201934
1.3991383 0.36581919 -0.25221524
4.3335128 0.63215733 -0.80084336
4.0832825 0.7504217 -0.79978544
1.5931323 0.35358459 -0.33035278
1.4923832 0.38969821 -0.32841516
3.6309459 0.52611029 -0.81363624
3.4238272 0.62762165 -0.80611968
1.561965 0.3464956 -0.38668093
1.5599544 0.40792441 -0.40707389
3.0096629 0.43319303 -0.79543865
2.8916206 0.52782017 -0.79878223
1.8913938 0.41905433 -0.54698443
1.8203733 0.47609124 -0.55235815
0.79641199 0.11367241 0.24853693
0 0 0
0 0 0
0 0 0
0.84352404 0.12093759 0.22751999
0.87879699 0.15972033 0.22866857
0.77756673 0.17164215 0.19577813
0.81208968 0.21094334 0.19762932
0.81084836 0.11626726 0.18602926
0.83270884 0.15146397 0.18333228
9.6048298 2.1163285 2.0323017
0.91947949 0.23813602 0.18674257
0.79861039 0.11469739 0.15200987
0.80786449 0.14672647 0.1462272
0 0 0
1.0403396 0.26901138 0.17050079
0.78698289 0.11295734 0.11964365
0.83800763 0.15176304 0.11962941
0 0 0
0.95941406 0.24717474 0.12013865
0.77705419 0.11139385 0.088759236
0.80553842 0.14586835 0.084612548
2.1543317 0.47145364 0.20691037
0.96699446 0.24862382 0.084333152
0.78666729 0.11264581 0.060618024
0.8208493 0.14837456 0.05556513
2.193536 0.4794715 0.12848181
2.0143149 0.51718813 0.098874167
0 0 0
0.80269891 0.14468868 0.024406955
2.1871345 0.47691241 0.046030551
2.178448 0.55835783 0.024532299
0 0 0
0.83458638 0.15012068 -0.0057869088
2.2002058 0.47883755 -0.036237478
2.2206786 0.56831461 -0.058783531
0.800484 0.11382597 -0.027387012
2.1387832 0.38390303 -0.094075747
1.9947283 0.43284279 -0.10790095
2.3970907 0.61283785 -0.15436225
0.80298066 0.11363771 -0.057249893
2.3353009 0.41791511 -0.19004534
1.8893489 0.40966541 -0.17325242
1.4799986 0.37790719 -0.15170938
0 0 -0
6.5353203 1.1665893 -0.77750999
1.4893197 0.3225193 -0.19288419
1.4765728 0.37664813 -0.20811887
0.78992379 0.11090408 -0.11557153
5.108263 0.90890843 -0.80127406
1.5421991 0.33335072 -0.25942349
1.4004021 0.35698402 -0.25204346
4.3899188 0.6129005 -0.81055707
4.0849099 0.72483844 -0.79921794
1.5646119 0.33719504 -0.32400367
1.5118074 0.38487723 -0.33216372
3.5538423 0.49269381 -0.7956661
3.3863635 0.59930134 -0.79641831
2.8449581 0.6128152 -0.70335525
1.5708838 0.40050083 -0.4092769
0 0 -0
2.9328194 0.51676577 -0.80927181
2.6785979 0.5762468 -0.77360398
1.8520828 0.47226214 -0.56108999
0.81318784 0.11097991 0.25355488
0.76570648 0.13452473 0.23090641
0.76033586 0.16354938 0.22275987
0 0 0
0.82797784 0.11352836 0.22313468
0.872127 0.15298608 0.22668447
0.77575666 0.16625737 0.19506186
0 0 0
0.80864811 0.11089233 0.18536487
0.83939821 0.14736569 0.18460248
9.606143 2.0548964 2.0298734
0.89618778 0.22624515 0.18172675
0.7983256 0.10966132 0.15182473
0.80681008 0.14142677 0.14587653
0 0 0
0.96248204 0.24258824 0.15749383
0.78668147 0.1079919 0.11949484
0.80282986 0.14031027 0.11448257
2.1830885 0.46464461 0.29194471
0.96380121 0.24200854 0.1204998
0.78559875 0.10770357 0.089658067
0.8064183 0.14092292 0.084612548
2.1786096 0.46277723 0.20896545
0 0 0
0.76857388 0.10524651 0.059172928
0.81879544 0.14282078 0.055365734
2.1729977 0.4610303 0.12711072
2.1589239 0.54021919 0.10580771
0.79103011 0.10806844 0.031521872
0.80258685 0.13958941 0.024377044
2.1890416 0.46327645 0.046009995
2.1789227 0.54425365 0.024499575
0 0 0
0.81184578 0.14089324 -0.0056231283
1.6581966 0.35023603 -0.027274655
2.2163639 0.55274284 -0.058578439
0.8021577 0.10904678 -0.027420865
0.96177161 0.16654928 -0.042258393
1.6103852 0.33911005 -0.086996466
2.4056482 0.59932446 -0.15467359
0 0 -0
0 0 -0
1.5545925 0.32710636 -0.14236867
1.5131906 0.3765077 -0.15487204
0.81092161 0.10945985 -0.088055186
6.4963508 1.1185464 -0.77204269
1.4378723 0.30215386 -0.18597755
1.4875098 0.36973196 -0.20933673
0.78470409 0.10526561 -0.11471119
5.1799788 0.88891393 -0.81165248
1.5915366 0.33380678 -0.26737329
1.4054343 0.34909701 -0.25255886
0 0 -0
4.1057339 0.7025758 -0.80243367
1.5560983 0.32538176 -0.32182115
1.524583 0.37818402 -0.33445451
0 0 -0
3.4034216 0.58080608 -0.79957688
2.8486645 0.59534729 -0.70335525
1.5620199 0.38804936 -0.40633953
0 0 -0
2.9235671 0.49665952 -0.80586267
2.6123698 0.54524988 -0.75349629
1.8493586 0.45950085 -0.55939996
0.80627394 0.10500111 0.25119349
0.77785927 0.13174485 0.23432301
0 0 0
0 0 0
0 0 0
0.87782526 0.14843954 0.22792453
0.79672796 0.1656453 0.2000757
0.81556213 0.201195 0.19785859
0.80061108 0.10478947 0.18337171
0.83354121 0.14107086 0.18312058
9.6137762 1.9949205 2.0288615
0 0 0
0.79800904 0.10463306 0.15163958
0.80183822 0.13548943 0.14482453
2.1843338 0.45211029 0.37540126
0.98409468 0.24162351 0.16078475
0 0 0
0.79976964 0.13472357 0.11392616
2.1926959 0.4526439 0.29285258
1.0028759 0.24528854 0.12519459
0 0 0
0 0 0
2.1677561 0.44658831 0.20765768
0 0 0
0.79293388 0.10362978 0.060998313
0.80686462 0.1356436 0.054501683
2.180675 0.44869435 0.12739636
2.1447296 0.52270478 0.10495289
0.79365999 0.1034711 0.031600777
0.80934304 0.13565359 0.024556506
2.1879253 0.44903204 0.045927759
2.1851358 0.53158289 0.024532299
0 0 0
0.80480474 0.13458969 -0.0055685346
1.5643198 0.32039395 -0.025697714
2.2206852 0.53936899 -0.058604073
0 0 -0
0.79820687 0.13318558 -0.035035107
1.5185072 0.3100445 -0.081928708
2.4150996 0.58596426 -0.15504718
0.79343224 0.10237125 -0.056475293
0.82892174 0.13786447 -0.067314379
1.6034138 0.32711813 -0.14665313
1.5038669 0.36440372 -0.15368605
0.79481393 0.10232388 -0.086236306
0.82991099 0.1376569 -0.098526478
1.3473485 0.27450991 -0.17404786
1.4830096 0.35896614 -0.20838951
0.75981188 0.097184196 -0.11098308
5.0966058 0.84244674 -0.79776371
1.4900899 0.30299634 -0.2500135
1.4180825 0.3430146 -0.25444877
0 0 -0
4.1622868 0.68599308 -0.81264853
2.8077841 0.56915164 -0.57995266
1.5420865 0.37249669 -0.33778659
0 0 -0
3.4242251 0.562756 -0.80363798
2.9199028 0.59156036 -0.72003466
1.55589 0.37640581 -0.40413645
0 0 -0
2.8979893 0.47403809 -0.79799551
2.6666024 0.53951597 -0.76816946
1.8568062 0.44927299 -0.5608083
0.78225029 0.096995123 0.24351896
0.7900064 0.12882084 0.23773964
0 0 0
0 0 0
0.81876254 0.10204484 0.22029713
0.87489486 0.14242788 0.22693248
0 0 0
0.82529932 0.19823301 0.19992201
0.79736823 0.099392548 0.18248585
0.82956803 0.13516782 0.18206207
9.624876 1.9357009 2.0286591
0 0 0
0.79668576 0.099491045 0.15126927
0.80168277 0.13040882 0.14464921
2.2740853 0.45615381 0.39033762
0.9865194 0.23581029 0.16094147
0 0 0
0.7996037 0.12965524 0.11378705
2.1954319 0.43918124 0.29285258
1.0285053 0.24487871 0.12820408
0.77601486 0.096703321 0.088422179
0.80023193 0.12974277 0.083790071
2.1460466 0.42840615 0.20532236
0.98691839 0.23446763 0.085679777
0 0 0
0.79684693 0.12893705 0.053770561
2.1843665 0.43550077 0.12745351
2.172194 0.51529914 0.10614014
0.79229671 0.098353155 0.031521872
0.80127901 0.1292524 0.024287311
2.1249397 0.42253464 0.044550337
2.198087 0.52046913 0.02464138
0 0 0
0.81252629 0.13076115 -0.005616304
1.5446798 0.30650803 -0.025343705
2.218116 0.52435315 -0.058450263
0 0 -0
0.79506332 0.12765187 -0.034862094
2.132648 0.42182359 -0.11492191
2.4108789 0.56929952 -0.15454905
0 0 -0
0.81695634 0.13072816 -0.066276312
2.3792615 0.47021377 -0.21734655
1.5273824 0.36019421 -0.15586036
0.79147929 0.096961476 -0.085808337
0.82191277 0.13115349 -0.097479559
2.4984863 0.49309659 -0.32235271
1.4755402 0.347588 -0.20703632
0.80067313 0.097421192 -0.11686203
5.1309595 0.81581432 -0.80234247
2.5191295 0.49616578 -0.4221513
1.4057767 0.33092099 -0.25187165
0 0 -0
4.1091971 0.65137053 -0.80148786
3.0785925 0.60440391 -0.63511068
1.5481515 0.36392286 -0.33861959
0 0 -0
3.433387 0.54264724 -0.8049916
3.085628 0.60544956 -0.75997132
1.5591141 0.36707416 -0.40438125
0 0 -0
2.8998899 0.45609748 -0.79773319
2.7114167 0.53128618 -0.78012538
1.8604618 0.43809134 -0.56108999
0.8122462 0.095657736 0.25266936
0.79267603 0.12426795 0.23830907
0 0 0
0 0 0
0 0 0
0.85852438 0.13436073 0.22246823
7.6362643 1.4901148 1.9128954
0.832187 0.19449444 0.20129761
0 0 0
0.82651955 0.12947015 0.18121529
9.6384945 1.8769817 2.0290639
10.178381 2.3711586 2.0547471
0.79728121 0.094600804 0.15126927
0.79371363 0.12411838 0.14307122
1.2342572 0.23970853 0.21159886
0.97255611 0.22617328 0.15843409
0.79835588 0.094657667 0.12098294
0.79940575 0.12459402 0.11364795
2.0403841 0.39516014 0.27184191
0.97389531 0.22557114 0.12122208
0 0 0
0.79806441 0.12437069 0.08348164
0.98242849 0.18985727 0.093880326
0 0 0
0 0 0
0.79762304 0.12404526 0.053770561
1.4576715 0.28132999 0.084949955
2.1753149 0.50196111 0.10614014
0 0 0
0.80106926 0.12418029 0.024257403
1.6739154 0.32218623 0.035052296
2.2002647 0.50674772 0.024630472
0.79450601 0.093568489 0.0022759063
0.79157233 0.12241102 -0.005466172
2.2004933 0.42262313 -0.036060475
2.2203171 0.51050913 -0.058424622
0 0 -0
0.79583162 0.12277104 -0.034862094
2.2332759 0.4275049 -0.12020082
2.4143267 0.55449593 -0.15454905
0 0 -0
0.80986124 0.12450126 -0.065637507
2.4750381 0.47338125 -0.2258262
1.539263 0.35304019 -0.15684871
0.79403454 0.0923329 -0.086022317
0.83251947 0.12761272 -0.098642796
2.5131586 0.47999027 -0.32385963
1.4448086 0.33100486 -0.20243551
0 0 -0
5.1094904 0.78028768 -0.79822153
4.8610544 0.92648244 -0.81363904
1.9013683 0.43528813 -0.34018135
0 0 -0
4.1150584 0.62644029 -0.80186623
3.877599 0.7365883 -0.79899746
1.5722853 0.35942999 -0.34340939
0 0 -0
3.4722903 0.52697885 -0.81333935
3.2239339 0.61206841 -0.79309529
1.6189892 0.3707014 -0.41931301
0 0 -0
2.9064507 0.43887186 -0.79878223
2.7874317 0.52844185 -0.80104834
1.869662 0.42816684 -0.56306165
0.80047363 0.089295059 0.24883211
0.81427824 0.12254025 0.24457288
0.78867829 0.1494955 0.22991905
0 0 0
0.80939168 0.090804808 0.21745957
0.85071063 0.12779519 0.22023612
7.602324 1.4351256 1.9021516
0.83811057 0.19046308 0.20244396
0.7878679 0.088404007 0.18004975
0.81956667 0.12323371 0.17952168
9.6556053 1.8188936 2.0302782
10.098955 2.2874184 2.0358412
0.79687011 0.089597195 0.15108413
0.79153943 0.1188075 0.14254521
0.82574159 0.15511796 0.14139782
0 0 0
0 0 0
0 0 0
0.98532474 0.18456206 0.13112222
0 0 0
0.79393017 0.089056171 0.09033218
0.79192621 0.1184416 0.082761973
0.80643362 0.15071873 0.076972529
2.1476371 0.48246247 0.18592007
0 0 0
0 0 0
0.83616912 0.15606473 0.04867341
2.1958976 0.4925392 0.10699496
0.7994023 0.089288555 0.031758584
0 0 0
0.84530216 0.15732664 0.017680336
2.2072358 0.49411136 0.024674105
0.78015769 0.087028757 0.0022332331
0 0 -0
2.106705 0.39122248 -0.034483533
2.2038956 0.49251544 -0.057911903
0 0 -0
0 0 -0
2.2329111 0.41324854 -0.12004246
2.4137874 0.53880173 -0.15429997
0 0 -0
0.8066653 0.11894804 -0.0653181
2.4348021 0.45021731 -0.22189878
1.5443139 0.34423828 -0.1571452
0 0 -0
0.79398084 0.11672368 -0.093989834
6.0808764 1.1227636 -0.78271306
1.443911 0.32148746 -0.20202956
0.76048815 0.083074607 -0.11083969
0.7666384 0.11226667 -0.11965693
4.7666945 0.87822258 -0.79692817
2.3905818 0.53187007 -0.42711654
0 0 -0
4.1499176 0.6057173 -0.8079195
3.8184211 0.70109987 -0.78590238
1.6059694 0.35677561 -0.35028175
0 0 -0
3.3443451 0.48658699 -0.78265578
3.2276287 0.5922752 -0.79309529
2.8771451 0.64022881 -0.74413985
0.82732058 0.088140331 -0.21765104
2.914819 0.42185926 -0.80035561
2.789675 0.51115507 -0.80077654
1.8741273 0.41710365 -0.56362504
0.80385703 0.084682047 0.24971761
0.82640034 0.11918365 0.24798949
0.79525429 0.14569287 0.23157115
0 0 0
0.80609053 0.085429475 0.21642774
0.8428489 0.12133063 0.218004
0.86838043 0.15841629 0.2170272
0.82785785 0.18279849 0.19969274
0.78936523 0.083670862 0.18027121
0.81740534 0.11778445 0.17888658
0.83051878 0.15117979 0.17443433
10.1013 2.2228787 2.0335262
0 0 0
0 0 0
0.8092128 0.14687835 0.13841054
0 0 0
0.79159063 0.084018521 0.11979247
0.79303241 0.11365084 0.11253511
0.81081158 0.14673005 0.10777701
2.0540392 0.44926617 0.25496361
0 0 0
0 0 0
0.80734324 0.14576772 0.076972529
2.1671071 0.47288716 0.18735087
0.78532261 0.083089888 0.060237736
0.79315877 0.11340053 0.053371768
0.82237309 0.1482739 0.047816481
2.2018063 0.47969404 0.10713743
0.80788475 0.085220404 0.032074194
0 0 0
0.80098695 0.14399944 0.016734643
2.2141345 0.48140848 0.024717735
0 0 0
0 0 -0
1.0599457 0.19011518 -0.017330267
2.2098069 0.47961944 -0.057988811
0 0 -0
0.8042025 0.11397707 -0.035164863
2.1931345 0.39198482 -0.11777253
2.3078027 0.50029814 -0.14732596
0.77586257 0.080802076 -0.055066932
0.80540597 0.11371748 -0.065158404
0.8961755 0.16003059 -0.08158306
1.5463971 0.33475608 -0.1571452
0 0 -0
0.79173154 0.11143443 -0.093640864
6.0847211 1.0849085 -0.78233635
1.4226143 0.30759636 -0.19878194
0 0 -0
0.91999245 0.1289629 -0.14346622
4.798224 0.85362464 -0.80130869
1.5570295 0.33640349 -0.27781475
0 0 -0
0.81203914 0.11344004 -0.15795195
3.835197 0.67988133 -0.78848171
1.5717974 0.33907732 -0.34236813
0 0 -0
0.83850557 0.11674944 -0.19605878
3.2398162 0.57398582 -0.79520959
2.8848102 0.62338203 -0.74511898
0.79800493 0.080068223 -0.20980549
0.82970583 0.11488951 -0.22762407
2.7766488 0.49117848 -0.79615718
1.8682106 0.40377209 -0.56108999
0.79295212 0.07861691 0.24617553
0.82996494 0.11450374 0.24884364
0 0 0
0 0 0
0 0 0
0.82150435 0.11311735 0.21229967
0.87316155 0.15375866 0.21798223
0 0 0
0 0 0
0.8123036 0.11196601 0.17761637
0.82950163 0.14574204 0.17402962
10.085003 2.1545017 2.0275457
0 0 0
0 0 0
0.80329937 0.14071925 0.13724881
0 0 0
0.79209125 0.079159833 0.11979247
0 0 0
0.81267339 0.14192283 0.10790671
2.1839695 0.46366179 0.2707333
0 0 0
0.79036355 0.10830938 0.082453541
0 0 0
2.1914144 0.46412328 0.1892025
0.80070055 0.079752058 0.061378598
0 0 0
0.81539869 0.14185619 0.047359459
