# .PCD v0.7 - Point Cloud Data file format
VERSION 0.7
FIELDS x y z
SIZE 4 4 4
TYPE F F F
COUNT 1 1 1
WIDTH 1753
HEIGHT 1
VIEWPOINT 0 0 0 1 0 0 0
POINTS 1753
DATA ascii
4.6627388 -4.3132014 1.8865423
4.9740548 -4.2625184 1.8762494
5.3880992 -4.2792797 1.8992628
5.0297899 -5.0169787 1.8967737
5.4254785 -5.021399 1.8925921
5.863471 -5.032341 1.8997641
6.3189125 -5.0307817 1.9024688
5.9743705 -5.9589453 1.9163229
6.5086694 -6.0222297 1.9207548
7.0701394 -6.0726833 1.9258603
7.6965876 -6.1366172 1.9353321
7.2941051 -7.2719712 1.9405793
7.9781036 -7.3857203 1.9361953
8.7964735 -7.5632067 1.952352
0 -0 0
9.2956123 -9.2690229 1.9754596
10.11661 -9.3749523 1.9374402
9.3819418 -8.07514 1.6191193
13.182851 -10.538407 2.0465705
11.130276 -11.102313 1.7775441
11.830919 -10.963968 1.6671654
12.562089 -10.821109 1.555611
0 -0 0
9.1546698 -9.1345396 0.98646891
8.9720364 -8.3198204 0.81506598
9.4214897 -8.1197767 0.7117058
0 -0 0
9.1818466 -9.1674156 0.51227975
9.0219173 -8.37428 0.36834759
9.2574368 -7.9865589 0.25141028
9.3133698 -7.4640684 0.13019899
4.3614073 -4.3557687 0.01753586
4.4589524 -4.1419101 -0.041531987
4.3349881 -3.7429094 -0.092170633
9.3112459 -7.4679728 -0.3060948
0 -0 -0
0 -0 -0
1.8946697 -1.6379143 -0.1323951
9.1114807 -7.3114128 -0.72884637
7.3514323 -7.3593755 -0.73431963
4.1777081 -3.8875959 -0.45714688
6.3163652 -5.4621396 -0.74835056
3.5421495 -2.8440893 -0.45117477
3.0030663 -3.0079908 -0.45739478
3.2320936 -3.0102804 -0.51729304
4.4256945 -3.8291891 -0.74077076
4.5102215 -3.6231937 -0.79012096
3.7950754 -3.8075399 -0.778889
3.8179431 -3.5599079 -0.80615801
3.7037115 -3.2070041 -0.80552697
3.6345263 -2.9206614 -0.81317085
3.191227 -3.2066295 -0.82728636
3.0459208 -2.8427472 -0.80262285
3.0466568 -2.6413257 -0.81625915
2.9673207 -2.3860376 -0.81072938
0 -0 -0
0 -0 -0
0 -0 -0
0 -0 -0
0 -0 -0
0 -0 -0
0 -0 -0
0 -0 -0
4.3040757 -4.3515878 1.8908877
4.6277895 -4.3338671 1.8831258
4.9630561 -4.3061891 1.8820319
5.3286901 -4.2856784 1.8875554
4.9880342 -5.0367627 1.8926464
5.398807 -5.058569 1.8940802
5.8236871 -5.0605803 1.896899
6.2939878 -5.074347 1.9043031
5.9267149 -5.9844046 1.9127795
6.4758754 -6.066062 1.9220251
7.0357013 -6.1185217 1.9266698
7.6450472 -6.1726317 1.9318596
7.2424307 -7.3096094 1.9387277
7.9520311 -7.4527116 1.9409293
8.7387438 -7.6073256 1.9498626
0 -0 0
9.2350845 -9.3223724 1.9747155
9.6775703 -9.0791063 1.8639933
0 -0 0
13.208217 -10.692177 2.0606549
9.7810211 -9.8769169 1.5717126
9.6553497 -9.0585766 1.3683997
12.472946 -10.878353 1.5528086
13.226969 -10.718061 1.4379559
9.1742115 -9.2670689 0.99468321
9.0233889 -8.4710073 0.82443762
9.3383923 -8.148551 0.70919216
0 -0 0
9.1619673 -9.2605181 0.51433122
9.0373774 -8.4924526 0.37109935
9.2722607 -8.0991163 0.25315773
9.2829237 -7.5336757 0.13041714
4.2959218 -4.3433437 0.01737939
4.4290833 -4.1650815 -0.041491043
4.2773123 -3.7391665 -0.091430433
9.2807684 -7.53757 -0.30660751
0 -0 -0
1.9658453 -1.8500265 -0.11687019
1.868804 -1.6356974 -0.13128655
9.129962 -7.4187932 -0.73395228
7.3271565 -7.4256458 -0.73643219
4.3170242 -4.0669489 -0.47511333
6.3734045 -5.5801816 -0.75915086
3.5037854 -2.8488202 -0.44850627
2.9824588 -3.0242369 -0.45707384
3.2142849 -3.0307372 -0.51740944
4.6409154 -4.0654616 -0.78095502
4.4748392 -3.6401708 -0.78782058
3.8028865 -3.8624895 -0.7853415
3.9074223 -3.6884184 -0.82981467
3.8338454 -3.3610678 -0.83829963
3.5859728 -2.918036 -0.80629849
0 -0 -0
3.0262797 -2.8593602 -0.80205542
3.0782721 -2.7019968 -0.8291558
2.9541414 -2.4054351 -0.81114596
0 -0 -0
0 -0 -0
0 -0 -0
0 -0 -0
0 -0 -0
0 -0 -0
0 -0 -0
0 -0 -0
4.2739553 -4.3744984 1.8894119
4.6045885 -4.365479 1.8845494
4.9408736 -4.3403673 1.883684
5.2978086 -4.3146415 1.8859588
4.9624405 -5.0727987 1.8947101
5.3824263 -5.1056008 1.8992885
5.7947135 -5.0981431 1.8976153
6.2401128 -5.0944033 1.8974248
5.8905659 -6.0213547 1.9130009
6.4307323 -6.0982857 1.9196965
7.0017009 -6.1648121 1.9276814
7.6017113 -6.2150774 1.9305092
7.2015676 -7.3581238 1.9398385
7.9168658 -7.5115285 1.9435594
8.7029991 -7.6705832 1.952352
0 -0 0
9.178401 -9.37957 1.9748644
9.5477228 -9.0680742 1.8496655
9.5156069 -8.3956509 1.6598438
13.041787 -10.690578 2.0448852
9.7459431 -9.9630289 1.5758697
9.5967007 -9.1149101 1.3679886
9.2930908 -8.2059603 1.1631819
13.165577 -10.802812 1.4384609
9.2133818 -9.4215651 1.0051792
9.047184 -8.5983896 0.83141655
9.2620306 -8.1825619 0.70719266
9.348711 -7.6761298 0.57510382
9.2048435 -9.4187517 0.5199728
9.0488281 -8.6083727 0.37373149
9.2538471 -8.1836758 0.25402123
9.2689695 -7.617157 0.13087529
4.5228682 -4.6292667 0.018412082
4.3947525 -4.1839056 -0.041409153
4.2258368 -3.7401593 -0.090818964
8.9625635 -7.3708601 -0.29758361
0 -0 -0
0 -0 -0
1.88788 -1.6729628 -0.13334531
9.0673141 -7.4607224 -0.73258239
3.9025207 -4.0038209 -0.39469332
6.5901866 -6.2852011 -0.72951859
4.3661528 -3.8703322 -0.52288133
3.465497 -2.853188 -0.44583777
2.9617648 -3.0403433 -0.45675284
3.1668904 -3.0229704 -0.51275641
4.6084604 -4.0872784 -0.77969921
4.4539485 -3.6688192 -0.78809118
3.7915351 -3.8985212 -0.7879225
3.6825147 -3.5190952 -0.78662217
3.6050391 -3.1998105 -0.79254764
3.5740826 -2.9449959 -0.80767298
0 -0 -0
3.0193219 -2.8880563 -0.80489284
2.991303 -2.6583307 -0.81010836
2.9136686 -2.4023609 -0.80406535
0 -0 -0
0 -0 -0
0 -0 -0
0 -0 -0
0 -0 -0
0 -0 -0
0 -0 -0
0 -0 -0
4.251678 -4.4054527 1.8914782
4.5797906 -4.3956413 1.8854034
4.9270782 -4.382102 1.8886403
5.2660289 -4.3427739 1.8840963
4.9446483 -5.1170478 1.8998692
5.3475037 -5.1351757 1.8980484
5.77565 -5.1445827 1.901674
6.210238 -5.1338367 1.8978835
5.8670611 -6.0714097 1.9174302
6.3917823 -6.1362748 1.9192729
6.9586253 -6.2030959 1.9262649
7.5596542 -6.2584748 1.9295447
7.1603818 -7.4064126 1.9409496
7.8564258 -7.5463238 1.9400526
8.6550331 -7.7231827 1.9521861
0 -0 0
9.1089926 -9.423624 1.9723345
0 -0 0
9.48314 -8.4710541 1.6632159
12.94921 -10.748208 2.0406721
9.8316984 -10.174845 1.5998009
11.526005 -11.082669 1.6526692
9.1854115 -8.2117329 1.1559892
12.912803 -10.72865 1.4180089
9.2780151 -9.6048565 1.0186414
9.0798187 -8.736064 0.8393259
9.1915569 -8.2212677 0.70565015
9.3106527 -7.7410111 0.57567376
9.2495899 -9.5814514 0.52581167
9.1139107 -8.7774467 0.37863681
9.1751537 -8.2149601 0.25323999
9.2712498 -7.7148213 0.13157341
4.4443793 -4.6051235 0.01820725
4.3581977 -4.2003832 -0.04130679
4.1283431 -3.6992922 -0.089209847
8.9325314 -7.4385085 -0.29809633
0 -0 -0
1.9185455 -1.85043 -0.11539958
1.8634567 -1.6718447 -0.13234232
8.9040451 -7.4184718 -0.72305542
3.8668103 -4.0161929 -0.39356661
4.1334095 -3.9908378 -0.46026108
4.2681966 -3.8305244 -0.51395541
3.4433389 -2.870575 -0.44524476
2.9299552 -3.0448468 -0.45471996
3.1397116 -3.0340633 -0.51136059
4.5773892 -4.1101761 -0.77869463
4.4724407 -3.7303488 -0.79539835
3.7764561 -3.9309902 -0.78978658
3.6587214 -3.5395627 -0.78616428
3.5802 -3.2172537 -0.791412
3.5476243 -2.9599283 -0.80578303
0 -0 -0
0 -0 -0
2.9246612 -2.6314018 -0.79641813
2.9153907 -2.4339838 -0.80864686
0 -0 -0
0 -0 -0
0 -0 -0
0 -0 -0
0 -0 -0
0 -0 -0
0 -0 -0
0 -0 -0
4.2278628 -4.4349151 1.892954
4.53967 -4.4109669 1.8799938
4.9129572 -4.4238305 1.8935966
5.2526016 -4.3861256 1.8888857
4.909822 -5.1437969 1.8985794
5.3068643 -5.159112 1.8948241
5.736763 -5.1734214 1.8992865
6.188323 -5.1799674 1.9008639
5.8337379 -6.1115279 1.918759
6.3799429 -6.2005816 1.927106
6.9226141 -6.2476449 1.926872
7.5196061 -6.3034811 1.9291587
7.1080151 -7.4431014 1.939098
7.8029165 -7.5875244 1.9382993
8.5921154 -7.7622609 1.9487009
9.3710365 -7.8616138 1.9408568
9.0373411 -9.4650335 1.9693583
0 -0 0
0 -0 0
12.876176 -10.821712 2.0395885
9.8157358 -10.283858 1.6074411
11.42286 -11.119185 1.6476315
9.1127071 -8.2478943 1.1531867
12.730066 -10.709534 1.4051317
9.3001308 -9.7467289 1.0276161
9.1289701 -8.8918657 0.84889692
9.0824766 -8.2245712 0.70113707
9.3233461 -7.848814 0.57942539
9.2706156 -9.7219095 0.53038806
9.0913725 -8.8639059 0.37995288
9.0867968 -8.2368574 0.25219148
9.3025017 -7.8379269 0.13269694
4.3132286 -4.5244613 0.017783364
4.3158808 -4.2109838 -0.041149832
9.0946007 -8.2505846 -0.19761653
9.1649094 -7.7277422 -0.30742785
3.8335226 -4.0254812 -0.18828994
0 -0 -0
1.9248652 -1.7483747 -0.13746285
8.9552422 -7.554698 -0.73096341
3.8008482 -3.9964747 -0.3893415
4.1152596 -4.0223956 -0.46097973
6.2880416 -5.713295 -0.7613824
3.3990462 -2.8691833 -0.4417856
2.8954625 -3.0461926 -0.45225915
3.1231656 -3.0553546 -0.51170951
4.5961289 -4.1782255 -0.78622913
4.4396267 -3.7494104 -0.79363924
3.7427278 -3.9440379 -0.78777915
3.643995 -3.5688608 -0.78769052
3.5611217 -3.2398248 -0.79157424
3.5181079 -2.9721043 -0.80320591
0 -0 -0
0 -0 -0
2.9584558 -2.6948383 -0.81010836
2.8720174 -2.4278324 -0.80073327
0 -0 -0
0 -0 -0
0 -0 -0
0 -0 -0
0 -0 -0
0 -0 -0
0 -0 -0
0 -0 -0
4.189436 -4.4489484 1.8879361
4.5132027 -4.4394112 1.8802785
4.8587236 -4.4292822 1.8831333
5.2300062 -4.4220066 1.8904822
4.8768425 -5.1724205 1.8980635
5.2764893 -5.1929364 1.8953202
5.6941547 -5.1987033 1.8957052
6.1534529 -5.2153234 1.8999469
5.8034868 -6.1550121 1.921195
6.3215728 -6.2197337 1.9209666
6.8761964 -6.2827377 1.9246461
7.4695663 -6.3399777 1.926265
7.0487242 -7.4722781 1.9353949
7.7541089 -7.6331878 1.9377735
8.5348654 -7.8061829 1.9465433
9.4197264 -8.0014486 1.9610724
8.9919853 -9.5339756 1.9721857
10.052106 -9.9053717 1.9823707
0 -0 0
9.3892221 -7.9899364 1.494992
0 -0 0
11.151079 -10.988687 1.618125
9.0369701 -8.2807846 1.1500107
9.4341764 -8.0361433 1.0467578
9.3194828 -9.8877792 1.0364389
9.1253939 -8.9981537 0.85368246
9.0340481 -8.2821693 0.70130843
9.388279 -8.0024214 0.58650142
9.3231487 -9.8978968 0.53685814
9.1556158 -9.0367832 0.38494793
9.0242996 -8.281642 0.25186256
9.2603197 -7.9000497 0.1327842
4.2819576 -4.5472016 0.017769139
4.2529664 -4.2008448 -0.040794976
9.0298138 -8.2933826 -0.19731082
4.3959594 -3.7530115 -0.14822781
3.8114898 -4.0518394 -0.18842536
0 -0 -0
1.8898442 -1.7378465 -0.13572082
8.9603233 -7.653583 -0.73519766
3.7543991 -3.9964561 -0.38708812
6.4613342 -6.3935208 -0.7281611
4.1453648 -3.8131604 -0.5047617
3.3662481 -2.8770549 -0.43980893
2.8665087 -3.0530288 -0.45065427
3.0881288 -3.0583861 -0.5090341
4.1105175 -3.783093 -0.70711648
4.4270797 -3.7855957 -0.79553366
3.7055974 -3.9532096 -0.78505474
3.6178174 -3.5869777 -0.78677481
3.7414963 -3.4461205 -0.83635277
3.4870784 -2.982749 -0.80028516
0 -0 -0
0.72834432 -0.72281653 -0.19767639
2.9562752 -2.7262294 -0.8140766
2.8808441 -2.4657607 -0.80739737
0 -0 -0
0 -0 -0
0 -0 -0
0 -0 -0
0 -0 -0
0 -0 -0
0 -0 -0
0 -0 -0
4.1542501 -4.4661756 1.8843939
4.4885955 -4.4697256 1.8814174
4.8441706 -4.4707475 1.8880897
5.2166882 -4.4659247 1.8955377
4.840404 -5.1972976 1.8962579
5.247272 -5.2279496 1.8963122
5.6535912 -5.2256341 1.8928401
6.1161656 -5.2485452 1.898342
5.7503252 -6.1740932 1.9161015
6.3026791 -6.2777166 1.9268942
6.8447061 -6.331461 1.9266698
7.4379663 -6.3920865 1.9281943
7.0014029 -7.5139499 1.9350246
7.6994553 -7.6729774 1.9358447
8.4752293 -7.8476849 1.9438881
9.3667088 -8.0558758 1.9602889
8.9427538 -9.5990992 1.974269
9.9518776 -9.9276991 1.9745809
11.073071 -10.263944 1.9748744
12.522802 -10.789694 2.0044377
0 -0 0
11.048938 -11.022478 1.6130873
11.861857 -11.003949 1.518059
9.3877087 -8.0964823 1.0470945
9.2892113 -9.9776173 1.0398616
9.1625175 -9.1463203 0.86238939
9.0028172 -8.3557825 0.70285088
9.3843727 -8.0990334 0.58935088
9.3051214 -10.001004 0.5393436
9.1600952 -9.1528435 0.38749033
9.0311785 -8.3906183 0.25348669
9.2517786 -7.9913645 0.13336234
0 -0 0
4.2462025 -4.2459526 -0.040979229
9.0424614 -8.4078665 -0.19871075
4.3456225 -3.7563794 -0.14730491
3.7709093 -4.0583105 -0.18764673
0 -0 -0
9.0317383 -8.4081888 -0.65231508
8.9154587 -7.7103772 -0.73538446
3.7243786 -4.0135679 -0.3865248
6.429729 -6.4408064 -0.72903943
4.1299076 -3.8459909 -0.50574356
3.347779 -2.8970044 -0.43971011
2.8477218 -3.07056 -0.45065427
3.0650964 -3.0730574 -0.50833613
3.9986749 -3.7257352 -0.6917963
4.390285 -3.8010149 -0.79309791
3.6523588 -3.9446461 -0.778889
3.6110854 -3.6245112 -0.79013252
3.6683195 -3.4205613 -0.82467139
3.4344559 -2.9744222 -0.79238194
0.67443955 -0.72953594 -0.18168278
0 -0 -0
2.8972228 -2.7048547 -0.80237037
2.8774867 -2.4936397 -0.81072938
0 -0 -0
0 -0 -0
0 -0 -0
0 -0 -0
0 -0 -0
0 -0 -0
0 -0 -0
0 -0 -0
4.1396966 -4.5056529 1.8902974
4.4671612 -4.5033078 1.8839798
4.8096228 -4.4938231 1.885336
5.1811752 -4.4909048 1.8926108
4.8136554 -5.2325883 1.8983215
5.2178235 -5.2627997 1.8973044
5.6313477 -5.2695146 1.8961828
6.0831113 -5.2853355 1.8981127
5.7110128 -6.2078252 1.9156585
6.2213721 -6.2732463 1.9137688
6.7971501 -6.3653073 1.9242415
7.4015656 -6.4401808 1.9289658
6.9378633 -7.5379686 1.9302106
7.6667843 -7.7347593 1.9395267
8.4355507 -7.9076333 1.9458796
9.3103991 -8.1073599 1.9588785
8.8756523 -9.6450596 1.9724834
0 -0 0
9.6230736 -9.0303087 1.7261183
12.416714 -10.831742 1.9980576
0 -0 0
10.941904 -11.050484 1.60733
9.7025118 -9.1121807 1.2488419
9.3446074 -8.1598301 1.0478519
9.34863 -10.165802 1.0534759
9.182724 -9.2796755 0.86963415
9.0292282 -8.4840155 0.70896363
9.3427744 -8.1636915 0.58987325
9.3537931 -10.177832 0.54577422
9.1543579 -9.2600565 0.38964385
9.0166664 -8.4808092 0.25453517
9.3538637 -8.180294 0.13555487
4.2441015 -4.6192875 0.017845951
4.1996899 -4.2512965 -0.040781327
9.0292883 -8.4995146 -0.19956358
4.2991714 -3.7625635 -0.14651018
3.7385032 -4.0732722 -0.18727435
0 -0 -0
9.0453806 -8.5250912 -0.65706611
4.3168516 -3.7799001 -0.35797843
3.6949635 -4.0311971 -0.38603187
6.4005866 -6.4907837 -0.73023725
4.3236456 -4.076232 -0.53252137
3.3336823 -2.9207702 -0.44020423
2.8086791 -3.0659811 -0.44744444
3.0259676 -3.0712888 -0.50496268
3.2237475 -3.0408685 -0.5609464
4.3378224 -3.8024106 -0.78782058
3.6240788 -3.9626005 -0.77802867
3.7613888 -3.8219922 -0.82813579
3.8151672 -3.6015069 -0.86263585
3.4205847 -2.9993367 -0.7934128
0.69316667 -0.7590844 -0.18797873
0 -0 -0
0 -0 -0
2.9128606 -2.5557582 -0.82509887
0 -0 -0
0 -0 -0
0 -0 -0
0 -0 -0
0 -0 -0
0 -0 -0
0 -0 -0
0 -0 -0
4.1138988 -4.5330915 1.891183
4.4448128 -4.5361109 1.8862576
4.7721815 -4.5140009 1.8814812
5.1259899 -4.4984498 1.8824998
4.7808089 -5.2613106 1.8980635
5.1806884 -5.2898717 1.8955681
5.6073685 -5.3119826 1.8990479
6.0439892 -5.3167753 1.8960493
5.6839638 -6.2550197 1.9194235
6.1807117 -6.3092079 1.9131337
6.7494373 -6.398809 1.9218131
7.3479214 -6.4731507 1.9253005
6.8861928 -7.5745797 1.9287295
7.6198692 -7.7823601 1.939702
8.3818645 -7.9544926 1.9447179
9.2530689 -8.1578035 1.9573114
8.8182983 -9.7015324 1.9729297
9.8500738 -10.070313 1.9787539
9.5653267 -9.0871363 1.7257291
12.335879 -10.895239 1.9957703
10.102337 -11.118077 1.6985596
10.811296 -11.053414 1.5980771
9.6579618 -9.182519 1.2503364
9.2503185 -8.1780739 1.0428863
9.3685408 -10.313755 1.0628309
9.2253494 -9.4378805 0.87913871
9.0551252 -8.6135721 0.71513349
9.2551012 -8.1877718 0.58749872
9.3684025 -10.320116 0.55031115
4.3667641 -4.471734 0.18703026
9.0766869 -8.6428375 0.25772175
9.2323723 -8.1745605 0.13451859
4.2344952 -4.665976 0.017925607
4.1602564 -4.2633867 -0.040651668
9.0442829 -8.6189079 -0.20106007
4.2415867 -3.7583754 -0.14533094
3.6946445 -4.0754023 -0.18632647
0 -0 -0
9.0470886 -8.6321335 -0.66102529
4.2928305 -3.8056545 -0.35791615
3.6507435 -4.0323482 -0.38398972
6.3905478 -6.5606389 -0.73367083
6.099103 -5.8211913 -0.75558048
3.9030547 -3.4621813 -0.51818383
2.7778058 -3.0698867 -0.44551855
2.974508 -3.0563447 -0.49949548
3.1842213 -3.0407224 -0.55730474
4.3099632 -3.8250093 -0.7870087
3.5897453 -3.9737473 -0.77587783
3.6111126 -3.7146125 -0.80005306
3.4976611 -3.3426054 -0.79546803
3.6128154 -3.2073185 -0.84255016
0 -0 -0
0 -0 -0
0 -0 -0
2.9029739 -2.5787797 -0.82676494
0 -0 -0
0 -0 -0
0 -0 -0
0 -0 -0
0 -0 -0
0 -0 -0
0 -0 -0
0 -0 -0
4.0477424 -4.5155616 1.8734725
4.4288964 -4.5756965 1.8913825
4.7436996 -4.5425329 1.8812058
5.1127033 -4.5426226 1.8878214
4.7497263 -5.2919841 1.8985794
5.1427441 -5.31599 1.8935841
5.5620532 -5.3341904 1.8947502
6.0112524 -5.3537607 1.8960493
5.6402655 -6.2839718 1.9176517
6.1547961 -6.3603578 1.9171561
6.7156997 -6.4455266 1.9234319
7.3029385 -6.5135431 1.9239501
6.8363032 -7.6130342 1.9278038
7.5651298 -7.8218913 1.9379487
8.3122768 -7.9859595 1.9399049
9.1711569 -8.1861458 1.9505728
8.7566242 -9.7532511 1.9724834
9.7915382 -10.134124 1.9794495
0 -0 0
9.5521812 -8.5415363 1.5538576
10.035918 -11.182073 1.6988966
9.8122883 -10.155954 1.4595922
11.531051 -11.098904 1.5016181
9.172493 -8.2100897 1.0397722
9.4029646 -10.480144 1.0740113
9.2684555 -9.5991068 0.8888427
9.0898371 -8.753459 0.72210318
9.1697168 -8.2130833 0.58526671
9.4129686 -10.497927 0.55670232
4.3434076 -4.5027599 0.18720971
9.0688324 -8.7420826 0.25901693
9.1753397 -8.225049 0.13442042
0 -0 0
4.1735749 -4.3298717 -0.041040648
9.0811758 -8.7610178 -0.20307148
4.1574278 -3.7295916 -0.14322877
3.6502342 -4.0764036 -0.18534474
0 -0 -0
9.0499763 -8.7415972 -0.66514283
4.2359743 -3.8019238 -0.3551141
3.6385667 -4.0688009 -0.38532767
6.4635181 -6.7175279 -0.74676639
6.0632701 -5.8585048 -0.75558048
3.9254191 -3.5252938 -0.52401501
2.7622299 -3.09058 -0.44605353
2.9495039 -3.0680945 -0.49844858
3.1412525 -3.0367587 -0.5530352
4.3107333 -3.8732355 -0.79147416
3.5527761 -3.9816682 -0.77315342
3.5738773 -3.7217305 -0.79684794
3.4898503 -3.3763535 -0.7983883
3.3937786 -3.0503063 -0.79581821
0 -0 -0
0 -0 -0
0 -0 -0
0 -0 -0
0 -0 -0
0 -0 -0
0 -0 -0
0 -0 -0
0 -0 -0
0 -0 -0
0 -0 -0
0 -0 -0
4.0465603 -4.5703578 1.8858699
4.3861632 -4.5875425 1.8851187
4.7364454 -4.5916286 1.8894664
5.0997844 -4.5874462 1.893409
4.7197299 -5.3239202 1.8996114
5.1321158 -5.3705578 1.9017686
5.5292187 -5.3682179 1.8947502
5.9717832 -5.3846779 1.893986
5.5951324 -6.3111644 1.915437
6.1149778 -6.3972964 1.9169443
6.6626792 -6.4736457 1.919587
7.2584648 -6.5542846 1.9227924
6.7790289 -7.6430745 1.9248413
7.4918303 -7.8418245 1.9314615
8.2532225 -8.0271864 1.9375815
9.1141596 -8.2363052 1.9491625
8.7038307 -9.8149347 1.9741203
9.7339582 -10.199028 1.9804232
0 -0 0
9.4885521 -8.5899925 1.5520518
10.10554 -11.39959 1.7224909
10.645996 -11.155031 1.5937591
11.389285 -11.09788 1.4919966
9.0983162 -8.2448053 1.0370789
9.444294 -10.657041 1.0861807
9.3002844 -9.7511053 0.89761615
9.1124468 -8.8836393 0.72821593
9.0969515 -8.2490635 0.58384198
9.4179382 -10.634028 0.56084472
4.3425884 -4.5575485 0.18837622
9.1151953 -8.8953218 0.26189512
9.0802708 -8.2408714 0.13376594
4.084775 -4.6135187 0.017530169
4.2751842 -4.4901018 -0.042309944
9.1052179 -8.8927231 -0.20482543
9.0141258 -8.1868677 -0.31227309
3.6225045 -4.0957298 -0.18520932
0 -0 -0
9.1332531 -8.9310122 -0.67527837
4.1748953 -3.7936127 -0.35193846
3.6221173 -4.100769 -0.3862431
6.4118781 -6.7462234 -0.74556863
4.1118879 -4.0221004 -0.51547283
3.5466228 -3.2246406 -0.47608083
2.7346604 -3.0977807 -0.44466263
2.9306228 -3.0861347 -0.49844858
3.1218512 -3.0552819 -0.55290961
4.2802901 -3.8936121 -0.79025626
3.5171542 -3.9907711 -0.77071589
3.5258088 -3.7170591 -0.79120088
3.4669528 -3.395632 -0.79790163
3.3749983 -3.0710728 -0.79581821
0 -0 -0
0 -0 -0
0 -0 -0
0 -0 -0
0 -0 -0
0 -0 -0
0 -0 -0
0 -0 -0
0 -0 -0
0 -0 -0
0 -0 -0
0 -0 -0
4.0259886 -4.6037316 1.8894119
4.3467422 -4.6025214 1.8802785
4.6690736 -4.5822225 1.8737713
5.0544357 -4.6030746 1.8870232
4.6977944 -5.3651371 1.9039967
5.0970712 -5.3998337 1.9010246
5.5086422 -5.4142962 1.8990479
5.9300046 -5.4133434 1.8912348
5.5395994 -6.3263016 1.9096789
6.0709133 -6.4297223 1.9154624
6.6228323 -6.5144053 1.919587
7.207973 -6.5894299 1.9200916
6.7294135 -7.6815691 1.9241006
7.4293828 -7.8726096 1.9277794
8.2129478 -8.0866709 1.9397391
9.0765676 -8.3040733 1.9519832
8.6336708 -9.8569975 1.9718881
9.667119 -10.254239 1.9795886
0 -0 0
9.4861641 -8.694334 1.560358
10.092353 -11.526423 1.7322657
10.558928 -11.200602 1.5909832
11.165748 -11.014431 1.4715391
8.9910173 -8.2486067 1.0305982
9.4509659 -10.797319 1.094547
9.2936449 -9.8646345 0.90280038
9.1210079 -9.0017996 0.73330033
9.0307131 -8.2905407 0.58284473
4.5144162 -5.1607957 0.27071726
4.2021914 -4.4647379 0.1834709
9.1301451 -9.0199442 0.26390988
9.0081816 -8.2768126 0.1334496
9.478076 -10.838211 0.040960625
4.2454977 -4.5140638 -0.042289473
9.1358032 -9.0327835 -0.20675637
9.0321579 -8.3049498 -0.31465721
3.5723195 -4.0892782 -0.1839229
3.7979786 -4.0412021 -0.2400986
9.1691217 -9.0768089 -0.68203539
4.1434598 -3.8117249 -0.35125351
3.5818048 -4.1056285 -0.38462353
9.3129978 -9.9198065 -1.0899659
4.0630689 -4.023427 -0.512438
3.3803396 -3.1115544 -0.45631412
2.716908 -3.1160007 -0.44487661
2.9095929 -3.1018851 -0.4980996
3.1030457 -3.0743797 -0.55290961
4.1171136 -3.7916031 -0.76441056
3.629056 -4.169035 -0.8008275
3.477258 -3.7112184 -0.78540123
3.4439504 -3.4147568 -0.79741496
3.3423247 -3.0790415 -0.79255378
0.70207649 -0.80779254 -0.19571374
0 -0 -0
0 -0 -0
0 -0 -0
0 -0 -0
0 -0 -0
0 -0 -0
0 -0 -0
0 -0 -0
0 -0 -0
0 -0 -0
0 -0 -0
3.9957912 -4.6261787 1.8885263
4.3223433 -4.6333113 1.8819869
4.6620111 -4.6317897 1.8823073
5.0218444 -4.6300807 1.8854268
4.6414018 -5.3668222 1.8944521
5.0499692 -5.4161277 1.8958163
5.475317 -5.4479947 1.8990479
5.9066849 -5.4588766 1.8944445
5.4911098 -6.3491096 1.906357
6.0206814 -6.4554162 1.9120753
6.5723271 -6.5445547 1.9165518
7.1875696 -6.652195 1.9254935
6.6988716 -7.7420368 1.9289145
7.3775811 -7.9144464 1.9269028
8.1624765 -8.1362162 1.939573
9.0261688 -8.360281 1.95214
8.5536175 -9.887352 1.9674238
9.587822 -10.295969 1.9762502
0 -0 0
9.622571 -8.9286118 1.591777
10.022738 -11.589635 1.7324904
10.469666 -11.24334 1.587899
10.995097 -10.98002 1.4579008
9.0263891 -8.3836374 1.0405296
9.5358267 -11.030104 1.1121924
9.2757664 -9.9674911 0.90698779
9.1362286 -9.1281595 0.7390132
8.9994278 -8.3641558 0.58412695
4.3611584 -5.0477624 0.26337925
4.196496 -4.513864 0.18442804
9.1743021 -9.1754827 0.26680863
9.0348349 -8.4041204 0.13460585
4.4559994 -5.1589909 0.019393567
4.2265682 -4.5495529 -0.042378187
9.1438084 -9.1523304 -0.20820458
9.0322504 -8.4078932 -0.31645176
3.5556486 -4.1209574 -0.18436299
3.7608762 -4.0512505 -0.23932005
9.1901379 -9.2099485 -0.68778938
4.1163416 -3.8336759 -0.35094216
3.567615 -4.1403751 -0.3858206
3.9569902 -4.2669849 -0.46617004
9.0515432 -9.073905 -1.1485895
3.3488081 -3.1207044 -0.45463395
2.7210946 -3.159735 -0.44872838
2.866879 -3.0941803 -0.49402827
3.0792201 -3.088444 -0.55203062
4.0133309 -3.7417958 -0.74939024
3.3285546 -3.8715355 -0.73974383
3.4745591 -3.7542439 -0.78997988
3.642307 -3.6560242 -0.84852082
3.4278321 -3.1969178 -0.81746608
0 -0 -0
0 -0 -0
0 -0 -0
0 -0 -0
0 -0 -0
0 -0 -0
0 -0 -0
0 -0 -0
0 -0 -0
0 -0 -0
0 -0 -0
0 -0 -0
3.9859331 -4.6724157 1.8973817
4.2912345 -4.6569262 1.8808481
4.6348586 -4.6616712 1.8828579
4.9855886 -4.6535716 1.8824998
4.6140318 -5.4018121 1.8967737
5.0061402 -5.4356098 1.891848
5.4541006 -5.4938927 1.9033453
5.8808966 -5.5023313 1.8969663
5.4476151 -6.3774929 1.9048069
5.9763231 -6.487205 1.9105934
6.5348053 -6.5875397 1.9173611
7.1566415 -6.7055645 1.9281943
6.6512413 -7.7829947 1.9289145
7.3302135 -7.9610138 1.9272534
8.1283655 -8.2022581 1.9433903
8.9667759 -8.4080763 1.9504162
8.4927893 -9.9396496 1.9674238
9.5264778 -10.356791 1.9766675
0 -0 0
9.626214 -9.0425415 1.6015278
9.9359484 -11.632781 1.7297939
10.373547 -11.278085 1.5837865
10.905813 -11.025334 1.455005
9.000186 -8.4627552 1.0434754
9.5294771 -11.160443 1.1194179
9.3515072 -10.17334 0.92048025
9.2099028 -9.3153887 0.74958193
9.0214119 -8.4883518 0.58892345
4.3080511 -5.0485835 0.2620379
4.0612235 -4.4224691 0.17967227
9.1937065 -9.3084259 0.26902893
9.025321 -8.4991598 0.13523853
4.4054394 -5.1641722 0.019311065
4.2060099 -4.5835056 -0.042453252
9.1563072 -9.2780066 -0.20978153
9.024869 -8.5049782 -0.31801558
3.5361302 -4.1495433 -0.18466768
3.7190669 -4.0558414 -0.23823872
9.3157167 -9.4510756 -0.70151454
4.0970979 -3.8629692 -0.35131577
3.5492544 -4.1705441 -0.38659522
3.8337786 -4.185338 -0.4546715
6.0022573 -6.0913849 -0.76638091
3.1775935 -2.9977913 -0.43387893
2.7589867 -3.2437766 -0.45825073
2.8552158 -3.1197724 -0.49530783
3.0455925 -3.0924356 -0.54939348
4.2958007 -4.0547099 -0.80676508
3.5468748 -4.1770449 -0.79394484
3.4434562 -3.7667396 -0.7881484
3.4121685 -3.4673119 -0.79984856
3.4117329 -3.2212718 -0.81832504
0.67557138 -0.796839 -0.19103676
0 -0 -0
0 -0 -0
0 -0 -0
0 -0 -0
0 -0 -0
0 -0 -0
0 -0 -0
0 -0 -0
0 -0 -0
0 -0 -0
0 -0 -0
3.961498 -4.7019 1.8994479
4.2690315 -4.690258 1.8836951
4.5920219 -4.6756191 1.8770756
4.9807625 -4.7065849 1.8915465
4.5888987 -5.4396214 1.9001272
4.9739981 -5.467658 1.8923441
5.4039698 -5.5106149 1.8976153
5.8350105 -5.5269332 1.8930687
5.4121537 -6.4152703 1.9061356
5.940352 -6.52809 1.9118634
6.4997454 -6.6331081 1.9189801
7.1004124 -6.7351699 1.9241431
6.5995579 -7.8191538 1.9278038
7.2871895 -8.0123959 1.9288313
8.0909901 -8.2653666 1.9465433
8.9415188 -8.4880953 1.9562144
8.4271765 -9.9862833 1.9663821
9.4294538 -10.378403 1.9697123
10.718325 -10.9608 2.005223
9.5899715 -9.1199074 1.6047779
9.8240194 -11.645679 1.7227157
10.290772 -11.326799 1.5817304
10.547804 -10.795088 1.4160516
9.0505772 -8.6153784 1.0554268
9.5598106 -11.336091 1.1311308
9.3459206 -10.29332 0.92612982
9.2258139 -9.446722 0.75558043
9.0667982 -8.6365528 0.59533459
4.2525234 -5.0458875 0.26053873
4.2415209 -4.6760745 0.18891461
9.1308327 -9.3589382 0.26886448
9.072154 -8.6489058 0.13673294
4.3298559 -5.1391039 0.019117614
4.0488663 -4.4669714 -0.041143011
3.9099295 -4.0108266 -0.090143137
9.0470133 -8.6312695 -0.32065606
3.5459979 -4.2132182 -0.18652959
3.6753318 -4.0578518 -0.23702763
3.8677042 -3.9723635 -0.29308516
4.0848699 -3.8990619 -0.35231206
3.4241154 -4.0738831 -0.37568039
3.7003524 -4.0897779 -0.4418155
5.9008551 -6.0624361 -0.75816905
3.3304093 -3.1808085 -0.45740128
0.65613967 -0.781093 -0.10977475
2.8426797 -3.1446006 -0.49647105
3.0196428 -3.1039538 -0.54813772
4.1920428 -4.0056973 -0.79188007
3.5173624 -4.1941795 -0.7930845
3.4401493 -3.8098025 -0.79272711
3.3557518 -3.4520984 -0.79157424
3.2722647 -3.1277885 -0.78946126
0 -0 -0
0 -0 -0
0 -0 -0
0 -0 -0
0 -0 -0
0 -0 -0
0 -0 -0
0 -0 -0
0 -0 -0
0 -0 -0
0 -0 -0
0 -0 -0
3.9215727 -4.7128987 1.8941346
4.2254319 -4.6999679 1.8771467
4.5652547 -4.7057772 1.8779016
4.924624 -4.7110701 1.8811694
4.5473957 -5.4580264 1.8967737
4.9416504 -5.4995165 1.8928401
5.3781633 -5.5520391 1.9004803
5.7974763 -5.5592642 1.8919226
5.3801794 -6.4573483 1.9087931
5.8897314 -6.5527864 1.9084764
6.4364467 -6.6496444 1.9123023
7.05966 -6.7792897 1.9243358
6.5376129 -7.8428936 1.9237304
7.2372313 -8.0562267 1.9286561
8.0133886 -8.2872095 1.940071
8.880724 -8.5345879 1.9543339
8.3625774 -10.034005 1.965638
9.3662567 -10.436803 1.9698513
9.8200722 -10.166275 1.8488103
9.8585157 -9.4911642 1.6594303
9.7193031 -11.666039 1.7168733
10.095516 -11.24981 1.5622994
9.8300428 -10.184775 1.3280563
9.0384407 -8.7101622 1.0602242
9.6355648 -11.569223 1.148472
9.399168 -10.480465 0.93776125
9.2356052 -9.5735674 0.76117897
9.0963221 -8.7717609 0.60079592
4.2265964 -5.0780301 0.26085436
4.0039792 -4.468996 0.17955263
4.3583164 -4.5223804 0.12914869
9.0843887 -8.7675991 0.13772556
4.1939836 -5.0402784 0.018653898
4.0433927 -4.5163164 -0.041368209
3.8755364 -4.0246587 -0.089917861
9.0981445 -8.7873192 -0.3243733
3.5782151 -4.3048377 -0.1896102
3.6417043 -4.0706472 -0.23646535
3.8515642 -4.0046573 -0.29371864
4.0838356 -3.9462459 -0.35430461
3.5086396 -4.2268333 -0.38779232
3.6665533 -4.1027436 -0.44077742
5.8435264 -6.0777073 -0.75558048
3.3151221 -3.2053339 -0.45799428
0.67164922 -0.809591 -0.11319853
2.8107626 -3.1479075 -0.49426088
2.9716694 -3.0923798 -0.54286361
4.152431 -4.0168772 -0.78903842
3.444216 -4.1585183 -0.78233033
3.423944 -3.8389523 -0.794406
3.354327 -3.4932649 -0.79627925
3.2784972 -3.1724696 -0.79564631
0 -0 -0
0 -0 -0
0 -0 -0
0 -0 -0
0 -0 -0
0 -0 -0
0 -0 -0
0 -0 -0
0 -0 -0
0 -0 -0
0 -0 -0
0 -0 -0
3.9150257 -4.764185 1.9050562
4.1996965 -4.7293901 1.8785703
4.5429463 -4.7406416 1.8806552
4.8977022 -4.7432103 1.8819677
4.5021567 -5.4716506 1.8918725
4.9136004 -5.5362549 1.8950722
5.3285542 -5.5687971 1.8949889
5.7681446 -5.5994778 1.8935274
5.3423152 -6.4924984 1.9094576
5.8338408 -6.5712609 1.9033954
6.3772511 -6.6699004 1.9068384
7.0108943 -6.8156395 1.9224067
6.4712539 -7.860858 1.9183608
7.1582589 -8.0673437 1.9207661
7.9453607 -8.3183947 1.935922
8.8041201 -8.5655012 1.9490057
8.2857704 -10.066804 1.9620667
9.3046694 -10.497041 1.9704078
10.632979 -11.143874 2.0146909
0 -0 0
9.6109209 -11.680951 1.7103567
10.094918 -11.388958 1.5729916
10.678353 -11.200427 1.4519224
9.1046524 -8.8823576 1.0743638
9.5745306 -11.64045 1.1496888
9.4438505 -10.661178 0.94872808
9.2751789 -9.7334108 0.76934838
9.0787811 -8.8629951 0.6032179
4.2721338 -5.1972694 0.26562798
4.5368867 -5.1267438 0.2048569
4.2649975 -4.4802442 0.12719563
9.1090956 -8.9000444 0.13892546
4.1572638 -5.0589643 0.018628294
4.017592 -4.5432882 -0.041388679
3.8362973 -4.0331492 -0.089579947
9.1577044 -8.9541006 -0.32844943
3.2739868 -3.9883618 -0.17478262
3.6087203 -4.0839314 -0.2359463
3.815227 -4.0159073 -0.29282123
4.1708436 -4.0801067 -0.36401841
3.2872257 -4.0099096 -0.36603314
3.6248188 -4.1064811 -0.43878114
5.780746 -6.0867267 -0.75227791
3.1126308 -3.0467234 -0.43259409
0.65028584 -0.79370058 -0.11041671
3.5541174 -4.0299277 -0.62931311
2.9567366 -3.1148725 -0.54361701
4.0979743 -4.0131645 -0.78335512
3.4117424 -4.1711469 -0.78075308
3.4284151 -3.8917766 -0.80096877
3.3572755 -3.5395541 -0.80211991
3.2554512 -3.1890798 -0.79478735
0 -0 -0
0.65523028 -0.74449378 -0.19105564
0 -0 -0
0 -0 -0
0 -0 -0
0.49470139 -0.56261027 -0.17349736
0 -0 -0
0 -0 -0
0 -0 -0
0 -0 -0
0 -0 -0
0 -0 -0
3.8803008 -4.7814403 1.9023995
4.1832404 -4.769484 1.8842647
4.517077 -4.7719183 1.8820319
4.8843374 -4.7886944 1.8880874
4.4630151 -5.492424 1.8895509
4.9012504 -5.5910683 1.9035046
5.3082919 -5.6162081 1.9000027
5.755199 -5.6559148 1.9006345
5.2913074 -6.5115328 1.9054711
5.7934108 -6.6069331 1.9033954
6.3745332 -6.7494874 1.918373
6.9675436 -6.8571529 1.9220208
6.4303379 -7.9095669 1.9205827
7.1092725 -8.1118536 1.9209414
7.8989077 -8.3720112 1.9370838
8.7661743 -8.6339149 1.9522966
8.2263412 -10.120525 1.962662
9.247261 -10.562131 1.9719379
10.563723 -11.208186 2.0145612
9.8508348 -9.7195005 1.678089
9.5027227 -11.694975 1.7038403
10.098886 -11.535255 1.584609
10.569156 -11.222974 1.446411
9.1541986 -9.0409851 1.0867361
9.5211573 -11.721423 1.1518946
9.4630117 -10.815795 0.95730209
9.3377676 -9.9202671 0.77957439
9.1698713 -9.0624723 0.61295336
4.2433124 -5.2272639 0.26582524
4.5086327 -5.1582479 0.20500645
0 -0 0
9.1488667 -9.0492926 0.14037624
3.2823894 -4.0446734 0.014818995
3.9909551 -4.5693607 -0.041402329
3.7854612 -4.0289221 -0.088968478
9.1516132 -9.0586481 -0.33021834
3.2393832 -3.995954 -0.17424098
3.5540316 -4.0721254 -0.23399991
3.7775304 -4.0254059 -0.29181823
4.2123904 -4.1716375 -0.36987159
3.440814 -4.2501888 -0.38603187
3.593003 -4.1211319 -0.43798262
5.7255721 -6.1031957 -0.74995714
3.1893022 -3.1603222 -0.44593659
0.62851793 -0.77680624 -0.1075279
3.6526213 -4.1932058 -0.6512984
2.9273899 -3.1221004 -0.54173338
4.0746799 -4.0396285 -0.78362572
0.66726702 -0.82608241 -0.1538564
3.4025252 -3.9105031 -0.80051094
3.3159292 -3.5392051 -0.79741496
3.2547083 -3.2277243 -0.79942614
0 -0 -0
0.64807302 -0.74553585 -0.19029899
0 -0 -0
0 -0 -0
0 -0 -0
0 -0 -0
0 -0 -0
0 -0 -0
0 -0 -0
0 -0 -0
0 -0 -0
0 -0 -0
3.8550718 -4.8103781 1.9044658
4.1394601 -4.7783971 1.8777161
4.4857421 -4.7974377 1.8812058
4.8678617 -4.8314757 1.8931429
4.4225788 -5.5114164 1.8867133
4.8586082 -5.6115155 1.9002805
5.2565017 -5.630218 1.8937951
5.720387 -5.6911216 1.9006345
4.8533206 -6.0479908 1.7610769
5.755322 -6.6453118 1.9042424
6.3276544 -6.7827449 1.916754
6.924643 -6.8990836 1.921828
4.8393264 -6.0277491 1.4564064
7.0696745 -8.1672325 1.9237467
7.8379765 -8.4102211 1.9347603
8.7025423 -8.6770811 1.949946
4.8282566 -6.0150366 1.160722
9.1725626 -10.607436 1.9698513
10.45624 -11.231426 2.0071685
9.7748575 -9.7636251 1.6753204
4.8531384 -6.0481963 0.87680644
10.006447 -11.572174 1.5812163
10.455338 -11.2395 1.4402457
9.1464691 -9.1448927 1.0924593
4.8371434 -6.0302024 0.58967566
4.2966847 -4.9721513 0.43774158
9.2998362 -10.002234 0.78151673
9.1479874 -9.1524792 0.61523288
3.2799287 -4.0915408 0.20704228
4.453383 -5.1585774 0.20392968
4.2648101 -4.5915809 0.12886088
9.1539364 -9.1661072 0.14131433
3.1999767 -3.9929471 0.014557266
3.9510856 -4.5801334 -0.041279495
3.7586286 -4.0498748 -0.088920206
9.1311655 -9.1500111 -0.33150014
3.2066839 -4.0056124 -0.17380089
3.5602891 -4.1301785 -0.23607606
3.7405403 -4.035326 -0.29086804
4.147244 -4.1578345 -0.3663846
3.2938302 -4.120069 -0.37237075
3.589113 -4.1680269 -0.44061771
4.2033906 -4.5360818 -0.55421138
3.1424518 -3.1523466 -0.44208208
0 -0 -0
3.5918441 -4.1748815 -0.64501685
2.8893025 -3.1196237 -0.53821725
4.0400262 -4.054728 -0.78173125
0.67884833 -0.8510505 -0.15772788
3.346904 -3.8945796 -0.79303235
3.2720332 -3.5355859 -0.79206097
3.2313659 -3.2441442 -0.79856712
0 -0 -0
0.65947747 -0.76812404 -0.19502808
0 -0 -0
0 -0 -0
0 -0 -0
0 -0 -0
0 -0 -0
0 -0 -0
0 -0 -0
0 -0 -0
0 -0 -0
0 -0 -0
3.8225188 -4.8301959 1.90299
4.1013379 -4.793509 1.8737301
4.4294786 -4.7959166 1.8699164
4.8177252 -4.8407564 1.8851607
4.3976789 -5.549808 1.8905828
4.8177891 -5.6338592 1.8978004
5.2258062 -5.6666489 1.8952277
5.6640997 -5.7047019 1.8935274
4.7670622 -6.0157485 1.7431384
5.7131677 -6.6790147 1.9038188
6.2772903 -6.8120813 1.9141234
6.861455 -6.9205384 1.9160404
4.7582932 -6.0018845 1.4430754
7.0194283 -8.2104578 1.9237467
7.8062611 -8.4799204 1.9397391
8.6435757 -8.7247028 1.9486923
4.7353606 -5.9740295 1.1471803
9.1201668 -10.678579 1.9726335
10.31397 -11.215817 1.9930316
11.079453 -11.20337 1.9106621
4.7418828 -5.9844031 0.86332405
9.9119968 -11.606124 1.5775151
10.391565 -11.309306 1.440993
9.1805258 -9.2922831 1.1033165
4.7573323 -6.0058384 0.58442771
4.2790504 -5.0136003 0.43907088
9.3571434 -10.188524 0.79157132
9.1835899 -9.3015518 0.62145406
3.2498002 -4.1053214 0.20672667
4.4002457 -5.1607056 0.20294262
4.0838027 -4.4511681 0.12421464
9.1544037 -9.2797623 0.14219788
3.1729341 -4.0093703 0.014545887
3.95274 -4.6393042 -0.041593406
3.7134383 -4.0507498 -0.088437468
9.1674871 -9.29984 -0.33488411
3.1758473 -4.0173726 -0.17346236
3.5543096 -4.174768 -0.23737365
3.6948044 -4.0353694 -0.28923157
4.1048422 -4.1661406 -0.36489016
3.1683567 -4.0133653 -0.36096305
3.4472287 -4.0532923 -0.42624456
4.1976709 -4.5860333 -0.55715692
3.1740189 -3.2233293 -0.44929692
0 -0 -0
3.2651749 -3.842627 -0.59057719
2.8768027 -3.144613 -0.539473
4.0296659 -4.0942698 -0.78457296
0 -0 -0
3.3242235 -3.9165497 -0.79333764
3.2662559 -3.5730753 -0.7959547
3.2300541 -3.2828703 -0.80320591
0 -0 -0
0 -0 -0
0 -0 -0
0 -0 -0
0 -0 -0
0 -0 -0
0 -0 -0
0 -0 -0
0 -0 -0
0 -0 -0
0 -0 -0
0 -0 -0
3.7704537 -4.8249516 1.8917733
4.0842228 -4.8332281 1.8794245
4.4265323 -4.8521233 1.8812058
4.7953658 -4.8777876 1.8880874
4.3718781 -5.5873394 1.8941941
4.7737536 -5.6522131 1.8940802
5.1948619 -5.7029142 1.8966602
5.6283078 -5.7386537 1.893298
4.6891961 -5.992662 1.728079
5.6481118 -6.685575 1.8957744
6.2347145 -6.8497453 1.913921
6.8085642 -6.9519944 1.9131469
4.6983576 -6.001564 1.4360397
6.9600258 -8.2428427 1.9212921
7.7182579 -8.4882603 1.9307773
8.5912609 -8.778986 1.9490057
4.6815495 -5.9811687 1.1430136
9.0544729 -10.734339 1.9726335
10.195622 -11.224579 1.9834343
10.768398 -11.023307 1.8686497
4.6848674 -5.9875607 0.85961634
9.8194332 -11.641633 1.5741224
10.210233 -11.249734 1.425393
9.1177692 -9.3427343 1.1026433
4.6859899 -5.9909339 0.58016849
4.244348 -5.0351844 0.4386721
9.3521395 -10.30934 0.79648435
9.2093363 -9.4428234 0.62710541
3.2196264 -4.1188869 0.20641106
4.2217002 -5.0132856 0.19612303
4.0765548 -4.4983673 0.12483141
9.1782436 -9.4188318 0.14346322
3.1451945 -4.0248237 0.014531663
3.8295553 -4.5509963 -0.040590253
3.6784465 -4.0623412 -0.088196099
3.9152532 -4.0208306 -0.14392094
3.1339183 -4.0147247 -0.17251448
3.5485587 -4.2202024 -0.23871449
3.6686349 -4.0564833 -0.28912598
3.9051747 -4.0124412 -0.34932318
3.1344721 -4.0209293 -0.35990676
4.4724464 -5.3246136 -0.55704045
3.8134258 -4.2179132 -0.50958169
3.7612884 -3.8668978 -0.53577626
0 -0 -0
0.70296055 -0.83764255 -0.12807278
2.8561234 -3.1607335 -0.53922188
3.8159165 -3.9249783 -0.74763113
0 -0 -0
1.8957649 -2.2615433 -0.45573413
3.2647703 -3.6157532 -0.8009842
3.2064171 -3.2990954 -0.80234683
0 -0 -0
0 -0 -0
0 -0 -0
0 -0 -0
0 -0 -0
0 -0 -0
0 -0 -0
0 -0 -0
0 -0 -0
0 -0 -0
0 -0 -0
0 -0 -0
3.7232671 -4.8253026 1.882918
4.039134 -4.839798 1.8723065
4.4192009 -4.9041886 1.8908432
4.77139 -4.9133434 1.8904822
4.3351498 -5.6110015 1.8931623
4.7321568 -5.6732144 1.8913521
5.1623697 -5.7375698 1.8976153
5.607213 -5.7877612 1.8981127
4.619545 -5.9788799 1.7158984
5.6270194 -6.7441192 1.9025488
6.1729259 -6.866024 1.9078503
6.7507701 -6.9781251 1.9089026
4.6265855 -5.9851847 1.425301
6.9042735 -8.2793446 1.9198895
7.6699829 -8.5398607 1.9317729
8.5166388 -8.8102331 1.9443045
4.6199684 -5.9777026 1.1369123
8.9820986 -10.782084 1.9712424
10.097422 -11.254452 1.9777277
9.8657722 -10.224071 1.7228702
4.6267772 -5.9886723 0.85568398
9.7007036 -11.645109 1.5665145
10.07389 -11.237295 1.4159583
9.6992836 -10.061371 1.1804116
4.6119637 -5.9714365 0.57552898
4.2472076 -5.1017747 0.44219476
9.431282 -10.525648 0.80870986
9.2510166 -9.6027403 0.63394397
3.1802504 -4.1203709 0.20550367
4.1914988 -5.0398636 0.19615294
4.0268722 -4.4987125 0.12415297
4.3153505 -4.4831772 0.067881063
3.1106651 -4.0313792 0.014486143
4.0278115 -4.8466582 -0.043006014
3.6547842 -4.0863261 -0.088228278
3.8884289 -4.0426168 -0.14384404
3.1025138 -4.0251708 -0.17214209
3.419198 -4.117384 -0.23170748
3.6503284 -4.0863647 -0.2896539
3.8701057 -4.0255351 -0.34838918
3.1091328 -4.0392962 -0.35983634
4.1984863 -5.0611887 -0.52677691
3.6959212 -4.1387119 -0.49726391
3.7388697 -3.8913388 -0.53597391
0 -0 -0
0.71555388 -0.86335176 -0.13132986
2.8280878 -3.168577 -0.53758937
3.8054874 -3.962611 -0.75033748
0 -0 -0
0.72727996 -0.87849814 -0.17612767
3.227417 -3.6187794 -0.79725266
3.191572 -3.3243928 -0.80372137
0 -0 -0
0 -0 -0
0 -0 -0
0 -0 -0
0.52862823 -0.69081086 -0.19290844
0 -0 -0
0 -0 -0
0 -0 -0
0 -0 -0
0 -0 -0
0 -0 -0
0 -0 -0
3.6906943 -4.8442574 1.8814422
4.0099711 -4.8652301 1.8725911
4.3743258 -4.9146957 1.88451
4.7211337 -4.9216585 1.8824998
4.3059139 -5.6444097 1.895484
4.6898661 -5.693171 1.8883759
5.1231971 -5.7647824 1.8961828
5.5715942 -5.8220572 1.8981127
4.5638452 -5.9823027 1.7088118
5.5892611 -6.7830439 1.9038188
6.1339321 -6.9074326 1.9088621
6.7179947 -7.0300565 1.9117965
4.5700984 -5.9876814 1.4191909
6.8458319 -8.3124332 1.9177855
7.6122036 -8.5808611 1.9304454
8.4521894 -8.8516092 1.9419538
4.5670061 -5.9847126 1.1328944
8.8912354 -10.807171 1.9658173
10.033437 -11.322134 1.9787652
10.672726 -11.197019 1.8757521
4.5676455 -5.9877176 0.85152692
9.596839 -11.665236 1.5612712
10.138736 -11.450213 1.4349211
10.647485 -11.181474 1.3041338
4.5607252 -5.9805937 0.57370353
9.6083775 -11.686744 1.0078158
9.4439354 -10.670791 0.81539387
9.2793713 -9.7512197 0.63997519
3.1476405 -4.13027 0.20503025
4.2188621 -5.1365495 0.19890471
4.5322857 -5.126298 0.14070259
4.3318582 -4.5559492 0.068579175
3.0846584 -4.048799 0.014480454
4.1229739 -5.0235567 -0.044350374
3.64222 -4.1229119 -0.088534012
3.841517 -4.0432091 -0.14302368
3.0723102 -4.036974 -0.17183742
3.2570255 -3.9714258 -0.22236478
3.6132939 -4.0952072 -0.28870368
3.8137178 -4.0159149 -0.34552485
3.0523 -4.0162053 -0.3561042
4.1439795 -5.0583248 -0.52382243
4.4808435 -5.0800719 -0.60705292
3.7272532 -3.9271991 -0.53775293
0 -0 -0
0.66683573 -0.81469411 -0.1233035
2.7967834 -3.1724746 -0.53532898
3.9665771 -4.181407 -0.78714401
0 -0 -0
0.781928 -0.95639521 -0.19077952
3.2005861 -3.6333313 -0.79611695
3.1717918 -3.3446281 -0.80389321
0.5403102 -0.71370101 -0.1636944
0 -0 -0
0 -0 -0
0 -0 -0
0.51849425 -0.686252 -0.19074336
0 -0 -0
0 -0 -0
0 -0 -0
0 -0 -0
0 -0 -0
0 -0 -0
0 -0 -0
3.6603267 -4.8660483 1.881147
4.0078797 -4.9239426 1.8856882
4.3263154 -4.9212275 1.8768003
4.6981392 -4.958231 1.8854268
4.2711992 -5.6707239 1.895484
4.6762424 -5.7481422 1.8970563
5.0832443 -5.7910004 1.8945115
5.5237303 -5.8434024 1.893986
4.5176654 -5.9977303 1.7052683
5.5259452 -6.7906795 1.8964094
6.0972447 -6.9515657 1.9106833
6.6679974 -7.0640097 1.9098672
4.5220356 -6.0006986 1.415673
6.7797899 -8.3359509 1.9135774
7.560709 -8.628891 1.9307773
8.4017839 -8.9076157 1.9428941
4.5218678 -6.0015655 1.1308111
8.8228827 -10.859217 1.9654001
9.9938173 -11.417806 1.9847312
10.586809 -11.244226 1.8727427
4.5212545 -6.0029316 0.84972924
9.5012465 -11.694565 1.5573643
10.084674 -11.530944 1.4372565
10.545906 -11.211755 1.3000939
4.487958 -5.9606714 0.56914008
9.4981232 -11.698229 1.0037615
4.3458252 -4.9715223 0.37784734
9.340456 -9.9367962 0.64838094
3.1114244 -4.1351342 0.20432013
3.8333945 -4.7260637 0.18209502
4.5066643 -5.1607885 0.1408876
4.2250977 -4.4986229 0.067324743
3.0633643 -4.0724449 0.014497523
3.2389014 -3.9961259 -0.035103604
4.4431686 -5.0922008 -0.10876071
3.8029537 -4.0521255 -0.14251097
3.0408778 -4.0469604 -0.17146504
3.2206488 -3.9765847 -0.22154297
3.5841615 -4.1127839 -0.28838694
3.7692029 -4.0181303 -0.34371909
3.0275996 -4.0348582 -0.3561042
3.6225805 -4.4776473 -0.46137899
4.4162216 -5.0691705 -0.60250074
3.6949189 -3.9412835 -0.53656691
0.60009652 -0.80020934 -0.10763489
0 -0 -0
2.7655385 -3.1761081 -0.53306866
3.9523625 -4.2179575 -0.78944433
0 -0 -0
0.71396136 -0.8842811 -0.17551719
0.74743831 -0.85906833 -0.18722621
3.110801 -3.3208892 -0.79358464
0 -0 -0
0 -0 -0
0 -0 -0
0 -0 -0
0 -0 -0
0 -0 -0
0 -0 -0
0 -0 -0
0 -0 -0
0 -0 -0
0 -0 -0
0 -0 -0
3.6178679 -4.871541 1.8746532
3.9920056 -4.9663734 1.8925214
4.3269215 -4.9832492 1.8902924
4.6649928 -4.9841499 1.8843623
4.2282524 -5.6859703 1.8918725
4.6463451 -5.783524 1.8992885
5.0488877 -5.8235488 1.8949889
5.4937506 -5.8835883 1.8960493
4.462739 -6.0010791 1.6984029
4.8425789 -6.026062 1.6745477
6.062171 -6.9977293 1.9131116
6.6265354 -7.1069441 1.910446
4.4751587 -6.0149288 1.4125254
4.8216701 -6.0032616 1.3712745
7.5173001 -8.6863041 1.9332666
8.3267717 -8.9373217 1.9381928
4.4731536 -6.0133295 1.1278349
4.8164978 -6.0030427 1.0811161
9.9300556 -11.486413 1.9860281
10.463531 -11.250818 1.8631123
4.48908 -6.0369396 0.85062808
4.8273244 -6.0167518 0.7972908
10.002666 -11.579797 1.4356683
10.46674 -11.265303 1.2988315
3.2003195 -4.3052201 0.40919065
4.8185668 -6.0097032 0.51311338
4.3230677 -5.0071626 0.37853289
9.3139715 -10.031253 0.65080291
3.0788429 -4.1445222 0.20384671
3.2575459 -4.0668731 0.15592335
4.4448762 -5.1535172 0.13994192
4.2647424 -4.5970359 0.068404645
3.0418959 -4.0959816 0.014514592
3.2024484 -4.001091 -0.034973949
4.5104027 -5.2337375 -0.11119048
3.7725816 -4.0695186 -0.14230587
3.0118206 -4.0599241 -0.17122807
3.1893241 -3.9876888 -0.22106718
3.5757961 -4.1543765 -0.28975946
3.7309103 -4.0265403 -0.34247372
3.0158486 -4.0709934 -0.35765341
3.6174369 -4.5278268 -0.4642536
4.3707423 -5.0795622 -0.600537
3.7051485 -4.0011177 -0.54160744
0 -0 -0
0.66608214 -0.83445948 -0.12504835
2.7304728 -3.1749649 -0.53005487
3.9290993 -4.245038 -0.78998566
0 -0 -0
0 -0 -0
0 -0 -0
3.0930419 -3.3428063 -0.79427183
0 -0 -0
0 -0 -0
0.64344364 -0.74969685 -0.19999737
0 -0 -0
0 -0 -0
0 -0 -0
0 -0 -0
0 -0 -0
0 -0 -0
0 -0 -0
0 -0 -0
0 -0 -0
-0.10214914 2.3414755 0.72406304
-0.20563562 2.5060148 0.74681568
-0.28812051 2.3928041 0.69030786
-0.3696112 2.3325794 0.6518904
-0.10678975 2.4130278 0.64489788
-0.19546074 2.3896923 0.61383379
-0.30018446 2.5088561 0.62123746
-0.3663421 2.3298333 0.5555172
-0.1077422 2.4335876 0.55321562
-0.19744831 2.4098508 0.52374607
-0.29085603 2.4388301 0.50751895
-0.36761662 2.3488917 0.46743515
-0.10712219 2.4072225 0.45399296
-0.19593823 2.3991375 0.42868766
-0.29570886 2.4902394 0.42203599
-0.36561373 2.3419805 0.37610468
-0.10714308 2.4124322 0.36339527
-0.19554441 2.4093461 0.33955282
-0.28752571 2.4322019 0.32034802
-0.36479101 2.3504367 0.28842908
-0.10820648 2.4460068 0.27683896
-0.20088074 2.475632 0.25671634
-0.28481436 2.4175901 0.22839543
-0.36211196 2.3407223 0.20005977
-0.1077559 2.4445181 0.18664572
-0.20088489 2.485369 0.16609719
-0.28209147 2.3995233 0.13825077
-0.3648037 2.3633089 0.11369105
-0.10708412 2.4467499 0.096696012
-0.1941002 2.4161313 0.072532922
-0.28476384 2.4328732 0.050368398
-0.36481154 2.3699436 0.026157603
-0.10652012 2.4416678 0.0069528935
-0.19265893 2.4092529 -0.016494054
-0.28021938 2.4023995 -0.038924716
-0.36156902 2.3546178 -0.061090779
-0.10655893 2.4722855 -0.083819829
-0.19469248 2.4459653 -0.1062299
-0.27724829 2.3896115 -0.12716898
-0.36555383 2.3844514 -0.15050162
-0.10378835 2.4457071 -0.17280595
-0.19281761 2.4385529 -0.19595432
-0 0 -0
-0.34314704 2.2427378 -0.22534031
-0.10477878 2.4854305 -0.26769632
-0 0 -0
-0.19207606 1.6615889 -0.21172056
-0.35488242 2.3232346 -0.32097396
-0.10406371 2.5175409 -0.36506835
-0.091689646 1.1744614 -0.18192737
-0.11937265 1.0361422 -0.17148882
-0 0 -0
-0.040589403 1.0005713 -0.18312186
-0.073459253 0.94669563 -0.1829216
-0.10254338 0.89487344 -0.18233886
-0.13472064 0.88474035 -0.19055161
-0 0 -0
-0.067584559 0.87614071 -0.20350406
-0.10337142 0.90293556 -0.21965168
-0 0 -0
-0 0 -0
-0 0 -0
-0.092283227 0.80795348 -0.22960848
-0.11888517 0.77873594 -0.23125245
-0 0 0
-0.18104339 2.3858347 0.71065646
-0.27059734 2.3696935 0.68314868
-0.36297771 2.3853114 0.6659925
-0 0 0
-0.18232819 2.4111323 0.61904204
-0.27887452 2.4585464 0.60834467
-0.35567188 2.3560989 0.56124896
-0.093736775 2.4585643 0.55875218
-0.18553743 2.449024 0.53200233
-0.28930649 2.5592885 0.53220683
-0.35713291 2.3773019 0.47264388
-0.092914678 2.422564 0.45677021
-0.18358544 2.4317095 0.43429831
-0.29089937 2.5851016 0.43780214
-0.35240754 2.3519938 0.37735838
-0.092527717 2.4179847 0.36413932
-0.18334901 2.4450631 0.34442145
-0.2725966 2.4339204 0.32034802
-0.35109326 2.3575401 0.28903097
-0.090926632 2.3870475 0.27009773
-0.18509184 2.4688826 0.25589386
-0.26942286 2.4143448 0.22792836
-0.35695931 2.4049962 0.20536214
-0.09128049 2.4062743 0.18367946
-0.18392268 2.4636693 0.1645685
-0.26371711 2.3684652 0.13636553
-0.35366127 2.3882289 0.11478332
-0.091430537 2.4303858 0.096025325
-0.18577696 2.5049963 0.075165041
-0.26828876 2.4206631 0.050080582
-0.35172364 2.3820298 0.026266687
-0.092023224 2.4552662 0.0069898772
-0.17949145 2.4323297 -0.016644187
-0.26404658 2.3911541 -0.03871553
-0.35119307 2.3844841 -0.061808582
-0.089578718 2.4239542 -0.082161032
-0.17953435 2.4451213 -0.1061434
-0.26323467 2.3972235 -0.12748572
-0.34801251 2.3669007 -0.14925627
-0.087332703 2.4064233 -0.16998921
-0.22938034 3.146544 -0.25272837
-0.26629975 2.4286525 -0.21895321
-0.34281462 2.3363652 -0.23453182
-0.088345684 2.4532373 -0.26416555
-0.23364519 3.2244489 -0.37863478
-0.16235177 1.4842336 -0.18899137
-0.3400462 2.3214469 -0.32043266
-0.084263742 2.3945003 -0.34714472
-0.078173794 1.087271 -0.16834386
-0.11589956 1.0633408 -0.17586935
-0.14704682 1.0049684 -0.17713483
-0.035362937 1.0273454 -0.18797873
-0 0 -0
-0.098634675 0.91010195 -0.18531501
-0.13211544 0.90490663 -0.19471668
-0 0 -0
-0.062483251 0.88042593 -0.2044065
-0.096887492 0.8948555 -0.21753739
-0.12313718 0.84135669 -0.21467455
-0 0 -0
-0 0 -0
-0.086703934 0.80276364 -0.22797813
-0.11257589 0.76900744 -0.22815406
-0 0 0
-0.16833411 2.414633 0.71891326
-0.25997388 2.407629 0.69361204
-0.35905078 2.4609404 0.68648052
-0 0 0
-0.16826865 2.4228368 0.6217702
-0.25902173 2.415796 0.59736204
-0.33897832 2.3428235 0.55758065
-0.076997377 2.4074357 0.54701459
-0.16928571 2.4325669 0.52819175
-0.25903341 2.4246876 0.50387645
-0.35847792 2.4901657 0.4946363
-0 0 0
-0.16913792 2.4396653 0.43552563
-0.25313789 2.3809109 0.40295061
-0.33796933 2.3541119 0.37735838
-0.078292735 2.4372859 0.36696672
-0.17106253 2.4856596 0.3499856
-0.25828311 2.4414635 0.32112619
-0.34307027 2.4048579 0.29456842
-0.077737845 2.4332459 0.27526599
-0.16905198 2.4570711 0.25455731
-0.2558558 2.4278343 0.22904932
-0.338269 2.3795183 0.20300554
-0.075500295 2.3748977 0.18124561
-0.16907513 2.4687331 0.16483435
