# .PCD v0.7 - Point Cloud Data file format
VERSION 0.7
FIELDS x y z
SIZE 4 4 4
TYPE F F F
COUNT 1 1 1
WIDTH 1540
HEIGHT 1
VIEWPOINT 0 0 0 1 0 0 0
POINTS 1540
DATA ascii
0.89205599 -0.15932709 0.093659826
0.87048346 -0.12306091 0.08248391
0.87211937 -0.091226779 0.074065037
0 -0 0
0.85941595 -0.15377599 0.058157284
0.86296332 -0.12221287 0.049873106
0.88215423 -0.092572212 0.042171117
0 -0 0
0.88152039 -0.15817578 0.026799792
0.88590676 -0.12591954 0.018399885
0.8770926 -0.092412509 0.0096209366
0 -0 0
0.87297869 -0.15697338 -0.0060530519
0.88196921 -0.1257211 -0.014337297
0.88079911 -0.093129463 -0.022713566
0 -0 -0
0.90555429 -0.16317357 -0.039836213
0.88275373 -0.12638317 -0.047140684
0.88134122 -0.093404539 -0.05529394
7.7315869 -1.6907951 -0.55869699
0.91617471 -0.16558263 -0.074580811
0.88043797 -0.12619276 -0.079708613
0.88068271 -0.093599007 -0.087961785
7.5553222 -1.6544591 -0.83229804
7.5144582 -1.3614936 -0.89441562
0.99281335 -0.14256473 -0.12695698
1.033504 -0.11009625 -0.14194843
0 -0 -0
5.1729193 -0.94023031 -0.81195772
1.0001189 -0.14400573 -0.16613486
0.9795714 -0.10450658 -0.17180875
4.386023 -0.96775097 -0.8213501
4.1075754 -0.74859309 -0.8043254
3.9567468 -0.57219392 -0.80931473
0.99197376 -0.10614493 -0.2124182
3.5533354 -0.78760099 -0.80714101
3.3542278 -0.61287057 -0.7896499
3.3121409 -0.47933015 -0.80883503
0.99881834 -0.1065247 -0.25359502
3.019002 -0.67215109 -0.80910516
2.9395375 -0.53938013 -0.81215638
2.8039138 -0.40652943 -0.79996145
1.0132581 -0.10802893 -0.29913533
0.96406376 -0.21583278 0.30521041
0.86641806 -0.15942685 0.26165596
0.84483618 -0.12251329 0.24451271
0.84537059 -0.090540856 0.23468055
0 -0 0
0.8974579 -0.16538131 0.23362884
0.84561235 -0.12327389 0.21010335
0.86512786 -0.093695566 0.20496592
8.1917086 -1.8283901 1.9061356
0.8765927 -0.16140978 0.19307049
0.86436027 -0.12634593 0.18050513
0.87008804 -0.094862737 0.17208096
0 -0 0
0.91106254 -0.16800343 0.16498776
0.87129211 -0.12780964 0.14820218
0.87967968 -0.096250281 0.14041241
8.2317448 -1.8361197 1.2692049
0.89976096 -0.16639031 0.12853207
0.86620486 -0.12752673 0.11452118
0.88116068 -0.097206131 0.10749882
7.7564392 -1.7315222 0.89860296
0.86758679 -0.16045609 0.09119238
0.86872703 -0.12825437 0.082390495
0.87055278 -0.096466541 0.073980875
7.7615719 -1.7339479 0.60663658
0.87317258 -0.16177288 0.059154265
0.86713535 -0.12823589 0.050158747
0.87064922 -0.096769504 0.041648727
7.7940898 -1.7437835 0.31533709
0.87660229 -0.16285144 0.026680151
0.88808435 -0.13179329 0.018461561
0.88048416 -0.098236009 0.0096645691
7.8340421 -1.7538706 0.022838721
0.88969463 -0.16562104 -0.0061758873
0.87920326 -0.13083604 -0.014305115
0.87524378 -0.097976141 -0.022585386
7.7955084 -1.7495306 -0.27062026
0.90650028 -0.16909328 -0.039922718
0.88196164 -0.13179727 -0.047140684
0.88571066 -0.099366955 -0.055605281
7.8115706 -1.7585781 -0.56524587
0.90828288 -0.16991796 -0.074021861
0.88260221 -0.13203472 -0.079976387
0.88602501 -0.099668428 -0.088554785
7.6255322 -1.7189336 -0.84117848
7.3956528 -1.3868896 -0.881271
0.98603308 -0.14777161 -0.12620352
1.0259171 -0.11565866 -0.14100121
0 -0 -0
5.143743 -0.96756834 -0.80829477
4.8165355 -0.72372001 -0.80082196
0.98576421 -0.11128877 -0.17301142
4.3339577 -0.98418874 -0.81271571
4.1260629 -0.77815008 -0.80886525
3.961884 -0.59777737 -0.81110042
1.0136567 -0.11476024 -0.21720803
1.424895 -0.32501486 -0.32411215
3.3829508 -0.6395936 -0.79732072
3.3091376 -0.49964404 -0.80883503
0.98562092 -0.11123775 -0.25041282
0 -0 -0
2.9162633 -0.55362701 -0.80664939
2.8042212 -0.42415801 -0.80077654
0 -0 -0
0 -0 0
0.88519931 -0.16850457 0.26763505
0.84216744 -0.12740719 0.243962
0.84288353 -0.095509186 0.2341484
6.9954453 -1.6066369 1.9163786
0.87263572 -0.16634974 0.22742851
0.84484005 -0.12846015 0.21010335
0.86260253 -0.098780639 0.20450737
8.2373619 -1.8917152 1.9194235
0.90630811 -0.17263754 0.1998449
0.86453688 -0.13179477 0.1807075
0.86266631 -0.099413395 0.17073055
8.2631826 -1.8956712 1.5973073
0.92742187 -0.17691098 0.16814375
0.88706297 -0.13568822 0.15102349
0.87416697 -0.10107886 0.13962886
8.2550211 -1.8945572 1.2745621
0.94638264 -0.18102436 0.13534817
0.86834633 -0.13329059 0.11491027
0.88251972 -0.1028408 0.10773958
7.7679429 -1.7841983 0.90118706
0.91641217 -0.17530817 0.096435688
0.8708759 -0.13403673 0.082670741
0.87390321 -0.10226961 0.07431753
7.7721653 -1.7864534 0.60830981
0.89568257 -0.17163433 0.060749434
0.86633217 -0.13355412 0.050158747
0.87400734 -0.10257562 0.041838687
7.7968755 -1.7947122 0.31588939
0.90208977 -0.17331918 0.027487734
0.87935466 -0.13601735 0.018297093
0.87787867 -0.10340277 0.0096427538
7.811439 -1.7992129 0.022804582
0.88473386 -0.17032085 -0.0061485902
0.87739587 -0.13607503 -0.014289023
0.8785972 -0.1038139 -0.022687931
7.8177366 -1.8049744 -0.27177125
0.89857882 -0.17332773 -0.039619949
0.89100349 -0.13874286 -0.047668573
0.87418175 -0.10350878 -0.054920331
7.8210411 -1.8112018 -0.56672466
0 -0 -0
0.87783891 -0.13683417 -0.079619348
0.88836128 -0.10545501 -0.088851288
7.5993438 -1.7620972 -0.83946657
7.5985904 -1.4732662 -0.90651333
7.5172057 -1.1737692 -0.9630397
0.98878503 -0.11762106 -0.13599443
0 -0 -0
5.0756221 -0.98703766 -0.79852682
4.8110294 -0.75310749 -0.80065978
1.0016924 -0.11931603 -0.17593217
1.3592743 -0.31745738 -0.25525531
4.0826588 -0.79593658 -0.80129868
3.9862201 -0.62648869 -0.8168543
0.98379821 -0.11749805 -0.2109604
1.4105177 -0.3308534 -0.32129756
3.3694015 -0.65847039 -0.79506463
3.2138293 -0.50544184 -0.78628254
0.99165934 -0.11808585 -0.25212634
0 -0 -0
2.9298563 -0.57485479 -0.81136966
2.8310361 -0.44599915 -0.80920011
2.7840335 -0.33142149 -0.82304466
6.0060668 -1.4222438 1.9068272
0.8672182 -0.17060223 0.26251012
0.84991652 -0.13391891 0.24644017
0.84611017 -0.10113686 0.23521271
6.9929781 -1.6513062 1.9184422
0.84023249 -0.16552201 0.21924406
0.86897331 -0.13759007 0.21631095
0.85714847 -0.10348825 0.20336103
8.2664089 -1.9518589 1.9289463
0.90906751 -0.17895035 0.2006917
0.86854798 -0.1378646 0.1817193
0.86398816 -0.10494136 0.17111638
8.2695684 -1.9506241 1.6008252
0.9185915 -0.18107496 0.16674109
0.891083 -0.141904 0.15185329
0.86960876 -0.10596289 0.13900201
8.2701893 -1.9515325 1.2787287
0.93262482 -0.18433169 0.13353981
0.86849123 -0.13877261 0.11503996
0.87793076 -0.10777009 0.10725806
7.7732897 -1.8357104 0.90309709
0 -0 0
0.86708772 -0.13890533 0.082390495
0.86930346 -0.1071423 0.073980875
7.7765832 -1.8377779 0.60952675
0.89754897 -0.17770828 0.060948834
0.85662454 -0.13744384 0.049644593
0.87137884 -0.10769146 0.041743707
7.8100266 -1.8482721 0.3168757
0.90689188 -0.18001874 0.027667198
0.88245183 -0.14204596 0.018379327
0.88218939 -0.1094027 0.0096972939
7.812902 -1.8501046 0.022841565
0.87582606 -0.17418581 -0.006093997
0.88246703 -0.14241186 -0.014385571
0.87992769 -0.10944971 -0.022739202
7.8152657 -1.8549864 -0.27207592
0.91023576 -0.18137611 -0.040182237
0.89703566 -0.14532523 -0.048038095
0.880463 -0.10973476 -0.055356208
7.8330703 -1.864701 -0.56841469
0 -0 -0
0.88681453 -0.1438123 -0.08051195
0.9044838 -0.11300109 -0.090531461
7.5961266 -1.810537 -0.84032255
7.6234932 -1.5266886 -0.91058469
7.4236884 -1.2058741 -0.95198905
1.0037748 -0.12565506 -0.13815953
0 -0 -0
0 -0 -0
4.8189788 -0.78467482 -0.80276889
1.0077838 -0.12631769 -0.17713483
1.5495613 -0.37193987 -0.29141203
4.0902123 -0.82349181 -0.80375785
3.998745 -0.65362382 -0.82022732
1.005379 -0.1263371 -0.21575023
0 -0 -0
3.4684341 -0.69994563 -0.81943095
3.3344128 -0.54539239 -0.81658739
0.98033345 -0.12284226 -0.24943371
2.9826109 -0.72191739 -0.80277807
2.9347861 -0.59454566 -0.81372982
2.8766813 -0.47129697 -0.82305807
2.7828994 -0.34861702 -0.82332629
5.9962983 -1.4588437 1.9065319
0.87460995 -0.1776374 0.26507258
0.84907877 -0.13913138 0.24644017
0.84547371 -0.10632659 0.23521271
6.9939814 -1.6969168 1.9215379
0.9056536 -0.18418941 0.23660502
0.85086548 -0.14007995 0.21201339
0.86422229 -0.10972646 0.20519517
8.2770214 -2.0080619 1.9342613
0.86676884 -0.17615511 0.19158858
0.88314551 -0.14574261 0.18495706
0.85748816 -0.10949501 0.16995889
8.2679491 -2.0038745 1.6028618
0.92325157 -0.1878859 0.16779307
0.89603287 -0.14833528 0.15284905
0.87873858 -0.11255147 0.14056912
8.26863 -2.0048037 1.2803656
0 -0 0
0.88914281 -0.147673 0.11789326
0.87528384 -0.11290095 0.1070173
7.8053336 -1.8939157 0.908153
0.90152186 -0.18395545 0.095099166
0.86916548 -0.14471363 0.082670741
0.87159425 -0.11285809 0.074233368
7.7826018 -1.8896946 0.61089581
0 -0 0
0.88727772 -0.14795208 0.051472701
0.86079603 -0.11175015 0.041268807
7.8140736 -1.8999358 0.31750691
0.88814443 -0.18196864 0.027128808
0.8835358 -0.14778779 0.018420443
0.87753522 -0.11429705 0.0096536614
7.8179212 -1.9020276 0.022889929
0.88453633 -0.18156722 -0.0061622388
0.87368774 -0.14650108 -0.014256841
0.87824833 -0.1147173 -0.022713566
7.8231559 -1.9076403 -0.27275297
0 -0 -0
0.88923383 -0.1496664 -0.047668573
0.88175231 -0.11539413 -0.055480741
7.8505497 -1.9198374 -0.5705272
0 -0 -0
0.89377272 -0.15057471 -0.081226021
0.90278673 -0.11841935 -0.090432622
7.6515098 -1.8734272 -0.84770501
7.5848022 -1.5674067 -0.90709496
7.4004979 -1.2487612 -0.94997984
1.0049496 -0.13206993 -0.13843016
0 -0 -0
0 -0 -0
7.6569839 -1.2950647 -1.2768372
1.0177336 -0.13391262 -0.17902473
1.3438152 -0.3312884 -0.25309673
4.0677772 -0.84497863 -0.80035293
3.9598722 -0.67224181 -0.81308448
0.97743386 -0.12892242 -0.20991914
3.5433609 -0.8771475 -0.80952257
3.3782349 -0.70334285 -0.79912561
3.3463361 -0.56844628 -0.82034618
3.1501691 -0.41438505 -0.80215341
2.9527755 -0.73390412 -0.79594487
2.918803 -0.60997576 -0.81032073
2.8623507 -0.48700207 -0.8197974
2.7750001 -0.36493537 -0.82163626
5.9751835 -1.4925987 1.9026947
1.0086104 -0.21130569 0.306072
0.85958177 -0.14627388 0.2497444
0.84289402 -0.11126002 0.23468055
6.9946876 -1.7426019 1.9246334
0 -0 0
0.87391984 -0.14938872 0.21798223
0.86160308 -0.11477012 0.20473665
8.2749538 -2.061404 1.9366976
0 -0 0
0.88899142 -0.15231642 0.18637358
0.85485512 -0.11449389 0.16957305
8.2869673 -2.0623999 1.6089718
0.92882591 -0.19496304 0.1690204
0.93495315 -0.16067848 0.15965341
0.87411606 -0.11741526 0.13994229
8.2916784 -2.0643408 1.2858717
0 -0 0
0.90483135 -0.15598965 0.12009809
0.87555838 -0.1184025 0.10713768
7.8244205 -1.9494601 0.91174841
0 -0 0
0.86433679 -0.14936583 0.082297087
0.87187272 -0.11833799 0.07431753
7.8008528 -1.9448897 0.61325359
0 -0 0
0.87553203 -0.1515208 0.050844289
0.8630634 -0.1174338 0.041411277
7.8226271 -1.9529289 0.31833541
0 -0 0
0.88359737 -0.15337728 0.018441001
0.87780815 -0.11981459 0.0096645691
7.8284173 -1.9555357 0.02295536
0 -0 -0
0.88656336 -0.15425874 -0.014482117
0.88049924 -0.12051065 -0.022790475
7.8462057 -1.9643445 -0.27397168
0 -0 -0
0.89911962 -0.15700942 -0.048249252
0.87509483 -0.11998881 -0.055107135
7.8521667 -1.9713719 -0.57151306
7.7455225 -1.646706 -0.63433617
0.878115 -0.15348361 -0.079887129
0.88626969 -0.12178897 -0.088851288
7.6446919 -1.9215527 -0.84824002
7.6002984 -1.6192977 -0.91011941
7.1796613 -1.2568529 -0.92260432
0 -0 -0
0 -0 -0
1.3260028 -0.28328866 -0.20939963
4.8624411 -0.85313082 -0.81169212
1.0032301 -0.13827172 -0.1766194
4.3008704 -1.0883225 -0.81127661
4.1134052 -0.88081932 -0.81037861
3.9875269 -0.70213538 -0.81963205
0 -0 -0
3.527504 -0.89622825 -0.80714101
3.4710138 -0.74490905 -0.82213831
3.3303406 -0.58677572 -0.81729221
3.139883 -0.4326475 -0.8001951
3.0203986 -0.77041984 -0.81543219
2.9376462 -0.63275039 -0.81661445
2.8640471 -0.50539213 -0.82115602
2.7603517 -0.38025334 -0.81797451
5.9797959 -1.5327922 1.9071224
1.012917 -0.21870434 0.30778033
0.86624169 -0.15288208 0.25194719
0.84124058 -0.11629782 0.23441447
6.9885435 -1.7866843 1.9259232
0 -0 0
0.88254845 -0.15644312 0.22036976
0.85509837 -0.11924802 0.20336103
8.2687626 -2.1138301 1.9382478
0 -0 0
0.88996845 -0.1581109 0.18677829
0.85899508 -0.12041813 0.17053764
8.2970085 -2.1190453 1.6134155
0 -0 0
0.94074547 -0.16762312 0.16081512
0.88120335 -0.12387642 0.14119595
8.2941847 -2.1190951 1.2882526
8.2358522 -1.7859212 1.1837748
0.92435503 -0.16520204 0.1228217
0.87776423 -0.12418982 0.10749882
7.823864 -2.000387 0.91309667
7.7418389 -1.6789373 0.81877804
0.87516439 -0.15677319 0.083418041
0.86817056 -0.12326526 0.074065037
7.8216152 -2.001121 0.61583954
0 -0 0
0.90111828 -0.1616497 0.052386757
0.86924899 -0.12371245 0.041743707
7.8337283 -2.0068424 0.31928223
0 -0 0
0.88067168 -0.15844198 0.018399885
0.88893533 -0.12689416 0.0097954664
7.8249888 -2.0057678 0.022980964
7.8483348 -1.7116442 -0.054818675
0.88560015 -0.1596957 -0.014482117
0.87974322 -0.12591103 -0.022790475
7.8620772 -2.0196621 -0.27495342
7.7888155 -1.7016543 -0.34516066
0.90600049 -0.16394588 -0.048671566
0.88718557 -0.12719743 -0.055916619
7.8515148 -2.0225008 -0.57235807
7.78688 -1.7055038 -0.63856828
0 -0 -0
0.89141566 -0.12807383 -0.089444287
7.7078528 -1.9877899 -0.85658544
7.5999212 -1.6680311 -0.91128266
7.611084 -1.3805614 -0.9791134
0.99638832 -0.14340425 -0.13748294
0 -0 -0
0 -0 -0
4.8415818 -0.88012642 -0.80909628
4.6861434 -0.6752001 -0.82571286
4.3064895 -1.1179047 -0.81361514
4.1980596 -0.92592257 -0.82816005
4.0516024 -0.73907715 -0.83371919
3.8256702 -0.55244619 -0.82301635
3.4841492 -0.9080075 -0.79848069
3.43784 -0.75988483 -0.81536984
3.2932103 -0.60109061 -0.80906999
3.1870723 -0.45909378 -0.81292379
2.9557142 -0.77326715 -0.79923493
2.8687031 -0.6363439 -0.79851991
2.8665724 -0.52399439 -0.82278639
2.7427714 -0.39499506 -0.8134678
5.9721265 -1.5699404 1.9077127
0.99190503 -0.22054605 0.30180123
0.87758106 -0.16044195 0.25552678
0.84241921 -0.12173311 0.23494662
6.9596925 -1.8248756 1.9210219
7.2717242 -1.6188363 1.9072249
0.89207816 -0.16378433 0.22299604
0.86783528 -0.12645748 0.20657079
8.2792187 -2.1707094 1.9437844
8.2502842 -1.835475 1.8307824
0.87742388 -0.1614421 0.18434998
0.86891943 -0.12725052 0.17265971
8.3152208 -2.1781323 1.6195256
8.2479019 -1.8372114 1.5048777
0.94260859 -0.17392908 0.16131301
0.8804267 -0.12928106 0.14119595
8.3078098 -2.176966 1.2924193
8.2508345 -1.8422484 1.1875306
0.93112397 -0.17231414 0.12385926
0.87502152 -0.12928313 0.10725806
7.8210535 -2.0508759 0.91422009
7.7527494 -1.7311778 0.82103992
0.89768034 -0.16649777 0.085659958
0.87232625 -0.12932055 0.074485861
7.8400526 -2.057174 0.61827344
7.7636104 -1.736164 0.52992916
0.89912784 -0.16699351 0.05232963
0.85562921 -0.12713523 0.041126337
7.8405952 -2.0599494 0.32007125
7.7677054 -1.741066 0.23820709
0.8826316 -0.16439189 0.018461561
0.88814002 -0.13234617 0.0097954664
7.8434834 -2.0618792 0.023072002
7.7937789 -1.7499105 -0.054511588
0.87870628 -0.16402578 -0.014385571
0.87005579 -0.12997735 -0.022559751
7.8727322 -2.0739756 -0.2757659
7.8045444 -1.7553326 -0.3463285
0.89810669 -0.16821502 -0.04830204
0.87355649 -0.13071853 -0.055107135
7.8842859 -2.082612 -0.57566774
7.8132205 -1.7615824 -0.64160269
0 -0 -0
0.87683558 -0.13147521 -0.088060617
7.7108903 -2.039114 -0.85829735
7.6467023 -1.7275453 -0.91814578
7.5927191 -1.4254055 -0.97785759
5.7838345 -0.8686896 -0.79878134
0 -0 -0
0 -0 -0
4.8360901 -0.90981722 -0.80909628
4.636126 -0.69705689 -0.81763786
1.5285594 -0.40682 -0.28925338
4.0879226 -0.92797011 -0.80754113
3.9843891 -0.75210643 -0.82082248
3.7980297 -0.57226658 -0.81781006
2.9380603 -0.78497386 -0.67442179
1.392624 -0.31679425 -0.3307505
3.2502997 -0.61388975 -0.79943818
3.2398062 -0.48699993 -0.8271212
2.7715042 -0.74327368 -0.75064301
0 -0 -0
2.7980561 -0.5292325 -0.80403727
2.7251143 -0.40953541 -0.80896109
5.9494653 -1.6030751 1.9035803
1.0082879 -0.23069032 0.30721086
0.87658006 -0.16582365 0.25552678
0.84260964 -0.12704353 0.23521271
6.925971 -1.8615264 1.9148309
7.2852612 -1.6688319 1.9134252
0.89010245 -0.16907372 0.22275729
0.86030686 -0.13075623 0.20496592
8.261035 -2.2202032 1.942677
8.2483921 -1.8882439 1.8328993
0.90816402 -0.17286581 0.19102786
0.87491208 -0.13361666 0.17401013
8.3301716 -2.2367578 1.62508
8.2604656 -1.8932837 1.5092611
0.94346088 -0.18007931 0.16164492
0.89621341 -0.13722196 0.14386004
8.3191261 -2.2345703 1.2962884
8.2644691 -1.8986046 1.1911473
0.93491846 -0.17895623 0.12450774
0.86734366 -0.13359188 0.10641541
7.8255959 -2.1034694 0.91624254
7.7720337 -1.7856197 0.82422698
0.90348637 -0.17331569 0.086313851
0.87742496 -0.13558362 0.074990846
7.8465395 -2.1104205 0.61979455
7.7703137 -1.7877948 0.53112555
0.8941645 -0.17175402 0.052101117
0.85483301 -0.13238288 0.041126337
7.8654375 -2.1181531 0.32160988
7.7968097 -1.7979034 0.23943341
0.88455153 -0.1703718 0.018523237
0.89422786 -0.1388673 0.0098718228
7.8548231 -2.1164711 0.023143122
7.8150473 -1.8051258 -0.054736782
0.87473804 -0.16884583 -0.014337297
0.86035186 -0.13392957 -0.022329025
7.862752 -2.123024 -0.27586743
7.8023877 -1.8052143 -0.3467178
0.89215571 -0.17277323 -0.048038095
0.9111976 -0.14207269 -0.057535581
7.886764 -2.1351206 -0.57679439
7.8284817 -1.8155705 -0.64375859
7.7354646 -1.4992965 -0.7061308
0.88682735 -0.13854246 -0.089147791
7.752933 -2.1012135 -0.86439592
7.5875864 -1.7631915 -0.91232955
7.5935693 -1.473857 -0.9791134
7.5873861 -1.1872202 -1.0488487
0 -0 -0
1.3301889 -0.30989036 -0.21092586
4.7635832 -0.92647523 -0.79790163
4.5889378 -0.71878284 -0.81007826
0 -0 -0
1.4094851 -0.3290641 -0.27882776
3.9739273 -0.77541375 -0.81963205
3.7809191 -0.59343684 -0.81489444
1.5103801 -0.41348013 -0.34727848
1.3669389 -0.31978527 -0.32511014
3.295126 -0.64332068 -0.81141919
3.1831143 -0.49846953 -0.81341338
1.4767327 -0.40576532 -0.40062979
0 -0 -0
2.8467035 -0.55654705 -0.81898224
2.7291858 -0.42728761 -0.81093276
5.939517 -1.6395502 1.9035803
6.1857567 -1.4552634 1.8873965
0.88969821 -0.17396636 0.25965706
0.83038688 -0.13041656 0.23201977
6.9162817 -1.9045013 1.9153467
7.2984581 -1.7190546 1.9196255
0.87666065 -0.17210025 0.2196535
0.87294787 -0.13816278 0.20817567
8.2463169 -2.2705915 1.9424556
8.2585325 -1.9439702 1.8377686
0.88979012 -0.17503259 0.18738538
0.89151847 -0.14175598 0.1774826
8.3305035 -2.2917387 1.6278573
8.2707329 -1.9491273 1.5132937
0.9249233 -0.18243001 0.15865764
0.90023124 -0.14349578 0.14464359
8.3100262 -2.2868853 1.2970325
8.2767572 -1.9549696 1.1946249
0.94061184 -0.18603611 0.12541561
0.8723889 -0.13985412 0.10713768
7.8479881 -2.1612079 0.92039955
7.7890048 -1.8399061 0.82720846
0 -0 0
0.87165743 -0.14017381 0.074570023
7.8344045 -2.1587911 0.6198706
7.7679367 -1.8375061 0.53172368
0.88428038 -0.17548822 0.05158696
0.86189377 -0.13889691 0.041506253
7.8667412 -2.170361 0.32220167
7.8293982 -1.8560855 0.24077938
0.9109453 -0.18125923 0.019098874
0.89829463 -0.1451491 0.0099263638
7.8600035 -2.1696832 0.023197176
7.8154993 -1.8558164 -0.054818675
0.88643289 -0.17675173 -0.014546483
0.86839521 -0.14064448 -0.022559751
7.8726959 -2.1776235 -0.2766799
7.8096313 -1.8574471 -0.3475396
0.89695406 -0.17941938 -0.048354834
0.90341246 -0.14654237 -0.057099711
7.8946624 -2.1893373 -0.57834363
7.8317389 -1.8670384 -0.64495641
7.7632318 -1.5541619 -0.70952266
0 -0 -0
7.7207332 -2.1434255 -0.86225605
7.5872512 -1.812253 -0.91360915
7.6534472 -1.5342677 -0.9880293
7.6718845 -1.2487155 -1.0615686
0 -0 -0
0 -0 -0
4.8216586 -0.968512 -0.80860955
4.5708289 -0.74470872 -0.80767298
2.9512148 -0.82436532 -0.56033856
1.471414 -0.35305664 -0.29150173
3.9729381 -0.8005572 -0.82042569
3.7202542 -0.60732746 -0.80260754
0 -0 -0
3.3796983 -0.81255966 -0.8049916
3.257767 -0.65680337 -0.80319691
3.1417174 -0.51175612 -0.80362207
1.4667649 -0.41272238 -0.39860511
2.9174805 -0.70374811 -0.81556553
2.782861 -0.56181502 -0.80159175
2.7331419 -0.44510514 -0.81290448
5.938539 -1.6785623 1.9065319
6.2316856 -1.5064809 1.9041948
0.88767171 -0.1792319 0.25938171
0.84574389 -0.13815108 0.23654309
6.9044657 -1.9469029 1.9153467
7.2868314 -1.7635769 1.9193776
0.90033305 -0.18249172 0.2258611
0.8615188 -0.14177784 0.20565371
8.2406759 -2.3235288 1.9444488
8.2682972 -1.9998916 1.8426377
0.90213543 -0.1832177 0.19021842
0.89837652 -0.14850378 0.17902593
8.3465528 -2.3513374 1.6337821
8.2978487 -2.0093389 1.5204824
0.94987673 -0.1934143 0.16313857
0.91200048 -0.15111563 0.14668082
8.3386679 -2.3499017 1.3037289
8.2925148 -2.012491 1.1986589
0 -0 0
0.87053514 -0.14504121 0.1070173
7.8623142 -2.2171428 0.92365783
7.813334 -1.8963443 0.83101243
0 -0 0
0.87667787 -0.14650501 0.075075015
7.8450012 -2.2135909 0.62177205
7.7972383 -1.8950318 0.53451532
0 -0 0
0.88072842 -0.14748216 0.042456057
7.8753924 -2.2248375 0.32310906
7.8236895 -1.9055102 0.24095887
0.89316708 -0.18342616 0.01874938
0.89541483 -0.15032709 0.0099045476
7.8609776 -2.2219505 0.023239849
7.8350534 -1.9113202 -0.055037051
0 -0 -0
0.87047333 -0.14646782 -0.022636658
7.8928418 -2.2354207 -0.27786475
7.8291435 -1.9129192 -0.34892368
0 -0 -0
0.89855951 -0.15141946 -0.056850638
7.9060297 -2.2448208 -0.58017451
7.8453088 -1.9212224 -0.6470325
7.7906151 -1.6094242 -0.71291453
0 -0 -0
7.7600369 -2.2057099 -0.8681407
7.5364394 -1.8490701 -0.90883982
7.7021799 -1.5932574 -0.99556381
5.7795649 -0.97715116 -0.80054045
7.8451567 -2.2368612 -1.1819555
0 -0 -0
4.7924361 -0.99327266 -0.80471569
4.6137676 -0.78079528 -0.81609154
2.9498842 -0.84353989 -0.56105804
7.780859 -1.9175352 -1.5437675
3.886385 -0.80796236 -0.80356085
3.7145293 -0.62981611 -0.80219108
2.9212368 -0.8383823 -0.6739887
3.423831 -0.84542608 -0.81672359
3.338372 -0.69439757 -0.82410491
3.2016134 -0.54169917 -0.81977773
1.4893056 -0.42894393 -0.40543836
2.768857 -0.68590242 -0.77518058
2.8641555 -0.59654057 -0.82604712
2.7067075 -0.45786604 -0.80586267
5.9253745 -1.7141724 1.9056466
6.2437234 -1.5500017 1.9107435
0 -0 0
0.85438401 -0.14495021 0.23920387
6.8654699 -1.9814619 1.907866
7.282454 -1.8098904 1.9211136
0 -0 0
0.87118667 -0.14886479 0.20817567
8.2356329 -2.3767526 1.9466633
8.2738924 -2.0550635 1.8466599
0.87799013 -0.18393052 0.18536179
0.90325087 -0.15500909 0.18018343
8.3470764 -2.406863 1.6367445
8.2968273 -2.0630662 1.5225862
0 -0 0
0.93928325 -0.16156399 0.15122542
8.3535461 -2.4095182 1.3083421
8.2982674 -2.0678847 1.2013019
0.99356383 -0.20921035 0.13280825
0.88234556 -0.15257902 0.10858224
7.8600187 -2.2686498 0.92500609
7.8179593 -1.9483395 0.83276021
0 -0 0
0.87772602 -0.15222201 0.075243346
7.8609676 -2.2702615 0.62412983
7.8164425 -1.9505697 0.53664219
0 -0 0
0.88275927 -0.15339646 0.042598523
7.8827109 -2.2792244 0.32397702
7.8186378 -1.9551769 0.24116823
0 -0 0
0.89841604 -0.15650484 0.0099481801
7.8875413 -2.2818143 0.023359334
7.8474283 -1.9654328 -0.055207651
0 -0 -0
0.8892538 -0.15524462 -0.02314938
7.884737 -2.2854776 -0.27806789
7.8230724 -1.9623802 -0.3491832
0 -0 -0
0.90646183 -0.15847702 -0.057411049
7.9007277 -2.2957942 -0.58080822
7.8459396 -1.9724836 -0.64807057
7.7922831 -1.6596861 -0.71398568
7.8699064 -1.3783048 -0.79353392
7.7167616 -2.2446742 -0.86482388
7.6549749 -1.9280263 -0.92454356
6.1767054 -1.317273 -0.79941458
7.6745253 -1.3460194 -1.0641396
7.8198833 -2.2816298 -1.1802347
0 -0 -0
4.7553725 -1.0160621 -0.79952407
4.5603757 -0.80057341 -0.80750114
2.9512615 -0.86355793 -0.56231725
4.0877171 -1.0340335 -0.81227022
3.8871045 -0.83302587 -0.80475134
3.725044 -0.65513742 -0.80531484
2.9057336 -0.85326517 -0.67160714
3.3364198 -0.84559566 -0.79709512
3.3235941 -0.71262681 -0.82152081
3.1991844 -0.56150132 -0.82002252
1.4838617 -0.43725368 -0.40467912
1.3972622 -0.35524395 -0.39178613
2.8237448 -0.60622513 -0.81544977
2.7482655 -0.48225993 -0.81910127
5.9294038 -1.7548357 1.9103693
6.2052979 -1.5809466 1.9019171
0.98127735 -0.21069683 0.28746763
0.87626326 -0.15419941 0.24558973
6.8902469 -2.0344944 1.9181844
7.2364802 -1.8456821 1.9119372
0 -0 0
0.88175803 -0.15624547 0.21092688
8.2293119 -2.4297264 1.9486566
8.2980614 -2.1152072 1.8549161
0 -0 0
0.90228277 -0.16054842 0.18018343
8.3660831 -2.4680445 1.6434101
8.2906904 -2.1156399 1.5238135
0 -0 0
0.94994193 -0.16940501 0.15310594
8.3736963 -2.4710851 1.313848
8.3026915 -2.123179 1.2038058
7.7084374 -1.6725916 1.0317281
0.9048444 -0.16219385 0.11147134
7.8859758 -2.3286545 0.92972493
7.8318772 -2.0029273 0.83553612
7.7374849 -1.682147 0.74291569
0.92777359 -0.16677192 0.079619914
7.8641019 -2.3235383 0.62549883
7.8159261 -2.0014641 0.53743976
0 -0 0
0.92702204 -0.16695419 0.044783063
7.8906155 -2.3340678 0.32488438
7.8326344 -2.0098219 0.2419758
0 -0 0
0.89547074 -0.16165917 0.0099263638
7.9155822 -2.3426549 0.023484508
7.8478117 -2.0167825 -0.055296369
0 -0 -0
0.88926816 -0.16087601 -0.023175016
7.8791885 -2.3363717 -0.27837256
7.841846 -2.0183136 -0.35056731
7.8103175 -1.7124051 -0.42268243
0.9123469 -0.16528137 -0.057846922
7.9132648 -2.3521869 -0.58277994
7.8423758 -2.0228288 -0.64878917
7.8091931 -1.7134442 -0.7164849
8.0669146 -1.4638798 -0.81428891
7.7666926 -2.3109796 -0.87199247
7.6516552 -1.9771965 -0.92559046
6.1820717 -1.358128 -0.80117267
5.7466669 -1.0442816 -0.7976988
7.7915115 -2.3253236 -1.178084
0 -0 -0
4.722065 -1.0392826 -0.79498124
4.5699158 -0.83118457 -0.81007826
3.223912 -0.96485144 -0.61538303
4.1155124 -1.067975 -0.81908017
3.894362 -0.85960734 -0.80733067
3.7344255 -0.68043613 -0.8082304
3.5100787 -1.0541676 -0.81277019
3.3641691 -0.87463123 -0.8049916
1.3743614 -0.30351543 -0.34016645
3.1966326 -0.58129406 -0.82026726
1.4403936 -0.43406793 -0.39354345
1.4015925 -0.36551529 -0.3936218
2.8321877 -0.62624103 -0.81898224
2.7197657 -0.49447972 -0.81149608
5.9166956 -1.7906313 1.909779
6.2001181 -1.6202036 1.9033407
1.0222061 -0.226055 0.29985851
0.87150735 -0.1588816 0.24452542
6.8757839 -2.0761752 1.9176685
7.2353282 -1.8927464 1.9146652
7.6836553 -1.7052457 1.9350996
0.90663183 -0.16639705 0.21711713
8.2366533 -2.4869392 1.9539715
8.3151855 -2.1739943 1.8616906
8.2519178 -1.8346859 1.7467716
0.90321064 -0.16643734 0.18056926
8.3648949 -2.5235891 1.6461874
8.2985067 -2.1719549 1.5276709
8.2179823 -1.8315066 1.4169654
0.93528748 -0.17271957 0.150912
8.38867 -2.5315607 1.31861
8.3038759 -2.1778519 1.2058923
7.7299633 -1.7269927 1.0360081
0.91164064 -0.16919199 0.11243437
7.8829541 -2.3804452 0.93107319
7.829061 -2.0534685 0.83656412
7.763938 -1.7378557 0.74646533
0.91693652 -0.17063844 0.078778267
7.8783321 -2.3803999 0.62778062
7.8073583 -2.0503979 0.5377056
7.7994871 -1.7478143 0.4573701
0.90928704 -0.16952689 0.043975737
7.9134455 -2.3937225 0.32642299
7.8423877 -2.0636947 0.24266374
7.761909 -1.7435197 0.16358423
0.89741075 -0.16770169 0.0099590877
7.9039307 -2.3920491 0.023493044
7.8468928 -2.0679557 -0.055378262
7.7881818 -1.7527057 -0.12847248
0.89219469 -0.1670654 -0.02327756
7.9173083 -2.4006236 -0.28023449
7.8553953 -2.0732758 -0.35173514
7.8133006 -1.7633739 -0.42342147
0.90739179 -0.17014058 -0.057597853
7.9215889 -2.4076595 -0.58446997
7.8529449 -2.0770278 -0.65070564
7.8228207 -1.7668139 -0.71871638
8.0558252 -1.5129826 -0.81409127
7.7333417 -2.3528035 -0.86985254
7.6470599 -2.0261438 -0.92652106
6.1542692 -1.3916587 -0.79866117
5.7420988 -1.0798891 -0.7979694
7.7979212 -2.3794417 -1.1812384
0 -0 -0
4.7348466 -1.0725971 -0.79822606
4.5589209 -0.85811603 -0.8090474
4.1707997 -1.2761712 -0.7976054
1.4812851 -0.39411005 -0.29528502
3.934891 -0.89390856 -0.8168543
3.7292187 -0.70315605 -0.80802214
3.5072775 -1.0768313 -0.81363624
2.9483104 -0.78585893 -0.70662385
1.3667861 -0.31065005 -0.33875692
3.0967679 -0.58278608 -0.79554427
1.4867052 -0.45799342 -0.40695682
1.3965266 -0.37336069 -0.39283508
2.8339221 -0.64488846 -0.82061261
2.7515702 -0.51772332 -0.82191795
5.8964696 -1.8240782 1.9068272
6.1909862 -1.6584643 1.9036255
1.0329856 -0.23509622 0.30343804
0.88188297 -0.1663705 0.24771836
6.8472214 -2.113481 1.9132831
7.2273211 -1.9381098 1.9156574
7.6522198 -1.7476031 1.929847
0.8769055 -0.16650949 0.21023908
8.1998072 -2.530817 1.9488779
8.3224573 -2.2305405 1.8663479
8.2500515 -1.8874682 1.7487953
0.91084713 -0.17362982 0.1823055
8.3633385 -2.5792115 1.6489646
8.3125992 -2.2302313 1.5327556
8.2690678 -1.8962238 1.4277529
0.94779152 -0.1810495 0.15310594
8.3852634 -2.5867746 1.3205445
8.3276529 -2.2387891 1.2113174
7.7472453 -1.7808322 1.0397693
0 -0 0
7.8852897 -2.4340446 0.93309551
7.8460922 -2.1094742 0.83975124
7.7608905 -1.7872492 0.74721271
0 -0 0
7.8873949 -2.4360516 0.62968206
7.8534031 -2.1140854 0.54175997
7.8012629 -1.7985538 0.45811275
0.90822971 -0.17510298 0.043975737
7.9081554 -2.4451852 0.32681751
7.8450193 -2.1159408 0.24314232
7.7861333 -1.7992167 0.16432434
0.89832836 -0.17358436 0.0099809039
7.9053454 -2.4455256 0.023541408
7.8630176 -2.1238871 -0.055582985
7.8035822 -1.8065488 -0.12890695
0.90293014 -0.17481688 -0.023585193
7.9348865 -2.4592173 -0.28138545
7.8695302 -2.1287413 -0.35294625
7.8149796 -1.8142179 -0.42410776
0.9180885 -0.17798445 -0.058345068
7.9180984 -2.4597714 -0.58531499
7.8775744 -2.1353445 -0.65381986
7.8283253 -1.818612 -0.7202338
8.0639725 -1.5657979 -0.81587023
7.7054677 -2.3960769 -0.86835462
7.1437302 -1.9397706 -0.86696321
6.1224236 -1.4240004 -0.79564738
5.7625971 -1.1203963 -0.80175829
7.7349906 -2.4122176 -1.1739256
0 -0 -0
4.7675776 -1.1108098 -0.804878
4.5893488 -0.89303505 -0.81540436
4.1957507 -1.3120142 -0.80390143
1.3878917 -0.37839571 -0.27712527
1.4516672 -0.33916259 -0.30178174
3.7257943 -0.72621202 -0.8082304
3.4931521 -1.0959933 -0.81190419
1.5450202 -0.42198867 -0.37090981
1.3648543 -0.31903064 -0.33875692
3.1692722 -0.61658949 -0.81512684
1.4746389 -0.46420217 -0.40442601
1.4025859 -0.3842172 -0.39519528
1.3652918 -0.31950992 -0.39590478
2.7389231 -0.53276479 -0.81910127
5.8560138 -1.8510091 1.8973817
6.1862397 -1.6979427 1.9053338
6.4596596 -1.5118957 1.9002053
0.90733713 -0.17694478 0.25516853
6.8304391 -2.1542926 1.9122514
7.2255683 -1.9852424 1.9183854
7.6073194 -1.7865307 1.9212518
0.89879072 -0.17638563 0.21574153
8.178545 -2.5793228 1.9475492
8.322751 -2.2854462 1.8695235
8.2611942 -1.9434364 1.7536519
0.91650355 -0.18054292 0.1836559
8.3998432 -2.6470199 1.6593332
8.3186932 -2.2866743 1.5364375
8.2755136 -1.951226 1.4309062
0.96022803 -0.18953928 0.15529989
8.3833809 -2.6426363 1.3227767
8.3233061 -2.292474 1.2127085
7.7824912 -1.8392817 1.0459948
0.93968242 -0.18635295 0.11616614
7.9005313 -2.4919469 0.93669087
7.8483448 -2.1618035 0.84139621
7.7972512 -1.8460752 0.75178993
0 -0 0
7.8913169 -2.4904037 0.63120323
7.8575978 -2.1670084 0.54295641
7.797852 -1.8482296 0.45856979
0.91399556 -0.18203823 0.044308167
7.9120598 -2.4996834 0.32760656
7.8492303 -2.1688287 0.2436807
7.8158016 -1.8566628 0.16518781
0.9070524 -0.18105043 0.010089985
7.9178429 -2.5027263 0.02362391
7.8604388 -2.1750271 -0.05565805
7.8205585 -1.8611096 -0.12937358
0 -0 -0
7.9301281 -2.5111773 -0.28175783
7.877501 -2.182857 -0.35389781
7.827013 -1.8676983 -0.42537472
0 -0 -0
7.9085617 -2.5101204 -0.58573753
7.8912168 -2.1911075 -0.65605569
7.841239 -1.8723949 -0.72246534
8.0649462 -1.6174005 -0.81695747
1.6033182 -0.5093745 -0.18103205
7.666594 -2.1323411 -0.9319883
6.1473417 -1.4696136 -0.80004251
5.7517285 -1.1549537 -0.80121708
2.9005566 -0.92412752 -0.44106454
2.8797822 -0.80269873 -0.46168646
1.5171584 -0.36331519 -0.25650313
4.5161753 -0.90759122 -0.80337769
4.1304617 -1.3194746 -0.79292846
2.9545658 -0.82504421 -0.59094834
1.4733846 -0.35378444 -0.30674201
3.7855105 -0.76199085 -0.82218337
3.4761348 -1.1141285 -0.80952257
1.5358346 -0.42962369 -0.36933053
3.257848 -0.78262496 -0.80977476
3.1844409 -0.63984412 -0.82002252
1.492025 -0.47975686 -0.40999386
1.4392254 -0.40376383 -0.40620932
1.338042 -0.32180515 -0.38856819
2.7346618 -0.54937148 -0.81881952
5.8445458 -1.8869061 1.8973817
6.1507883 -1.7288651 1.8976464
6.4633465 -1.5546505 1.9040601
0.89205968 -0.17965409 0.25117737
6.8170919 -2.1961629 1.9122514
7.2113862 -2.0290155 1.9178895
7.5905509 -1.831808 1.9198194
0.87575006 -0.17745124 0.21046835
8.1458559 -2.6240745 1.9435627
8.3255062 -2.341233 1.8733341
8.2662477 -1.9982313 1.7572943
0.90480173 -0.18401204 0.18153384
8.4124413 -2.7078445 1.6650728
8.3329363 -2.3456767 1.5416975
8.2998047 -2.0107901 1.4372126
0 -0 0
8.4121885 -2.7085736 1.3299196
8.3205204 -2.3467276 1.2143776
7.785512 -1.890509 1.0479401
0 -0 0
7.8945494 -2.5434237 0.93781435
7.8531222 -2.21505 0.84334958
7.8118978 -1.9002373 0.7543121
0 -0 0
7.912899 -2.5507076 0.63416946
7.876801 -2.2244005 0.5452162
7.8164353 -1.9033641 0.46034077
0 -0 0
7.907033 -2.551559 0.32804051
7.8704 -2.2267463 0.24475749
7.8266015 -1.9100364 0.16566065
0 -0 0
7.929934 -2.5601716 0.02370641
7.8873534 -2.2346656 -0.055944663
7.8293891 -1.9140471 -0.12971151
0 -0 -0
7.9364424 -2.5668623 -0.28253648
7.904326 -2.2426043 -0.35571444
7.8503222 -1.9242475 -0.42727515
0 -0 -0
1.6093467 -0.52168596 -0.11942905
7.9025531 -2.2465727 -0.65813178
7.8576546 -1.9273533 -0.72505379
8.0967712 -1.6755266 -0.82120723
1.595434 -0.51766837 -0.18049708
7.647635 -2.1777105 -0.93129039
6.238409 -1.5319105 -0.81310236
5.7193084 -1.1849974 -0.7976988
2.5550935 -0.83136511 -0.38930112
2.8719518 -0.81954002 -0.46122861
0 -0 -0
4.5163093 -0.93648499 -0.80440855
4.1727881 -1.3612682 -0.80264223
2.9626656 -0.84693617 -0.5935967
3.8283193 -0.94412547 -0.79820377
3.7338395 -0.77545851 -0.81197894
3.433975 -1.1238971 -0.80129528
2.9230433 -0.83704436 -0.70414203
3.3011138 -0.81447488 -0.82175571
3.1120989 -0.64519989 -0.80239815
1.488134 -0.48860091 -0.40974075
1.4014753 -0.40246558 -0.3962442
1.3603339 -0.33600932 -0.39563307
2.7190254 -0.56360894 -0.81515777
5.8582654 -1.9311074 1.9056466
6.1124268 -1.7586215 1.8891048
6.4667516 -1.5975074 1.907915
0.94473672 -0.19630232 0.2663438
6.8044057 -2.2382524 1.9125093
7.1876292 -2.0700083 1.9149133
7.580111 -1.878582 1.9200583
0 -0 0
8.1194124 -2.6706557 1.9411268
8.346673 -2.4025464 1.8813787
8.2766418 -2.0545771 1.762151
0.90077466 -0.18895599 0.18095508
8.4087372 -2.7637069 1.6676649
8.338253 -2.4024866 1.5453794
8.312191 -2.0678687 1.4415276
0 -0 0
8.4311085 -2.7718749 1.3355744
8.3535366 -2.4114699 1.2213329
7.788197 -1.9418428 1.0498855
0 -0 0
7.9363728 -2.6107569 0.94466788
7.8584967 -2.268712 0.84540582
7.8174782 -1.952477 0.75599355
0 -0 0
7.9255123 -2.6085639 0.63645118
7.8754654 -2.2762916 0.54608029
7.8220434 -1.9556477 0.46136907
0 -0 0
7.9291892 -2.6125352 0.32961857
7.8834715 -2.2827806 0.24559498
7.8321905 -1.9623973 0.16603069
0 -0 0
7.9454165 -2.6191118 0.023800291
7.9003859 -2.2908173 -0.056135748
7.8495007 -1.9700835 -0.13024253
7.8124776 -1.6623304 -0.20483227
7.9717903 -2.6324339 -0.28436452
7.9028902 -2.2946837 -0.35627675
7.8703251 -1.9804215 -0.42901719
7.7692146 -1.6551093 -0.49559063
1.6042215 -0.53092408 -0.11928821
7.898191 -2.2978041 -0.65893036
7.8543735 -1.9777194 -0.72585708
8.1174812 -1.7318201 -0.82436997
1.5988344 -0.52963668 -0.18124604
7.6093364 -2.21737 -0.92826599
7.775773 -1.9600929 -1.015028
5.7128987 -1.220275 -0.7978341
1.6332792 -0.54253417 -0.24935345
2.866869 -0.83714658 -0.46122861
4.7300591 -1.1942706 -0.80211991
4.4931374 -0.96047205 -0.80131602
4.1494241 -1.3818733 -0.79976404
2.9706075 -0.86895835 -0.59624493
3.8167531 -0.96615475 -0.79701334
3.72136 -0.79671627 -0.81031293
3.4575713 -1.1551553 -0.80844009
2.9159825 -0.85441619 -0.70369083
3.2065387 -0.81204528 -0.79943818
3.093859 -0.6612435 -0.79872644
1.4915291 -0.49987471 -0.41151232
1.4480503 -0.4254756 -0.41014293
1.3377236 -0.33914676 -0.38965508
2.7183309 -0.5808835 -0.81600285
5.8408728 -1.9651886 1.9038755
6.1309481 -1.8047559 1.8982158
6.4614873 -1.6383379 1.9092919
1.0481399 -0.22450562 0.29587844
6.7960396 -2.2818065 1.914057
7.1980243 -2.1209171 1.9211136
7.5618539 -1.9233817 1.9183869
0 -0 0
8.1204376 -2.7263222 1.9453346
8.3495874 -2.4589612 1.885401
8.309432 -2.1169279 1.7718643
0 -0 0
8.4158449 -2.8233767 1.6724789
8.3677378 -2.4666874 1.5536201
8.3050795 -2.120296 1.4425232
8.2057085 -1.7772479 1.3321941
8.4308157 -2.8292177 1.3382529
8.3965158 -2.4797904 1.2298182
7.8174419 -2.0001624 1.0554625
7.7622976 -1.6884458 0.96327615
7.9352765 -2.6644654 0.94646561
7.8654156 -2.323087 0.84766769
7.8275332 -2.0060923 0.75814199
7.7516427 -1.690096 0.67012024
7.9216452 -2.661273 0.63743997
7.8804865 -2.3302302 0.54740953
7.8205347 -2.0063353 0.46199751
0 -0 0
7.9423699 -2.6710126 0.3308416
7.9019017 -2.3407624 0.24661195
7.8519559 -2.0186327 0.16670913
0 -0 0
7.9547873 -2.6764247 0.023877103
7.9130239 -2.3472123 -0.056326821
7.8508205 -2.0217009 -0.1304678
7.8079896 -1.7115198 -0.20498608
7.9715881 -2.6867249 -0.28494003
7.9116464 -2.3499589 -0.35731483
7.8676934 -2.0311716 -0.42954502
7.7725606 -1.7057443 -0.49646237
1.6037686 -0.54171503 -0.11949946
7.9345789 -2.3612924 -0.66316241
7.8488407 -2.0276196 -0.72648191
8.142663 -1.7894983 -0.82802677
1.6068571 -0.54325819 -0.18252996
7.7992787 -2.3247325 -0.95315927
7.7078919 -1.9933605 -1.0077447
5.7062712 -1.2555187 -0.7979694
1.6102366 -0.54587311 -0.24634229
2.8616784 -0.85472161 -0.46122861
4.7025824 -1.2180753 -0.79871285
4.4890838 -0.98844713 -0.80165964
4.2107201 -1.4310477 -0.81325537
4.0254364 -1.2043774 -0.8094328
3.8069584 -0.98857033 -0.79621965
3.685837 -0.81279516 -0.80364883
3.4698231 -1.1829646 -0.81298673
3.4248841 -1.0263907 -0.82800424
3.0613186 -0.79528886 -0.76443487
3.0906904 -0.68042308 -0.79897118
1.5067418 -0.5152781 -0.41657397
1.4407914 -0.43296403 -0.40883172
1.374736 -0.35752189 -0.40106761
2.5357337 -0.55815518 -0.76220351
5.8052092 -1.9929245 1.8962009
6.1252666 -1.8439988 1.8999242
6.434566 -1.6735982 1.9043355
1.0015595 -0.22096433 0.28310668
6.8029327 -2.3306651 1.9199901
7.1709619 -2.1608508 1.9173934
7.5593052 -1.9721954 1.9207743
7.8709736 -1.7462951 1.8990297
8.095253 -2.7732527 1.9433415
8.3539944 -2.5160658 1.8898467
8.2981815 -2.1683688 1.772269
8.2923698 -1.8460153 1.6702656
8.4411316 -2.8896029 1.6809959
8.3590431 -2.5199735 1.5548474
8.3090839 -2.1757114 1.4455105
8.2573061 -1.8415375 1.3423802
8.4544621 -2.8949904 1.3448006
8.3944139 -2.5352721 1.2317657
7.8242035 -2.0531249 1.0580564
7.7711658 -1.7403816 0.9656837
7.9432192 -2.7214789 0.94938684
7.8900537 -2.3830962 0.85188282
7.8208547 -2.0556021 0.75870252
7.7702947 -1.7441746 0.67264521
7.9466686 -2.7240558 0.64078647
7.8899179 -2.3857601 0.54907125
7.8293171 -2.0598717 0.4632543
7.7651949 -1.7457349 0.3784003
7.9768682 -2.7372086 0.33297196
7.9113059 -2.3964479 0.24735969
7.8510232 -2.0698318 0.16695583
7.7825255 -1.7530562 0.087024756
7.9675355 -2.7352498 0.023965295
7.9262233 -2.4041386 -0.05652472
7.8595352 -2.0754507 -0.13082179
7.8061171 -1.7613767 -0.20521681
7.9615684 -2.7378621 -0.28517702
7.9400964 -2.4115248 -0.35926121
7.886939 -2.0878417 -0.43128708
7.8115978 -1.7646195 -0.49963799
1.6013577 -0.55187041 -0.11956988
7.9418745 -2.4166076 -0.66499895
7.8641734 -2.0831373 -0.72907048
8.1460886 -1.8427205 -0.82950932
1.5856351 -0.54694742 -0.18049708
7.799119 -2.3768876 -0.9549042
7.7386684 -2.0520604 -1.0133955
7.695868 -1.7428533 -1.0776714
1.6096629 -0.55671352 -0.24677245
2.875284 -0.87803721 -0.46428105
1.4829892 -0.39385337 -0.25228488
4.5444231 -1.0299083 -0.81265539
4.10706 -1.4239885 -0.79490715
3.9785323 -1.2169906 -0.80148786
1.5532885 -0.41353944 -0.32539254
1.4583864 -0.33099768 -0.31841901
3.476331 -1.2090433 -0.81623435
3.4073443 -1.0439614 -0.82529694
2.9154909 -0.77653205 -0.72919661
1.3994964 -0.31711826 -0.36227858
1.4989845 -0.52292031 -0.41530856
1.4067442 -0.43216136 -0.39991558
1.3697268 -0.36520657 -0.40025243
1.3307004 -0.30148062 -0.4005371
5.8045945 -2.0326121 1.9000381
6.1229987 -1.8843676 1.9027712
6.4046693 -1.7078469 1.8985531
6.6487851 -1.5096976 1.8819677
6.7912402 -2.3733196 1.920764
7.1621971 -2.2062364 1.9186336
7.5489378 -2.019043 1.9212518
7.94172 -1.8131901 1.9187468
8.0891314 -2.8267324 1.945999
8.360817 -2.5741796 1.8949275
8.3216133 -2.2291274 1.7801611
8.2608023 -1.8922608 1.6662143
8.444581 -2.9487936 1.6852545
8.3716497 -2.5799148 1.5601075
8.3203411 -2.2333007 1.4498254
8.2708797 -1.8979119 1.3464546
8.4561434 -2.9536593 1.3479257
8.3834305 -2.5881922 1.2324612
7.8401847 -2.1088212 1.0619473
7.7758183 -1.791598 0.9676097
7.9648294 -2.7836072 0.95399326
7.8904896 -2.4361589 0.85352778
7.8638525 -2.1185727 0.76412046
7.7681842 -1.7938372 0.67340267
7.9486294 -2.7793467 0.6423077
7.9027753 -2.4426715 0.55099869
7.8329177 -2.1122918 0.4642255
7.7883987 -1.8012258 0.38006243
7.9797282 -2.7930346 0.33380046
7.9136391 -2.4502671 0.24789807
7.8497577 -2.1210957 0.16720253
7.8310452 -1.8145447 0.087690152
7.9826913 -2.7953227 0.024062019
7.9160981 -2.4542084 -0.05655884
7.8765721 -2.1317344 -0.13132063
7.8224287 -1.8155694 -0.20593461
7.9813995 -2.7995629 -0.28649727
7.9404159 -2.4649379 -0.35995328
7.8932557 -2.1414254 -0.43234289
7.8200669 -1.8170351 -0.5008834
1.6017056 -0.5630089 -0.11985155
7.9249935 -2.4647005 -0.66483927
7.8791189 -2.1389189 -0.731659
8.1549816 -1.8974049 -0.83158481
1.5850629 -0.55765629 -0.18081807
7.7530947 -2.4149499 -0.95106548
7.7297606 -2.1005459 -1.0138979
5.6807842 -1.3232012 -0.7966162
1.6146165 -0.56954271 -0.24806297
2.8830502 -0.89978516 -0.46641782
0 -0 -0
1.3345419 -0.31107023 -0.23898597
4.1232853 -1.4580164 -0.79976404
3.9681787 -1.2405006 -0.80092043
1.591381 -0.43415493 -0.33392417
1.4363261 -0.33527103 -0.3140457
3.5028913 -1.2424259 -0.8242451
3.3934367 -1.0625199 -0.82349199
1.7675952 -0.48242795 -0.44282719
1.3814716 -0.3219583 -0.35811728
1.4984821 -0.53308088 -0.41606781
1.4528631 -0.45610392 -0.41381428
1.3748869 -0.37563327 -0.40242624
1.3297601 -0.30985773 -0.40081879
5.7956128 -2.0694754 1.9012189
6.1076636 -1.9207519 1.9016324
6.4116893 -1.7519274 1.9037848
6.7088604 -1.5666867 1.9016575
6.7738194 -2.4139721 1.9199901
7.1235757 -2.2422879 1.9119372
7.5307884 -2.0637846 1.9198194
7.9626641 -1.8694496 1.926542
8.0799017 -2.8792591 1.9479922
8.3644419 -2.6315918 1.8993732
8.3304434 -2.2863662 1.7850176
8.2748232 -1.9489863 1.6714232
8.4568787 -3.0114317 1.6913644
8.3857117 -2.6406963 1.5657181
8.3378582 -2.2929401 1.4553021
8.2879171 -1.9554294 1.3511561
8.462081 -3.0141165 1.3517947
8.3995008 -2.6497126 1.2371907
7.8529072 -2.1640003 1.065449
7.7936597 -1.8461406 0.97122121
7.9541516 -2.8347611 0.95477968
7.9048004 -2.4938054 0.8567149
7.8794971 -2.1747313 0.76692283
7.7832084 -1.8476824 0.67567515
7.9502091 -2.8347635 0.64382881
7.9085708 -2.4977272 0.55246097
7.8650384 -2.1728089 0.46691054
7.8053818 -1.8556807 0.38143966
7.9869084 -2.8506777 0.3348262
7.9222813 -2.5063155 0.24864586
7.8568296 -2.1748219 0.16763426
7.8304634 -1.8651094 0.087810136
7.9870496 -2.8519855 0.024127452
7.9123297 -2.5063581 -0.056640733
7.8912864 -2.1877706 -0.13178727
7.8305893 -1.8681725 -0.20644735
7.98101 -2.8545415 -0.2871066
7.935617 -2.5169353 -0.36042905
7.8876643 -2.191956 -0.43276516
7.8330393 -1.8707801 -0.50244009
1.5869526 -0.56878752 -0.11900654
7.8840714 -2.5051308 -0.66268331
7.9032707 -2.1976304 -0.73514009
8.0134993 -1.9163932 -0.81834114
1.5816114 -0.56737161 -0.18081807
1.543651 -0.49123034 -0.18972452
7.7310629 -2.151926 -1.0157815
0 -0 -0
1.6101601 -0.57910413 -0.24791957
2.8906569 -0.92166132 -0.46855456
2.9589403 -0.82483941 -0.5050565
1.5155902 -0.36309001 -0.27180144
4.0911269 -1.4749484 -0.79526693
4.011004 -1.280957 -0.81113523
2.960263 -0.82715732 -0.62221402
1.4827474 -0.35571444 -0.32466662
3.3795216 -1.2220649 -0.79696518
3.389637 -1.0842121 -0.8241688
1.5464839 -0.43229344 -0.38809046
3.1106441 -0.74510229 -0.80753863
1.5042777 -0.54556376 -0.41859862
1.4555507 -0.46677804 -0.41538772
1.3679223 -0.38276571 -0.40106761
1.3334324 -0.31935203 -0.4025088
5.7828054 -2.1049976 1.9012189
6.0921121 -1.9570189 1.9004935
6.3887835 -1.7878679 1.9002053
6.7084947 -1.6100717 1.9043183
6.759788 -2.4558198 1.920248
7.0995383 -2.2826931 1.909209
7.5170484 -2.1096914 1.9195805
7.9425268 -1.9162177 1.9244785
8.0290871 -2.9167953 1.9400194
8.3955917 -2.6981161 1.91017
8.3351135 -2.3427377 1.789065
8.2894115 -2.0061855 1.6768248
8.4733429 -3.0760081 1.6984003
8.4096508 -2.7050636 1.5732573
8.3559055 -2.3531458 1.4609449
8.3007183 -2.0122962 1.3552306
8.4750299 -3.0774574 1.3568542
8.4189014 -2.7127421 1.2424767
7.8738356 -2.2218382 1.0701181
7.7947245 -1.8969784 0.97278607
7.9711647 -2.8960686 0.95893687
7.9224863 -2.5529394 0.86031324
7.8746285 -2.2254751 0.76776361
7.7920542 -1.9003625 0.67744261
7.9767103 -2.8995018 0.64740348
7.9215841 -2.5553961 0.55445492
7.8899851 -2.2318971 0.46919566
7.8103447 -1.9075676 0.382247
7.9899249 -2.9071474 0.33569413
7.9238734 -2.5604105 0.24918424
7.8683467 -2.2300777 0.16816878
7.8344126 -1.9169236 0.087984666
7.981616 -2.9053862 0.024164436
7.9529362 -2.5730209 -0.057043359
7.8921413 -2.2402449 -0.13202864
7.829659 -1.9188023 -0.20672934
8.0037203 -2.9181793 -0.28856227
7.9114704 -2.5628092 -0.36003977
7.9048023 -2.2490575 -0.43445444
7.8601851 -1.9283195 -0.50493079
1.5806218 -0.57748717 -0.11879528
1.6051884 -0.52090693 -0.13518772
7.9107127 -2.2520823 -0.73710382
7.8981867 -1.9401269 -0.8077659
1.5771666 -0.57672405 -0.18071108
1.6208971 -0.52678651 -0.19961208
7.8398376 -2.2341242 -1.0318551
0 -0 -0
1.6158684 -0.59237939 -0.24935345
2.9084404 -0.94703031 -0.47237012
2.9528747 -0.84270883 -0.50489426
7.7445965 -1.9056954 -1.3909637
4.0736899 -1.4969697 -0.793648
3.9974675 -1.3037171 -0.81000024
2.9541898 -0.84503609 -0.62201566
3.681874 -0.90721726 -0.80739737
1.6232307 -0.59826213 -0.38365179
3.3440259 -1.0922856 -0.81469303
2.8436987 -0.81375265 -0.7148664
3.1031892 -0.76347989 -0.80680424
1.5090688 -0.55780238 -0.42087638
1.4728349 -0.48230729 -0.42115697
1.37665 -0.39433199 -0.40432832
1.3584682 -0.33417463 -0.41067731
5.7859044 -2.1464221 1.9065319
6.0863652 -1.996454 1.9024866
6.3776932 -1.8270351 1.9002053
6.6872578 -1.6484354 1.9011253
6.7409682 -2.4959092 1.9192163
7.0964432 -2.3298385 1.9121852
7.5039616 -2.1557753 1.9195805
7.933454 -1.9656184 1.9251664
8.0293293 -2.9727778 1.9444488
8.4067364 -2.7587214 1.916521
8.3544626 -2.4035845 1.79635
8.288373 -2.0598505 1.6791399
8.4745865 -3.1354437 1.7024736
8.4237614 -2.7667513 1.5790433
8.3507853 -2.4071038 1.4626045
8.3112173 -2.0689163 1.3589916
8.4884462 -3.1414139 1.3620627
8.4237347 -2.7714667 1.2456762
7.9515057 -2.2965219 1.0825688
7.8166466 -1.9531933 0.97699934
7.9737444 -2.9525149 0.96140856
7.9151769 -2.604301 0.8612386
7.8694324 -2.2762408 0.76860434
7.7937794 -1.9515264 0.67862093
7.9868197 -2.9587829 0.64968526
7.9256582 -2.6105092 0.55585074
7.8886089 -2.2838767 0.46993837
7.8178701 -1.9603139 0.38319677
8.0028534 -2.9675825 0.33699605
7.9241509 -2.6143062 0.24969272
7.8823614 -2.2863925 0.16876498
7.8399601 -1.9693437 0.088181019
7.992703 -2.9650879 0.024252627
7.9597874 -2.6292984 -0.057207141
7.9060922 -2.2967169 -0.13249528
7.8332491 -1.9707104 -0.20713951
8.0100222 -2.976285 -0.28944245
1.5906913 -0.52608818 -0.072535641
7.9061937 -2.3019848 -0.43529907
7.8694983 -1.9818747 -0.50630069
1.5751791 -0.58647871 -0.11865445
1.6085855 -0.5329408 -0.13574667
7.9464703 -2.3150659 -0.74174529
7.809907 -1.9693316 -0.79995811
1.5773247 -0.58777922 -0.18113904
1.5770991 -0.52327287 -0.19461015
6.0011578 -1.7500373 -0.7912522
0 -0 -0
1.6057136 -0.5998587 -0.24834974
2.9119532 -0.96797591 -0.47389638
2.9438593 -0.85970497 -0.50424528
4.4423237 -1.1220648 -0.79908246
4.2910485 -1.6067958 -0.83789939
3.9474678 -1.3142622 -0.80148786
2.9687028 -0.86892855 -0.6261822
3.5899506 -0.90796798 -0.78844637
1.6195292 -0.60821086 -0.38365179
3.2892029 -1.0967591 -0.80296111
2.8377192 -0.83091277 -0.71463144
3.1003261 -0.78298116 -0.80729377
1.5191983 -0.57216609 -0.42467263
1.4579499 -0.48735815 -0.41774786
1.3742044 -0.40277153 -0.40432832
1.3340646 -0.33686581 -0.40391716
5.7744131 -2.1825593 1.9071224
6.0621834 -2.0298049 1.8987852
6.3663626 -1.8661335 1.9002053
6.6938376 -1.6936926 1.9059147
6.7255268 -2.5372241 1.9192163
7.1077332 -2.3819566 1.9191296
7.4775496 -2.1979444 1.916238
7.9118104 -2.0118613 1.9228736
8.0127621 -3.0226772 1.9448917
8.4146729 -2.8186338 1.9222369
8.358346 -2.4603319 1.800397
8.2907906 -2.1145482 1.6822264
8.5177164 -3.2109554 1.7150639
8.4262285 -2.8249583 1.5827253
8.36518 -2.4669452 1.4677492
8.3203745 -2.1254964 1.3625959
8.5050964 -3.2070458 1.3678663
8.4206514 -2.8278303 1.2477626
8.1341047 -2.4034295 1.1094159
7.8381715 -2.0097482 0.98121262
7.9805803 -3.0108557 0.96444213
7.9141355 -2.6578853 0.86288351
7.878231 -2.331264 0.77084625
7.8202624 -2.0092299 0.68198752
7.9955668 -3.0179443 0.65189093
