# .PCD v0.7 - Point Cloud Data file format
VERSION 0.7
FIELDS x y z
SIZE 4 4 4
TYPE F F F
COUNT 1 1 1
WIDTH 1578
HEIGHT 1
VIEWPOINT 0 0 0 1 0 0 0
POINTS 1578
DATA ascii
1.1892699 0.36299917 0.22144477
1.2740114 0.44058555 0.22686717
1.2985306 0.50308514 0.2209615
0 0 0
1.2144213 0.37000424 0.1783313
1.2849962 0.4436312 0.17781261
1.2621415 0.4876954 0.16407715
1.3101692 0.34708375 0.15325013
1.2512524 0.38120192 0.13519502
1.2584515 0.43390161 0.12489352
1.288497 0.4971557 0.11665243
1.2839085 0.33991107 0.10130891
1.2743479 0.38780063 0.088731393
1.2846744 0.44259185 0.077751771
1.2973835 0.50009024 0.066106074
1.3089613 0.3461037 0.053456992
1.2949619 0.39338243 0.040498797
1.2772739 0.43931913 0.027774576
1.2999144 0.50044054 0.015194971
1.3022898 0.34414515 0.0038320576
1.289914 0.39133263 -0.0091990009
1.3021413 0.44728783 -0.022157641
1.2969487 0.49875304 -0.035634153
1.3191235 0.34785482 -0.046209235
1.3309504 0.40324953 -0.060208477
1.3064344 0.44787052 -0.073007345
1.3098853 0.50336057 -0.087548733
1.3486691 0.35468954 -0.098444469
1.337695 0.40452841 -0.11195108
1.3059335 0.44746953 -0.12371348
1.3191611 0.50647593 -0.14034352
1.3674423 0.35921851 -0.15214396
1.3349472 0.40306181 -0.16331896
1.3478348 0.46143252 -0.18032664
1.3330079 0.51141852 -0.19499303
1.3681195 0.35819694 -0.20490286
1.3493667 0.40659329 -0.21764131
1.3258268 0.45332935 -0.23038234
1.2978623 0.49770078 -0.24242215
1.3915372 0.36318645 -0.26299033
1.3258568 0.39882785 -0.26672125
1.3181182 0.4497945 -0.28194073
1.2905492 0.49443135 -0.29426166
1.3436097 0.34930027 -0.30787405
1.3258642 0.39817405 -0.32059786
1.3183047 0.44970402 -0.33664265
1.2773557 0.4898881 -0.34538856
1.4825591 0.38393179 -0.40062979
1.5881767 0.47565076 -0.45052782
1.7963328 0.61224544 -0.53584373
1.5516511 0.59514731 -0.48785535
0 0 0
0.74853486 0.22377579 0.23204528
6.2704768 2.1369803 1.8974516
1.8858867 0.72230536 0.55743277
0.75489676 0.1950486 0.20817305
0.77786559 0.23232241 0.20783544
0.92216086 0.31350043 0.23947006
1.8824296 0.71842062 0.4745855
0.80536669 0.20810391 0.18890829
0.95421284 0.28513655 0.2157224
0 0 0
0 0 0
1.1987684 0.31004772 0.23329166
1.1112885 0.33175683 0.20654154
1.2159848 0.41218257 0.21607976
1.2609758 0.47965783 0.21406624
1.2656627 0.32723132 0.1967275
1.2574774 0.374706 0.18431276
1.2463676 0.42175397 0.172106
1.2586129 0.47747701 0.16323449
1.3372883 0.3455008 0.15617132
1.2449883 0.37096083 0.13426974
1.2667495 0.42808425 0.12545401
1.2803413 0.48500445 0.11564246
1.2898318 0.33302385 0.10161315
1.2776598 0.38025874 0.088797867
1.2845281 0.4337427 0.077580385
1.289217 0.48787785 0.065536194
1.3120279 0.33831507 0.053496443
1.295435 0.38485998 0.040438976
1.2789979 0.43115428 0.027754016
1.3076375 0.49422261 0.015249513
1.3082503 0.33714619 0.0038434369
1.2817456 0.38028178 -0.0091239344
1.2991755 0.43737549 -0.022061093
1.3009198 0.49113879 -0.035659786
1.3202652 0.3395054 -0.046175383
1.3238206 0.39223722 -0.059775945
1.3063182 0.43889189 -0.072848983
1.3138831 0.49566609 -0.087611005
1.3556513 0.34764653 -0.098796554
1.3420637 0.39687821 -0.11211078
1.3124313 0.44071633 -0.12407052
1.3231752 0.49872315 -0.14044236
1.3744365 0.35205483 -0.15267892
1.3383479 0.3951444 -0.1634353
1.3374729 0.44873571 -0.17856859
1.3389025 0.50427741 -0.19539899
1.3702916 0.34979558 -0.20490286
1.3347722 0.39327839 -0.21489407
1.3332615 0.44675326 -0.23119354
1.3184091 0.49632239 -0.24568652
1.4080392 0.35827991 -0.2656886
1.3367574 0.39317876 -0.26842371
1.3180647 0.44076571 -0.28134552
1.3082061 0.49201223 -0.29759371
1.3514059 0.34248847 -0.30917311
1.3320214 0.39112908 -0.3215003
1.3210392 0.44160658 -0.33664265
1.2885041 0.48511589 -0.34759164
1.5186557 0.38335192 -0.40974075
1.6179227 0.47376132 -0.4581328
1.8027941 0.60212642 -0.53665888
2.5708709 0.96802354 -0.80642599
0 0 0
0.74621338 0.21810292 0.23090641
6.2925897 2.1015103 1.9002053
1.8181006 0.68358058 0.53614658
0.75420552 0.18994108 0.20765714
0.7709071 0.22510134 0.20560332
0 0 0
1.8822447 0.70514929 0.47343916
0.82554114 0.20792174 0.19333756
0.95875877 0.28009847 0.2163575
0.9942773 0.33080143 0.21652523
0 0 0
1.1739672 0.29596001 0.22810741
0 0 0
1.2549897 0.41683644 0.22255221
1.2879518 0.48089382 0.21814071
1.2916189 0.32550043 0.20044777
1.239787 0.36116686 0.18139158
1.3082258 0.43375802 0.18027684
1.2605885 0.46939889 0.1631141
1.3201114 0.33243576 0.15392426
1.2491511 0.36387113 0.13447535
1.2665168 0.41936469 0.12517376
1.282359 0.47679201 0.11555829
1.2976526 0.32656333 0.10206949
1.2809269 0.37269074 0.088864326
1.2795826 0.42334411 0.077123359
1.2931226 0.48030594 0.065583684
1.3179554 0.33123246 0.05365425
1.2929726 0.37551022 0.040289424
1.2787714 0.42235774 0.027692342
1.3087703 0.48549423 0.015227696
1.319993 0.33154863 0.0038718858
1.2821339 0.3718529 -0.0091102868
1.2989861 0.42845607 -0.022012819
1.3001593 0.48175791 -0.035557244
1.3291095 0.33309874 -0.046412352
1.3175658 0.38160557 -0.059386663
1.3118322 0.43180484 -0.073007345
1.3056681 0.48343635 -0.086863793
1.3635653 0.34077299 -0.099219061
1.3416008 0.38780555 -0.11187122
1.3179491 0.43358883 -0.12433828
1.3215438 0.48886865 -0.13994819
1.3862174 0.34602275 -0.15374884
1.3464727 0.38857734 -0.16413324
1.345856 0.44237944 -0.17932203
1.3429008 0.49639606 -0.1955343
1.3772141 0.34257549 -0.20561981
1.3381099 0.38535443 -0.21504669
1.3519156 0.4437961 -0.23395163
1.3158851 0.48617494 -0.24465565
1.4178492 0.35152733 -0.26712766
1.3315949 0.38279879 -0.2669104
1.3160874 0.43114427 -0.28035346
1.3102828 0.4836373 -0.29738545
1.3724382 0.3388705 -0.31350327
1.336269 0.38348606 -0.32195154
1.3117154 0.42955992 -0.33358866
1.3032796 0.48156938 -0.35077381
1.7877848 0.43963701 -0.48161623
1.6541986 0.47338295 -0.46757343
1.7771856 0.58147681 -0.52796364
2.5740621 0.95123297 -0.80558097
0.71832645 0.17574678 0.22846507
0.73924184 0.21115062 0.22834395
0.74008787 0.24212676 0.22303525
1.6332521 0.60266805 0.48053637
0.75348014 0.18484938 0.20714121
0.77320534 0.22063273 0.20585132
0 0 0
1.9002397 0.69862497 0.4768782
0 0 0
0.93696475 0.26750267 0.21106499
0.96369952 0.31407359 0.20944263
1.2251807 0.44944394 0.25657812
1.1719435 0.28781357 0.22736678
1.1550397 0.32943583 0.21390548
1.1937566 0.38838187 0.21126692
1.2695491 0.46516699 0.21453638
1.26094 0.30955321 0.19538821
1.2676955 0.3608734 0.18514739
1.2297587 0.39938304 0.16912301
1.2746342 0.46574372 0.16455866
1.3308117 0.32646006 0.15493542
1.2618839 0.35919514 0.13560626
1.2595955 0.40851408 0.12423964
1.2777717 0.46618241 0.11488497
1.2986635 0.31835756 0.10199343
1.2822299 0.36455125 0.088797867
1.2869049 0.4170236 0.077408999
1.2960454 0.47236246 0.065583684
1.3054045 0.31957534 0.053062476
1.2962139 0.36784247 0.040319331
1.2870463 0.41634971 0.027815692
1.2976301 0.47232437 0.015064075
1.3375441 0.32724547 0.003917404
1.2834295 0.36370626 -0.009103463
1.2892216 0.41648179 -0.021803632
1.3021513 0.47342962 -0.035531607
1.3320993 0.32517421 -0.046446208
1.3208438 0.373786 -0.059429921
1.3220605 0.42619863 -0.073429659
1.3086098 0.4754158 -0.086863793
1.3665999 0.33263579 -0.099289484
1.3525887 0.38200471 -0.11258989
1.3177408 0.42457756 -0.12407052
1.3179709 0.478374 -0.13925636
1.3825178 0.33610138 -0.1531069
1.3574352 0.38273403 -0.16518016
1.3438232 0.43259308 -0.17869416
1.3468528 0.48848465 -0.19566962
1.3869849 0.33598262 -0.20676692
1.3404492 0.37713671 -0.21504669
1.3593102 0.43700257 -0.23476283
1.3123604 0.47574151 -0.243453
1.4228481 0.34351352 -0.26766732
1.3509353 0.37940007 -0.27031535
1.312175 0.42096493 -0.27896458
1.3169042 0.47692063 -0.29821846
1.3649993 0.32816091 -0.31133819
1.3404729 0.37580562 -0.32240275
1.3180287 0.42269063 -0.33452833
1.3052984 0.47323304 -0.35052902
1.8337281 0.43902078 -0.49325803
1.7211988 0.4811503 -0.48566797
1.7706387 0.56733108 -0.52497464
2.5582013 0.92757124 -0.79882091
0.71288514 0.16978635 0.22639883
0.73590684 0.20532264 0.22692035
0.74979913 0.2402209 0.22551341
2.0402577 0.73866111 0.59894097
0.74238372 0.17730495 0.20378774
0.76894546 0.21432367 0.20436324
0.76405013 0.24415453 0.19721064
1.3725151 0.49506792 0.34367326
0.80716372 0.19279139 0.18846536
0.87080681 0.24284592 0.1958226
0.98613346 0.31470466 0.21389453
1.1660581 0.41965586 0.24365275
1.1746434 0.28084579 0.22755194
0 0 0
1.1641707 0.37087253 0.2056243
1.2565793 0.45168892 0.21187231
1.2849364 0.30709726 0.19881085
1.2946922 0.35998547 0.1887641
1.2671486 0.40294772 0.17392175
1.2914855 0.46293858 0.16636436
1.3424548 0.32059634 0.15605897
1.2592723 0.35011339 0.13509221
1.2601806 0.40017498 0.12405282
1.2834226 0.45934072 0.11513747
1.3005925 0.31038311 0.10199343
1.2882882 0.35774463 0.089063726
1.2789718 0.4057982 0.076780595
1.2951571 0.46305609 0.065393724
1.3151169 0.31341267 0.05337809
1.3013363 0.36068305 0.040409062
1.2867174 0.40753907 0.027754016
1.3005038 0.46435338 0.015064075
1.3268807 0.31602037 0.0038804205
1.2894919 0.35689136 -0.0091307592
1.2784064 0.40434214 -0.021578357
1.3059733 0.4657667 -0.035557244
1.3311524 0.31630135 -0.046344649
1.3221494 0.36540827 -0.059386663
1.32846 0.41928086 -0.073640823
1.3152629 0.46871752 -0.087112859
1.3724977 0.32516408 -0.099571154
1.355868 0.37396321 -0.11266973
1.3269702 0.41858149 -0.12469533
1.3208812 0.47027808 -0.13925636
1.3961645 0.33035934 -0.15439081
1.3588004 0.37413409 -0.16506383
1.3341516 0.42046279 -0.17706168
1.3470242 0.47921503 -0.19526367
1.3822776 0.32587627 -0.20576321
1.3417851 0.36864296 -0.21489407
1.365731 0.42983875 -0.23541181
1.3152548 0.46768007 -0.243453
1.4306748 0.33612654 -0.26874661
1.347556 0.36954561 -0.26918039
1.3128632 0.41231832 -0.27856776
1.3188841 0.46850392 -0.29801023
1.389802 0.32511631 -0.31653437
1.3521501 0.3701458 -0.3246589
1.316888 0.41343081 -0.33358866
1.3118317 0.46651447 -0.35150817
1.8646539 0.43434528 -0.5008505
1.77439 0.48430118 -0.4998289
1.7162358 0.53831065 -0.50785595
2.5737889 0.91539371 -0.80191928
0 0 0
0.73067838 0.19903968 0.22492732
0.74392068 0.2333142 0.22331059
6.4876122 2.303869 1.900327
0.75380963 0.17515177 0.2066253
0.76370269 0.20782088 0.20262714
0.78685015 0.24612963 0.20270199
0 0 0
0.79503345 0.18474498 0.18536487
0.84681934 0.2305658 0.19010669
0.95252484 0.29755181 0.20620486
1.1639847 0.41086018 0.24268816
1.1715587 0.2725198 0.22662619
1.1314455 0.30774361 0.20882086
1.1871357 0.37018067 0.20927541
1.2211375 0.43050659 0.20544718
1.3002809 0.30234265 0.20089419
1.3140792 0.35670418 0.19126797
1.239301 0.3857353 0.16977148
1.3008575 0.45731011 0.167207
1.2930986 0.30043471 0.15010422
1.2633169 0.3429012 0.13529783
1.2569077 0.39066207 0.12349233
1.2730539 0.44683698 0.11395916
1.3053863 0.3030735 0.10222161
1.2837179 0.34800565 0.088598467
1.2823911 0.39823902 0.076837718
1.2894905 0.45212591 0.064966314
1.3179886 0.30556306 0.053417541
1.3054546 0.35321352 0.040468883
1.2911038 0.40022832 0.027795136
1.3033285 0.4563649 0.015064075
1.3473043 0.31216139 0.0039344728
1.2945536 0.34975493 -0.0091512315
1.2732221 0.39412504 -0.021449625
1.3144683 0.45972475 -0.035711057
1.326252 0.30655208 -0.04610768
1.3156855 0.35494685 -0.058997389
1.3243287 0.40905869 -0.073271289
1.3086922 0.45734575 -0.086490177
1.3841875 0.31897646 -0.10027533
1.3581371 0.36563671 -0.11266973
1.3333203 0.41160661 -0.12505236
1.3181051 0.46019644 -0.13866335
1.3981653 0.3217864 -0.15439081
1.3620298 0.36604738 -0.16518016
1.3329142 0.41109911 -0.17655936
1.3508748 0.47126722 -0.19539899
1.3832865 0.31716746 -0.20561981
1.3449763 0.36065894 -0.21504669
1.3655137 0.42057931 -0.23492508
1.3218205 0.46089843 -0.24414025
1.4125718 0.32274055 -0.26496905
1.3554894 0.36279345 -0.27031535
1.3153684 0.40425497 -0.27856776
1.3189631 0.45943737 -0.29738545
1.3879628 0.31571639 -0.31566834
1.3346305 0.35656169 -0.31992102
1.3221874 0.40619913 -0.33429343
1.3183315 0.45973346 -0.3524873
1.8503001 0.41904935 -0.49629501
1.799708 0.47936562 -0.50612265
1.6155449 0.49586084 -0.47715089
2.5086899 0.87493789 -0.77994883
0.71025455 0.15997566 0.22492296
0.73281235 0.19479884 0.22521204
0 0 0
6.5180125 2.2697244 1.9051164
0 0 0
0.75934565 0.20163919 0.20113906
0.78091711 0.23902327 0.20079194
0 0 0
0.7771281 0.17556547 0.18093561
0.84349531 0.22411066 0.18904819
0.95714229 0.2925604 0.20681195
1.2193372 0.42200249 0.25368437
1.1664991 0.2638087 0.2253301
1.1485374 0.30483627 0.21162616
1.1705207 0.35713398 0.20595621
1.3030994 0.4504317 0.21876755
1.2644951 0.28585491 0.19509059
1.2358326 0.32733601 0.17958322
1.2283649 0.37407976 0.16795576
1.3073932 0.4506135 0.16768852
1.3491956 0.304755 0.15639602
1.2278967 0.32521111 0.13128825
1.2640438 0.3843908 0.12395939
1.2776561 0.4396657 0.11412749
1.3334825 0.3009856 0.10427517
1.2896874 0.34114295 0.088864326
1.286721 0.39094341 0.076951981
1.2912958 0.44388053 0.064918824
1.3091162 0.2950536 0.052983571
1.3075973 0.34519675 0.040468883
1.2906649 0.39142823 0.027733458
1.2890804 0.44251531 0.01486773
1.3267565 0.29883477 0.0038690406
1.3034439 0.34358931 -0.0091990009
1.283272 0.38862368 -0.021578357
1.3125362 0.45002952 -0.035582878
1.3320084 0.29928496 -0.046243086
1.3246017 0.34864736 -0.059300158
1.3335052 0.40294704 -0.073640823
1.3161948 0.45092455 -0.086801521
1.3812516 0.30938709 -0.099923238
1.360355 0.35729644 -0.11266973
1.3348674 0.40312985 -0.12496311
1.3199625 0.45177779 -0.13856453
1.4059352 0.31450367 -0.15503277
1.3709753 0.35944647 -0.16599442
1.3306626 0.40147993 -0.17593148
1.3490535 0.46136642 -0.19472238
1.3939003 0.3106111 -0.20691031
1.3567251 0.35490057 -0.21657293
1.3642894 0.4110541 -0.23427613
1.3199627 0.451186 -0.24328119
1.4058828 0.31214818 -0.26335013
1.3633906 0.35595784 -0.27145034
1.32064 0.39702293 -0.279163
1.3171293 0.4497554 -0.29634419
1.3879673 0.30677268 -0.31523535
1.3481059 0.35131392 -0.32262838
1.3255857 0.3983584 -0.33452833
1.3247974 0.45289025 -0.35346645
1.8405535 0.40498555 -0.49300492
1.8240974 0.47389472 -0.51215416
1.6167135 0.48538527 -0.47660744
1.7867728 0.61088908 -0.55432987
0 0 0
0 0 0
0 0 0
6.5646582 2.2408986 1.9146953
0.74174672 0.16278166 0.2027559
0.75306606 0.19503309 0.19915496
0.76655424 0.22949249 0.19673315
0 0 0
0.79724067 0.17497478 0.18536487
0.80795717 0.20936947 0.18079187
0.96642566 0.28892606 0.20843083
1.1308416 0.38362136 0.23477861
0.9031868 0.19844216 0.17422813
1.1427615 0.29580954 0.2102235
1.1311119 0.33753768 0.19865397
1.2253931 0.41517198 0.20529047
1.2449766 0.27342406 0.19181675
1.2819228 0.33113992 0.185982
1.2154323 0.36200696 0.16588062
1.2941449 0.4371818 0.16564208
1.3452168 0.29519287 0.1557219
1.3049902 0.33707428 0.13930741
1.2596984 0.37464082 0.12330551
1.2831624 0.43277323 0.11437999
1.3177729 0.28895366 0.10290613
1.2849933 0.33147854 0.088399068
1.2910095 0.38360959 0.077066235
1.2930485 0.43563002 0.064871334
1.3118781 0.28722918 0.053023025
1.3145307 0.338413 0.040618435
1.295918 0.38435435 0.027795136
1.2870326 0.43300307 0.014813188
1.3334496 0.29175702 0.0038832652
1.3094016 0.33658087 -0.009226298
1.280839 0.37932274 -0.0214979
1.3152728 0.44196749 -0.035582878
1.327961 0.28982762 -0.046039969
1.317039 0.3380295 -0.058867626
1.3349948 0.39447424 -0.073588029
1.3113676 0.44029862 -0.086303376
1.3821493 0.30069402 -0.09985283
1.3741095 0.35191038 -0.11362795
1.343047 0.39662421 -0.12549867
1.3255401 0.44461951 -0.13886103
1.4068668 0.30566001 -0.15492578
1.3750795 0.35151953 -0.16622707
1.3407133 0.39555344 -0.17693609
1.351859 0.45308009 -0.19472238
1.4054527 0.30414566 -0.20834421
1.354089 0.34534803 -0.21580981
1.3639463 0.40183866 -0.2337894
1.3292451 0.44526875 -0.24448386
1.4173876 0.30558917 -0.26514894
1.3703071 0.34879664 -0.27239618
1.3202302 0.38808292 -0.27856776
1.312444 0.43918216 -0.29467818
1.4060509 0.30173281 -0.31891596
1.3266307 0.33703837 -0.31698802
1.3242748 0.38912117 -0.33358866
1.3247933 0.44382891 -0.35273209
2.4381011 0.52080339 -0.6521939
1.8475511 0.46790549 -0.51792347
1.6233552 0.47654045 -0.47769436
1.7932169 0.60082865 -0.55517489
0.70001441 0.14866735 0.22108568
0.72771257 0.1839124 0.22293431
0 0 0
6.5024095 2.1751947 1.8926108
0.74084169 0.15782471 0.20223999
0.75424856 0.19040869 0.19915496
0.76515198 0.22396629 0.19601688
0 0 0
0.77540898 0.16520287 0.18004975
0.81396449 0.20560476 0.18185037
0.97758007 0.28573823 0.21045442
0 0 0
0.88420445 0.18859176 0.17033993
1.1550555 0.29144159 0.21215217
0 0 0
1.2438523 0.41293535 0.20795454
1.3259356 0.28268752 0.20401922
1.241677 0.3126294 0.17986144
1.2519033 0.36452171 0.17054966
1.2836088 0.42486566 0.16395678
1.2624506 0.26892224 0.14594714
1.294494 0.32590362 0.13797088
1.2591053 0.36607054 0.12302526
1.2801169 0.42301586 0.11387499
1.3321993 0.28356111 0.10389488
1.2937766 0.32529083 0.088864326
1.293339 0.37568089 0.077066235
1.2900059 0.42580923 0.064586394
1.3253446 0.28166685 0.053496443
1.3156129 0.33009759 0.040588528
1.298252 0.37639552 0.027795136
1.2858666 0.42384571 0.014769557
1.3342365 0.28336191 0.0038804205
1.3318121 0.33364326 -0.0093696052
1.2773796 0.36978829 -0.021401351
1.3103638 0.43138802 -0.035377789
1.3326476 0.28229529 -0.046141528
1.3307188 0.33285105 -0.059386663
1.3297149 0.38405862 -0.073165715
1.319733 0.43411514 -0.086676985
1.3781123 0.29097122 -0.099430315
1.3743087 0.34298965 -0.11346825
1.3425847 0.38754731 -0.12523089
1.3291885 0.43678841 -0.13895985
1.3853669 0.29209885 -0.15235794
1.3723917 0.34187517 -0.16564545
1.3440684 0.38759443 -0.17706168
1.3574376 0.44570398 -0.19512834
1.4305375 0.30039746 -0.21178555
1.3590598 0.33774805 -0.21626768
1.3644897 0.39291596 -0.2334649
1.3385043 0.43925446 -0.24568652
1.4365672 0.30051196 -0.26838687
1.36575 0.33872738 -0.27107203
1.3244705 0.38051611 -0.27896458
1.3141845 0.4308162 -0.29446992
1.4298589 0.29767632 -0.32389563
1.3589354 0.33638272 -0.32420766
1.3415854 0.38528109 -0.33734742
1.3265704 0.4353894 -0.3524873
2.870388 0.59475207 -0.76684034
1.843829 0.45494211 -0.51608777
1.6715761 0.47957528 -0.49100891
1.7886649 0.58712119 -0.55263984
0 0 0
0 0 0
0.74018168 0.21233632 0.22055708
6.5028095 2.131053 1.8888857
0.75693482 0.15640409 0.20636733
0.74411398 0.18300088 0.19617878
0.75997639 0.21739766 0.19434559
0.83648968 0.2730293 0.2072586
0.77258813 0.15965256 0.17916389
0.79623026 0.19593582 0.17761637
0.99061465 0.28296223 0.21288274
0 0 0
0.89977998 0.18614919 0.17311722
1.152998 0.28340882 0.21145085
1.1237887 0.32038736 0.19666246
1.2078539 0.39277312 0.20152941
1.3625067 0.28175551 0.20937639
1.2503043 0.30665594 0.18083517
1.2474406 0.35493383 0.16964179
1.2918576 0.4188185 0.16467904
1.3964206 0.28851447 0.16122723
1.3051641 0.32008696 0.13889618
1.257497 0.35724959 0.12265161
1.2788962 0.41392589 0.11353834
1.3212196 0.27276081 0.10290613
1.300594 0.31853303 0.089196652
1.2927386 0.36692023 0.07689485
1.291644 0.41757864 0.064538904
1.304539 0.26888987 0.052589055
1.3224685 0.32320541 0.04073808
1.2995751 0.36815 0.027774576
1.2884431 0.41594779 0.014769557
1.3330117 0.27456465 0.0038718858
1.325091 0.32333171 -0.0093081882
1.2834731 0.36303204 -0.021465717
1.3006173 0.41935167 -0.035044521
1.3598082 0.27934185 -0.047021706
1.324 0.3225514 -0.058997389
1.3282022 0.37480763 -0.072954558
1.322372 0.42600924 -0.086676985
1.3798717 0.2825098 -0.099430315
1.3841361 0.33643404 -0.11410705
1.3497304 0.38065383 -0.12567718
1.3365798 0.43014872 -0.13945402
1.4173305 0.28976661 -0.15567473
1.3870114 0.33649203 -0.16715766
1.3464214 0.37934008 -0.17706168
1.3573172 0.43645659 -0.19472238
1.4294444 0.29102188 -0.21135537
1.3803177 0.33405194 -0.21932015
1.3564264 0.38159677 -0.23168026
1.3505532 0.43404749 -0.24740461
1.4239231 0.28875914 -0.2656886
1.3783022 0.33287671 -0.27315283
1.3258369 0.37211731 -0.27876619
1.3158721 0.42244545 -0.29426166
2.8298225 0.57103562 -0.64021355
1.353397 0.32621187 -0.32240275
1.3467318 0.37782967 -0.33805215
1.331063 0.42783493 -0.35297686
2.8075874 0.56379545 -0.74912453
1.8315729 0.44001338 -0.51189196
1.6939474 0.47476372 -0.49671516
1.7812721 0.57261127 -0.54925972
0 0 0
0.72338921 0.17340419 0.22094126
0.73776793 0.20675299 0.21945566
0.74804151 0.24006996 0.21685335
0 0 0
0 0 0
0.75474924 0.21090107 0.19267432
0.8029173 0.25663063 0.19854639
0.79172075 0.15854722 0.18337171
0.8059715 0.19309591 0.17952168
0 0 0
1.0732067 0.34217501 0.22146742
0.92113942 0.18468155 0.17700541
1.1393956 0.27266279 0.20864552
1.1428331 0.31824771 0.19964974
1.2187111 0.38805136 0.20293982
2.146667 0.43019578 0.32946646
1.2926168 0.30863774 0.18667753
1.2266665 0.34090102 0.1665291
1.261286 0.40037155 0.16046576
2.1454763 0.42956766 0.24740233
1.3274213 0.31692347 0.1410552
1.2548684 0.34819597 0.12218454
1.2833117 0.40667295 0.11370666
1.3482893 0.26973444 0.10488363
1.307377 0.31170377 0.089528985
1.2911172 0.35791439 0.076666333
1.2970388 0.4105497 0.064681374
1.3238019 0.26440307 0.053299185
1.3176198 0.31346542 0.040528703
1.3008459 0.35990241 0.027754016
1.2881106 0.40713015 0.014736832
1.3199615 0.26344442 0.0038292126
1.337752 0.31773692 -0.0093832547
1.2924229 0.35701358 -0.021578357
1.2821932 0.40474299 -0.034480527
1.3350313 0.26572531 -0.04610768
1.32401 0.3139604 -0.058910884
1.3314396 0.36691615 -0.073007345
1.3335274 0.42058915 -0.087237395
1.3933207 0.27636668 -0.10027533
1.3803543 0.3265579 -0.11362795
1.3501201 0.37183592 -0.12549867
1.3363467 0.42104244 -0.13915752
1.3898225 0.27526945 -0.15246493
1.3735839 0.32432339 -0.16529648
1.3544627 0.37265047 -0.17781512
1.3476837 0.42425239 -0.19296327
1.4389709 0.28377736 -0.21250249
1.3736838 0.32353711 -0.21794654
1.3539847 0.37195975 -0.23086905
1.3503718 0.42486551 -0.24688917
1.4227724 0.27944791 -0.26514894
1.3707596 0.32216668 -0.27126119
1.3328215 0.36527041 -0.27975821
1.3156401 0.41348371 -0.29363692
3.3564272 0.65589309 -0.75842679
1.4274575 0.33480877 -0.33954945
1.3368376 0.36622059 -0.33499819
1.3392123 0.42140579 -0.35444555
2.8489807 0.55394375 -0.75924784
1.8436351 0.43096331 -0.51451433
1.7488102 0.47858641 -0.51193184
1.7646164 0.55533403 -0.54306298
0 0 0
0 0 0
0 0 0
0.74674159 0.23460875 0.21605511
0 0 0
0 0 0
0.75228173 0.20524366 0.19171931
0.80168992 0.25082725 0.19785859
0.78310519 0.1518302 0.18115707
0.8119002 0.18925628 0.18058018
0.9033041 0.24607418 0.19345617
1.1558388 0.36072305 0.23805819
0.89042014 0.17284629 0.1708954
1.1429648 0.26611292 0.20899618
1.1362 0.30890101 0.19815609
1.1626087 0.36234602 0.19322377
2.1725647 0.42153651 0.33303794
1.3099198 0.30428568 0.1889032
1.278497 0.34686878 0.17327328
1.2476026 0.38761771 0.15841931
2.1549001 0.41771886 0.24818881
1.3613148 0.31619936 0.14444792
1.2560202 0.34022936 0.12209113
1.2762656 0.39583924 0.11286502
1.3176149 0.25519967 0.10237373
1.3170408 0.30547956 0.090060703
1.2932889 0.34998551 0.076666333
1.3023957 0.40347022 0.064823844
1.3165698 0.25456816 0.05294412
1.3224398 0.30605087 0.040618435
1.3030298 0.35191378 0.027754016
1.2982267 0.40158281 0.014824097
1.3186077 0.2547712 0.0038206778
1.3406507 0.30974776 -0.0093900785
1.2945892 0.34907669 -0.021578357
1.2894281 0.39834332 -0.034608707
1.3601896 0.26206663 -0.046920147
1.3317525 0.30717775 -0.059170399
1.3298087 0.35770214 -0.072796196
1.3332222 0.4115158 -0.087050594
1.3920513 0.26724803 -0.10006408
1.3794178 0.31741148 -0.1133884
1.3562237 0.36457902 -0.1258557
1.3417578 0.41371444 -0.13945402
1.4246857 0.27310073 -0.1561027
1.3968444 0.32077974 -0.16785561
1.3615147 0.36561912 -0.17844301
1.3512083 0.41626686 -0.19309857
1.4338802 0.273644 -0.21149875
1.3766065 0.31532291 -0.21809916
1.3581477 0.36415595 -0.23119354
1.3689592 0.42149994 -0.24980994
1.4060987 0.26722318 -0.26173115
1.3707961 0.3133122 -0.27088284
1.3454529 0.3598713 -0.28194073
1.3190871 0.40569082 -0.29384515
3.5666356 0.67427737 -0.80497593
1.4171371 0.32322741 -0.33661646
1.3343644 0.35675573 -0.33382359
1.3408462 0.41289523 -0.35420075
2.9787788 0.56023502 -0.79290783
1.8415396 0.41857344 -0.51320314
1.8167988 0.48522976 -0.53095263
1.6524477 0.50891179 -0.50757235
0.72129661 0.13477771 0.226694
0 0 0
0 0 0
0.74724567 0.22973914 0.21578903
0.75588709 0.14173268 0.2053355
0 0 0
0.75165015 0.2001242 0.1912418
0.82834339 0.25359684 0.20404884
0.79648209 0.14935884 0.18403609
0.78921717 0.17887032 0.17528768
0.84138548 0.22366998 0.17989805
1.0463564 0.31952265 0.2151012
0.90305394 0.16955565 0.17311722
1.094645 0.24779205 0.19987892
1.1552309 0.30647522 0.20114337
1.1676443 0.35606983 0.19369391
2.254806 0.42315426 0.34524041
1.3378429 0.3021324 0.19265901
1.2690989 0.33597249 0.17171693
1.2186135 0.37042752 0.1544468
2.1779323 0.40833405 0.25054821
1.3612888 0.30740234 0.1442423
1.2551965 0.33175293 0.12181089
1.2843916 0.3897368 0.11337001
1.3279763 0.24876243 0.10305824
1.3140236 0.2962952 0.089728378
1.2818981 0.3384752 0.075866535
1.3077147 0.39634043 0.064966314
1.3004276 0.24317901 0.052233994
1.3350198 0.30034408 0.040947452
1.3119321 0.3456952 0.027897928
1.2997093 0.39331982 0.014813188
1.3093332 0.24465516 0.0037893839
1.327891 0.29822898 -0.009287715
1.2996076 0.34188983 -0.021626629
1.292805 0.39071327 -0.034634344
1.3617719 0.25371575 -0.046920147
1.3326374 0.29878196 -0.059127148
1.3223194 0.34700114 -0.0722683
1.3424102 0.40534708 -0.087486468
1.4083765 0.26143238 -0.10112035
1.3852304 0.3098118 -0.1137078
1.3603621 0.35675582 -0.12603422
1.3461765 0.40604854 -0.13965169
1.4136256 0.26199841 -0.15471178
1.3920008 0.31068832 -0.16704135
1.364692 0.35750955 -0.17856859
1.3451992 0.40539515 -0.19188072
1.4715422 0.2714842 -0.21680416
1.4161376 0.3152453 -0.22405149
1.3641751 0.35681441 -0.23184249
1.3715197 0.41309223 -0.24980994
1.4096469 0.25894591 -0.26209092
1.3726928 0.30489525 -0.27088284
1.3495324 0.35210383 -0.28233755
1.3196784 0.39702585 -0.29342866
3.6264081 0.66255724 -0.81753337
1.4695039 0.32569876 -0.34857401
1.3713288 0.35763732 -0.34251568
1.3368558 0.4027026 -0.3524873
3.016427 0.54817432 -0.80201882
1.8469001 0.40789041 -0.51398981
1.8216045 0.4745582 -0.53149611
1.5985785 0.48160249 -0.49010873
0.74655646 0.13476226 0.23436855
0 0 0
0.73400617 0.19119941 0.21725284
0.74864125 0.2251498 0.21578903
0.76149589 0.1379531 0.2066253
0 0 0
0 0 0
0.80750495 0.24180807 0.19854639
0.79450494 0.14394736 0.18337171
0.78170961 0.17213285 0.17338239
0.85032576 0.2204694 0.18151693
0 0 0
0.87410253 0.1585736 0.1673775
1.0413376 0.22901723 0.18988496
1.1456333 0.29641691 0.19915186
1.1830573 0.3528505 0.19588785
2.224278 0.40331253 0.34018081
1.348377 0.29582778 0.19391094
1.3114595 0.33858964 0.17716414
1.2379917 0.36803523 0.15661363
2.1745305 0.39390019 0.24987411
1.3699505 0.30053586 0.14496197
1.2620291 0.32528746 0.12227795
1.2791165 0.37958074 0.11269669
1.2068322 0.218413 0.093551025
1.318741 0.28886744 0.089927778
1.2897519 0.33209696 0.076209307
1.3034182 0.38632205 0.064633884
1.3195946 0.23839265 0.05294412
1.3241429 0.28937265 0.040558614
1.3101552 0.33664355 0.027815692
1.2992216 0.38448629 0.014780465
1.3176985 0.23786013 0.0038092984
1.3257879 0.28922305 -0.0092604188
1.3074919 0.33539978 -0.021723175
1.3009301 0.38447338 -0.034788162
1.3170729 0.23703517 -0.04532906
1.3324932 0.29017422 -0.05904064
1.3253912 0.33912855 -0.072321095
1.3381717 0.39512414 -0.087050594
2.0687835 0.37090507 -0.14837088
1.3802867 0.29982522 -0.11314884
1.3654203 0.34914231 -0.126302
1.3467337 0.39721784 -0.13945402
1.3496333 0.24158216 -0.14754325
1.3899982 0.30129969 -0.16657604
1.3658988 0.34888372 -0.17844301
1.3476614 0.39713353 -0.19188072
1.4673344 0.26140839 -0.21594381
1.3881 0.30007663 -0.21932015
1.3692073 0.34916878 -0.23232922
1.3711935 0.40383402 -0.2492945
1.3114464 0.23259771 -0.24356288
1.3994944 0.30184963 -0.27580112
1.3583165 0.34550792 -0.28372642
1.3249047 0.38974908 -0.29405341
3.6332896 0.64080226 -0.81818295
1.4676651 0.31585607 -0.34767157
1.3603089 0.34586304 -0.33922678
1.3290708 0.39147875 -0.34979466
3.0349803 0.53232974 -0.80606812
1.8597473 0.39877591 -0.51687449
1.8422046 0.46787319 -0.53665888
1.6070257 0.47341153 -0.49179873
0 0 0
0 0 0
0 0 0
0.74630946 0.21946418 0.21472472
0 0 0
0 0 0
0.74651831 0.18897876 0.18933177
0.7762782 0.22727634 0.190522
0.80305797 0.14041333 0.18514341
0.77988386 0.16672018 0.17274727
0.8022908 0.20276962 0.17099421
0 0 0
0.88667494 0.15524095 0.16959932
1.0417603 0.22241782 0.18970962
1.1445619 0.28865841 0.19865397
1.1842519 0.3453083 0.19573115
2.2471662 0.39323658 0.34330586
1.3182045 0.28074163 0.1893205
1.3250513 0.33343998 0.17872047
1.2888443 0.37456128 0.16275299
2.1025155 0.36754566 0.24133523
1.3980367 0.2977182 0.14773783
1.2572418 0.31583962 0.12162407
1.2766366 0.37033701 0.11227587
0.98518223 0.17206253 0.076285914
1.3273203 0.28222296 0.090393029
1.3033854 0.32709306 0.07689485
1.3086423 0.37915108 0.064776354
1.1123447 0.19391143 0.044580366
1.3190491 0.27979058 0.040349241
1.3180152 0.33005548 0.027939044
1.3053987 0.37761864 0.014824097
1.208795 0.21055138 0.0034906715
1.3265593 0.28087556 -0.0092535941
1.3066154 0.32664338 -0.021674903
1.3003836 0.37565145 -0.034711253
1.7074558 0.29648849 -0.058700964
1.3293612 0.28095981 -0.058824372
1.3371365 0.3334057 -0.072848983
1.3348174 0.38524526 -0.086676985
2.1791418 0.37690502 -0.15611686
1.3801497 0.29093906 -0.11298914
1.3791344 0.34364751 -0.12737311
1.3548826 0.39060089 -0.14004701
7.0405617 1.2157128 -0.76885122
1.4132036 0.29726294 -0.16913518
1.3747528 0.34217349 -0.17932203
1.352929 0.38967967 -0.19228669
1.4152652 0.24318229 -0.20805743
1.4228011 0.29845208 -0.22450936
1.3837731 0.34385443 -0.23443836
1.3708055 0.39459538 -0.24877907
4.2779093 0.73168308 -0.793648
1.3792144 0.28863066 -0.27145034
1.3556542 0.33598804 -0.28273436
1.3253913 0.38107175 -0.29363692
3.6034665 0.61276841 -0.81060517
2.8485541 0.59477293 -0.67390978
1.3473096 0.33377013 -0.33546802
1.3566047 0.39055887 -0.35640383
3.0353277 0.51321357 -0.80530888
2.7596991 0.57405907 -0.76600224
1.8356987 0.45424911 -0.53394163
1.6006798 0.46088722 -0.48898202
0.69538748 0.11673293 0.21783878
0 0 0
0.73536402 0.18194674 0.21697749
0 0 0
0 0 0
0 0 0
0.74012113 0.18253443 0.18742174
0.76549262 0.21902803 0.18754151
0.81929016 0.1380762 0.18868683
0.78472006 0.16272555 0.17359407
0.81873447 0.20158918 0.17423198
0.95581824 0.27274549 0.19542378
0.88276577 0.14897983 0.16867357
0.96019691 0.1988516 0.17463104
1.1348197 0.27880672 0.19666246
1.1929972 0.33992988 0.19682811
0.99849397 0.16842106 0.15238197
1.3199023 0.27264798 0.1893205
1.3068484 0.32034591 0.17599688
1.2109008 0.34386623 0.15264109
1.2150217 0.20472582 0.13931829
2.1031651 0.43440583 0.22196658
1.2610903 0.30859268 0.12181089
1.2779262 0.362225 0.1121917
0.87412673 0.1471453 0.067615338
1.3182777 0.27185661 0.089661919
1.3024584 0.31837827 0.076723464
1.3042164 0.36920971 0.064443924
0.94500858 0.15877186 0.037834138
1.3178039 0.27108759 0.04025951
1.3277861 0.32385737 0.028103514
1.3067288 0.36932978 0.014813188
0.8954671 0.15031978 0.0025831538
1.3155236 0.270116 -0.00916488
1.3163668 0.32051229 -0.021803632
1.3093985 0.36956617 -0.034890704
1.9773593 0.33086985 -0.067908958
1.3408475 0.27480361 -0.059256908
1.3246009 0.32166016 -0.072057143
1.3409984 0.37813118 -0.08692605
2.173542 0.36221519 -0.15555352
1.3867919 0.28346327 -0.1133884
1.3754096 0.33376953 -0.12683757
1.3582116 0.38254994 -0.14014585
1.0837624 0.1802952 -0.11822719
1.415974 0.28878456 -0.1692515
1.3691131 0.33186206 -0.17831743
1.3524333 0.38056576 -0.19188072
5.24122 0.8675139 -0.76971209
1.4062048 0.2859742 -0.2216095
1.4059974 0.340231 -0.23784542
1.3750975 0.38671023 -0.24912269
4.2891126 0.70653975 -0.79490715
1.3780724 0.27957681 -0.27088284
1.3548321 0.32697377 -0.28213915
1.3305295 0.37372559 -0.29426166
3.6640022 0.59995413 -0.8233791
2.8636081 0.57960248 -0.67661709
1.3918531 0.33575413 -0.3460395
1.3505753 0.37986487 -0.35420075
3.0384197 0.49457949 -0.80530888
2.7678993 0.55806869 -0.76731342
1.8440648 0.44432953 -0.53557199
1.7096988 0.48093688 -0.52137429
0.75456977 0.1219121 0.23613958
0 0 0
0 0 0
0 0 0
0.78870207 0.12793523 0.21333222
0 0 0
0.74594843 0.17912337 0.1886155
0.77244681 0.21589902 0.18891713
0.82686001 0.13413963 0.19023706
0.79145277 0.15906295 0.17486428
0.80376637 0.19268072 0.17079185
0.91305 0.25449339 0.18635674
0.86814332 0.1410391 0.16571113
0.94112849 0.18888783 0.17094906
1.1250002 0.26908556 0.19467095
1.1636617 0.32386461 0.19165668
0.81600505 0.13249558 0.12440559
1.7788981 0.35609463 0.2548385
1.3232565 0.31577352 0.17794232
1.2072483 0.33483788 0.15191883
0.77781475 0.12615526 0.0890963
2.102865 0.4209072 0.22165816
1.2445581 0.29646543 0.12003604
1.2791643 0.35411111 0.11210753
0.80119306 0.12981789 0.061911002
1.2993736 0.25965667 0.088266142
1.3082725 0.31130502 0.076951981
1.3112711 0.36253113 0.064681374
0.81477273 0.13175553 0.032587066
1.3027779 0.25967494 0.039751034
1.3307209 0.31593505 0.02812407
1.3022231 0.3594425 0.014736832
0 0 0
1.3112717 0.26086831 -0.0091239344
1.3163629 0.31196806 -0.02177145
1.3097141 0.36099362 -0.034839433
1.2896378 0.20766756 -0.044245765
1.348388 0.26773858 -0.059516426
1.3372399 0.31605312 -0.072637826
1.33752 0.36830607 -0.086552449
1.5030123 0.24100421 -0.10745797
1.3963277 0.27649775 -0.1140272
1.3764622 0.32509494 -0.12674829
1.3614928 0.3744728 -0.14024469
1.2046235 0.19281331 -0.13128033
1.4235656 0.28124589 -0.16994944
1.3856072 0.32687187 -0.18020107
1.3690737 0.37619808 -0.19391049
5.3207235 0.84716475 -0.78060967
1.4593246 0.28746384 -0.22969857
1.4147818 0.33318087 -0.23898111
1.3755445 0.37774378 -0.24877907
4.2991967 0.68113256 -0.79598647
1.3913242 0.27338779 -0.27315283
1.3634919 0.32022312 -0.283528
1.3318542 0.36529589 -0.29405341
3.6155367 0.56926137 -0.81168765
3.0650072 0.60081321 -0.72331923
1.4440404 0.33898082 -0.35849032
1.3949537 0.38312617 -0.36521602
3.0194135 0.4724867 -0.79948801
2.8195746 0.55050558 -0.78068769
1.8476936 0.43322587 -0.53584373
1.7625805 0.48416159 -0.53658456
0 0 0
0 0 0
0 0 0
0.74278551 0.20365082 0.21259609
0.79042691 0.12324228 0.2135902
0 0 0
0.74419665 0.17388014 0.18789925
0 0 0
0.83730274 0.13056608 0.1924517
0.79049522 0.15383032 0.17444088
0.78776664 0.18374123 0.16714938
0.93353009 0.25403917 0.19021505
0.85442829 0.13343516 0.16293386
0.91037756 0.17691207 0.16516308
1.0766857 0.25055507 0.18604103
1.1932666 0.32422853 0.19620128
0.78260642 0.12214885 0.11919723
2.1913133 0.42468312 0.31354037
1.2672172 0.29419422 0.17016058
1.2878546 0.34869882 0.16178994
0.79035592 0.12321708 0.090444542
2.1522815 0.41707972 0.22659302
1.2502334 0.28972244 0.12040969
1.2774652 0.34521586 0.11177088
0.82562006 0.12858196 0.063736394
1.3048608 0.25243703 0.088532001
1.3140485 0.30417231 0.07718049
1.2951478 0.34953347 0.063779064
0.81161636 0.12613988 0.032429259
1.3210312 0.25489569 0.04025951
1.3150997 0.30371442 0.027754016
1.3053697 0.35170561 0.014747741
0.8004052 0.12428301 0.0023043554
1.3040103 0.25111577 -0.0090625174
1.3094834 0.30186373 -0.021626629
1.3128698 0.35321027 -0.034865066
0 0 -0
1.3637409 0.26209986 -0.060121972
1.3294216 0.30560479 -0.07210993
1.3484293 0.36242378 -0.087112859
0.88926965 0.13700078 -0.063517101
1.3803761 0.26454762 -0.11258989
1.3706653 0.31485912 -0.12603422
1.3676093 0.36714381 -0.14064002
0.89623058 0.13781698 -0.097577557
1.4408733 0.27549011 -0.17181063
1.3808181 0.31681082 -0.17932203
1.3742273 0.36856052 -0.19431645
0 0 -0
1.451353 0.27665365 -0.22817233
1.420647 0.32537487 -0.23963009
1.3806911 0.37006161 -0.2492945
4.3363595 0.65977114 -0.80210251
1.3958694 0.26539588 -0.27372029
1.3596981 0.31054151 -0.28233755
1.3435186 0.35964605 -0.29613593
3.6257191 0.54808766 -0.81320328
3.4419262 0.65279329 -0.81130886
1.5436997 0.35239559 -0.38268727
1.4590882 0.39112869 -0.38137168
3.0385199 0.45639396 -0.80379039
2.9395323 0.55522448 -0.8129431
1.8578234 0.42359197 -0.53801751
1.7961018 0.48153704 -0.54587972
0 0 0
0 0 0
0 0 0
0 0 0
0.80072337 0.11981983 0.21616979
0 0 0
0.74146175 0.16845003 0.18694423
0.775038 0.20640364 0.18891713
0.83037275 0.12427136 0.19068
0.80775213 0.15205058 0.17803977
0.78887922 0.17890412 0.16714938
0.85256499 0.22639695 0.17343137
0.83870941 0.12571357 0.15978627
0.88435411 0.16623037 0.16025378
1.0503099 0.23763317 0.18122818
1.1331806 0.30044815 0.1860151
0.78334117 0.11734457 0.11919723
2.2123709 0.41469589 0.31618333
1.3299336 0.30016628 0.1783314
1.2669346 0.33470458 0.15890083
0.79306251 0.1186593 0.090669245
2.1401353 0.40111712 0.22505088
1.2471311 0.28095165 0.11994263
1.2805229 0.33762503 0.11185504
0 0 0
1.2553852 0.23488368 0.085075796
1.3139422 0.29566538 0.077066235
1.3107914 0.34514081 0.064443924
0.81138676 0.12101012 0.032389808
1.2832667 0.23945132 0.039063092
1.3188896 0.2960774 0.027795136
1.3094373 0.34419778 0.014769557
0.79521823 0.11848525 0.0022872859
1.297662 0.24164526 -0.0090079242
1.317165 0.2951349 -0.021723175
1.3169463 0.34565559 -0.034916341
0.81262219 0.12064349 -0.027827099
1.3790748 0.25628269 -0.060727514
1.3302972 0.2972241 -0.072057143
1.3486968 0.35363689 -0.086988322
0 0 -0
1.4005957 0.25952342 -0.11410705
1.3764597 0.30731103 -0.12639125
1.3659856 0.35773697 -0.14024469
0 0 -0
1.4493731 0.26790759 -0.1726249
1.385641 0.30898005 -0.17969877
1.382214 0.36162615 -0.19512834
0.86560535 0.12695038 -0.12675588
1.467602 0.27042949 -0.23046169
1.418764 0.31579426 -0.23898111
1.3829358 0.36158288 -0.2492945
4.3043113 0.62789756 -0.79544687
1.2757844 0.23446243 -0.24988566
1.3644484 0.3028298 -0.28293279
1.3457001 0.35139561 -0.29613593
3.6232166 0.52499032 -0.81190419
3.3864553 0.62077105 -0.79732072
1.5714546 0.34860072 -0.38903016
1.4445759 0.37775323 -0.37696558
3.029772 0.4360874 -0.80075336
2.9362385 0.53596443 -0.81110746
1.8547499 0.41093555 -0.53638715
1.812947 0.47414899 -0.5501048
0 0 0
0 0 0
0 0 0
0.74802679 0.19525073 0.21339433
0.8004871 0.1147673 0.21591182
0 0 0
0 0 0
0.7828846 0.2033572 0.190522
0.82725841 0.11862029 0.18979414
0.80963147 0.14726636 0.17825149
0.79091847 0.174271 0.16735174
0.86628646 0.22435956 0.17593928
0.81903774 0.11763119 0.15589808
0.90085608 0.16361585 0.1630591
1.0151489 0.22313924 0.17492171
1.1809001 0.30535758 0.19353719
0 0 0
2.2557998 0.40852493 0.32202569
1.3055996 0.28626648 0.17482962
1.2449311 0.32073277 0.15589134
0.79574287 0.11407293 0.090893947
1.958545 0.35465685 0.20572262
1.2167354 0.26627019 0.11685999
1.2777451 0.32852089 0.11143422
0.82614869 0.1182993 0.063660331
0.91118199 0.16470285 0.061679952
1.3001262 0.28418654 0.076152176
1.3061119 0.33535254 0.064111494
0.80815732 0.11546396 0.032232001
1.1351894 0.204621 0.034516696
1.3216583 0.28819227 0.027815692
1.3202422 0.33839116 0.01486773
0 0 0
1.1938127 0.2147363 -0.0082777357
1.2994111 0.28279483 -0.021401351
1.3142 0.33632922 -0.034788162
0.76288402 0.10847938 -0.0261006
1.2675363 0.22751769 -0.055753395
1.3359995 0.28990301 -0.0722683
1.3489075 0.34486035 -0.086863793
0 0 -0
2.0271981 0.3627784 -0.16497213
1.377346 0.29864842 -0.126302
1.3797251 0.35230306 -0.14143069
0.83780038 0.11832676 -0.091050982
1.4382788 0.25674039 -0.17111269
1.3991461 0.30299178 -0.18120568
1.3834469 0.35289335 -0.19499303
0 0 -0
1.4507467 0.25812998 -0.22756183
1.4515382 0.31375411 -0.24417283
1.3908559 0.35455057 -0.25032535
4.3665371 0.60963607 -0.8062399
4.1757927 0.74096495 -0.81699932
1.3720295 0.29569092 -0.28412324
1.3554137 0.34506235 -0.29780197
3.607996 0.50020152 -0.80779052
3.3882818 0.59964085 -0.79686952
2.1341934 0.4597137 -0.52763385
1.4722337 0.37534976 -0.38357469
3.0323906 0.41748887 -0.80075336
2.9071596 0.51224446 -0.80219132
1.8572364 0.39954731 -0.53638715
1.8316282 0.46704641 -0.5548932
0.76017439 0.1037449 0.23702511
0 0 0
0 0 0
0 0 0
0.80309063 0.11011594 0.21642774
0.77957082 0.13675013 0.20262714
0 0 0
0.77751255 0.1968772 0.18891713
0 0 0
0.8162955 0.14330976 0.17952168
0 0 0
0.84386259 0.21303551 0.17111638
0.81098199 0.11139985 0.15423171
0.8688724 0.15230575 0.1570978
0.98274428 0.20970345 0.16911311
1.2038208 0.30341637 0.19698483
0.78864092 0.10826087 0.11979247
2.2094893 0.38615161 0.31507051
1.1734949 0.24976452 0.15693162
1.2670953 0.31816509 0.15841931
0.79052109 0.1083784 0.090219833
1.0621598 0.18561415 0.11144594
1.2826235 0.2724531 0.12302526
1.2768372 0.31994799 0.11118172
0.79129523 0.10835791 0.060922254
0.89153355 0.15550832 0.060284179
1.2852428 0.2726813 0.075181
1.3110521 0.32805949 0.064253964
0 0 0
0.90598756 0.15757333 0.027517643
1.3253579 0.28049132 0.027856808
1.3213236 0.33004165 0.014856822
0.80156642 0.10939388 0.0023015102
0.9212085 0.15987279 -0.006380613
1.3197093 0.27874243 -0.021707086
1.3220587 0.32971051 -0.034941975
0.79621577 0.10823902 -0.027217748
1.9392939 0.3358261 -0.085208841
1.3309129 0.28025964 -0.071898781
1.3451873 0.33512947 -0.086490177
0.82442164 0.11151655 -0.058728673
2.1521709 0.37152928 -0.17495351
1.3469887 0.28342384 -0.12335644
1.3770325 0.34262922 -0.14093652
0.79909778 0.10786385 -0.086771272
6.5903168 1.1347255 -0.78320986
1.414571 0.29725736 -0.18296373
1.3923169 0.34607103 -0.19594026
0.81413054 0.10921308 -0.11901286
1.3071702 0.22431786 -0.2048209
1.4650249 0.30727237 -0.24611972
1.4159511 0.35170934 -0.25444877
2.3986347 0.3198944 -0.44251451
4.1086378 0.70307273 -0.80300122
1.3728588 0.28706613 -0.28392485
1.3470631 0.33414888 -0.29551119
3.6429358 0.48228216 -0.81493527
3.4543192 0.58949196 -0.8115344
2.8305869 0.59156919 -0.6988917
1.4284014 0.35485479 -0.37158036
3.0300994 0.39824429 -0.79948801
2.915956 0.49536651 -0.8037647
2.4183025 0.50474447 -0.69752067
1.8419089 0.45764989 -0.55714655
0.76363903 0.09944877 0.23791064
0 0 0
0 0 0
0 0 0
0 0 0
0 0 0
0 0 0
0.78248608 0.1930353 0.18983421
0.82285023 0.10770027 0.18846536
0.83450484 0.14123395 0.18333228
0.79491532 0.16495004 0.16775645
0.84610677 0.20808801 0.17130931
0.81359893 0.10667717 0.15460201
0.85814166 0.14500321 0.15499382
0.98208117 0.20326975 0.16878121
1.248822 0.30662164 0.20403679
0 0 0
0.87300861 0.1470609 0.12435895
1.0206038 0.21068588 0.13631003
1.3027743 0.31863925 0.1626326
0.77934796 0.10197873 0.088871583
0.80334431 0.13531132 0.084201314
1.1604272 0.23906437 0.11116178
1.2749041 0.31116238 0.11084506
0.80578697 0.10530957 0.061987065
0.81965637 0.13779405 0.055365734
1.3113388 0.26982024 0.076609209
1.3159517 0.32071841 0.064396434
0 0 0
0.82905906 0.13895819 0.025154715
1.3192191 0.27074581 0.027692342
1.3165225 0.32027337 0.014780465
0 0 0
0.82847548 0.1385482 -0.0057323151
1.3106198 0.26843274 -0.021530082
1.3240569 0.3215923 -0.034941975
0 0 -0
1.2643203 0.21095939 -0.05549388
1.3443485 0.27448526 -0.072532244
1.3423687 0.32569262 -0.086178839
0.79738951 0.10288183 -0.056756966
2.0639465 0.34327111 -0.16760722
1.3594372 0.2773436 -0.12433828
1.3849115 0.33557951 -0.14152952
0 0 -0
0 0 -0
1.4222012 0.28976047 -0.18371718
1.3905623 0.33658904 -0.19539899
0.78042686 0.099820971 -0.11399425
5.1336575 0.8485713 -0.80356342
1.4833211 0.30161995 -0.24887781
1.4238276 0.34440425 -0.25547963
2.3888426 0.30368203 -0.44035593
4.0896215 0.67401695 -0.79846126
1.3822788 0.28019473 -0.28551209
1.363349 0.32932195 -0.29863498
1.2136611 0.15310317 -0.27128425
3.3905787 0.55722636 -0.79574144
2.8455954 0.57650602 -0.70171082
1.5332726 0.37093413 -0.3982617
2.6456256 0.33121243 -0.69749564
2.8998938 0.47434965 -0.79851991
2.6864107 0.54352373 -0.77387565
1.8474802 0.44701648 -0.55799156
0.77371669 0.095936991 0.24086238
0 0 0
0 0 0
0 0 0
0.80342275 0.100133 0.21616979
0.80796301 0.13153176 0.20957153
0 0 0
0 0 0
0 0 0
0.84017879 0.13689673 0.18439078
0.80455327 0.16180722 0.1695777
0.80824369 0.19352469 0.16339976
0.80351174 0.10034349 0.15256533
0.84443915 0.13736396 0.15236382
0.97074062 0.19471873 0.16662373
1.2209017 0.29183531 0.19917876
0.78892875 0.098452426 0.11964365
0.80449122 0.13044775 0.11448257
2.1895983 0.43801424 0.29207441
1.2728357 0.30305177 0.15866007
0 0 0
0.79826814 0.12942438 0.08358445
1.6266212 0.32471547 0.15562651
1.2641863 0.30033967 0.10975092
0.78069168 0.097161591 0.060009561
0.81359154 0.13164648 0.054900475
1.3119905 0.26157373 0.076552078
1.3198386 0.31309897 0.064491414
0.79527158 0.098722443 0.031640228
0.82002813 0.13227677 0.024855612
1.3110496 0.26069626 0.027486755
1.3262472 0.3140325 0.01486773
0 0 0
0.81647539 0.13139668 -0.0056436006
1.2887043 0.25571525 -0.021143891
1.3289238 0.31415191 -0.035018884
0.76475149 0.094418809 -0.0261006
0.83057487 0.13335344 -0.036419209
1.3548241 0.26797521 -0.073007345
1.3550267 0.31997296 -0.086863793
0 0 -0
0.88487202 0.14159591 -0.071786031
1.3884726 0.27440402 -0.12683757
1.3850075 0.32661873 -0.14133185
0.81121689 0.099379465 -0.087948188
0.85427922 0.13631825 -0.10131826
1.448285 0.28583083 -0.18685657
1.3906724 0.32759598 -0.19512834
0 0 -0
5.1290073 0.8155039 -0.80203712
1.4754623 0.29060593 -0.2472554
1.4326265 0.33724144 -0.25668228
0 0 -0
4.123745 0.65367657 -0.8043254
1.352234 0.265477 -0.27896458
1.3624877 0.32027897 -0.29801023
0 0 -0
3.4622555 0.54720986 -0.81176007
3.019814 0.59253579 -0.74376172
1.5534514 0.36574095 -0.40291256
0 0 -0
2.9494607 0.46389404 -0.81136966
2.7548599 0.53979862 -0.79262477
1.8529902 0.43633193 -0.55883658
0 0 0
0.7633177 0.11966544 0.22948281
0 0 0
0 0 0
0.80498147 0.095315009 0.21642774
0.80396932 0.12582277 0.20833145
0 0 0
0.78290033 0.18297541 0.18937565
0 0 0
0.83714074 0.1311339 0.18354398
0 0 0
0.81037152 0.18878438 0.16359267
0.79045022 0.093790278 0.14997321
0.83651191 0.13081104 0.15078583
0.96030051 0.18650262 0.1646322
1.2832739 0.29843241 0.20905152
0.78755403 0.093376935 0.11934603
0.7945134 0.12383151 0.11295243
2.1795895 0.42211998 0.29038835
1.1856958 0.2746278 0.14758517
0.78350103 0.092757724 0.089208648
0.79708159 0.12421753 0.083378829
2.1290841 0.41145194 0.20345409
1.2630928 0.29190403 0.10949843
0 0 0
0.81339806 0.12649857 0.054834012
1.2723992 0.24557251 0.074152686
1.3120019 0.30274877 0.064016514
0 0 0
0.81292224 0.12601772 0.024616327
1.2458643 0.23979725 0.026088776
1.3300979 0.30633771 0.014889545
0.78258842 0.092164963 0.0022417677
0.80441928 0.12439771 -0.0055548861
1.2882853 0.24742594 -0.021111708
1.3269295 0.30509588 -0.034916341
0.79211742 0.092866711 -0.02701463
0.80076855 0.12353265 -0.035078358
1.3378078 0.2560899 -0.072004355
1.3472371 0.30941859 -0.086241111
0.79859203 0.093088895 -0.056756966
0.82168406 0.1263188 -0.066595718
1.3382814 0.25596264 -0.12210681
1.3966846 0.3203389 -0.14232019
0 0 -0
0.83742821 0.12836516 -0.099224418
1.452935 0.27749726 -0.1872333
1.3984511 0.32038438 -0.19594026
0 0 -0
0.82846045 0.12651701 -0.12942484
1.4781871 0.28173193 -0.24741764
1.458676 0.33394071 -0.26097751
0 0 -0
4.1470938 0.63131708 -0.80810863
1.3923535 0.26449135 -0.286901
1.3587062 0.31060508 -0.29676071
0 0 -0
3.4048669 0.51674622 -0.79754633
3.286006 0.62385291 -0.80836517
1.7531962 0.40143088 -0.45407218
0 0 -0
2.9140842 0.4400245 -0.80088007
2.8734751 0.54475397 -0.82577533
1.8621796 0.42645329 -0.5608083
0.76534015 0.085375823 0.23791064
0.7649855 0.11512221 0.22976753
0 0 0
0 0 0
0.79883021 0.089619927 0.21462202
0 0 0
0 0 0
0 0 0
0.80918783 0.09079624 0.18492195
0.82923132 0.12468693 0.18163867
0.82091403 0.1546413 0.1726131
0.8086437 0.1831582 0.16301392
0 0 0
0.82853633 0.12436062 0.14920785
0.95076585 0.17860413 0.16280665
1.1068649 0.25025871 0.18006012
0.78712946 0.088432439 0.11919723
0 0 0
2.2318435 0.41804859 0.29700285
1.2580576 0.28326607 0.15637286
0 0 0
0.79290998 0.11858873 0.082864784
2.1364617 0.39929491 0.20392115
1.2191657 0.27388316 0.10554268
0 0 0
0.80922467 0.12076887 0.054501683
1.2149968 0.2267701 0.070724979
1.3128604 0.29447418 0.063969024
0 0 0
0.81269151 0.1208803 0.024586417
1.1264143 0.2096469 0.023560077
1.3221947 0.29598624 0.014780465
0.77320093 0.086252712 0.0022133191
0.78934109 0.11711144 -0.0054456992
1.272084 0.23623046 -0.020822067
1.329752 0.29716626 -0.034941975
0 0 -0
0.79755825 0.11803186 -0.034905344
1.2676729 0.2346103 -0.068150744
1.3500843 0.30136368 -0.086303376
0 0 -0
0.81159604 0.11967511 -0.065717354
1.3270944 0.24539198 -0.12094643
1.4015378 0.3124125 -0.14261669
0 0 -0
0.8146165 0.11975735 -0.096432641
1.4585128 0.26929754 -0.18773562
1.4139303 0.31481221 -0.1978347
0 0 -0
0.80086339 0.11727858 -0.12499876
1.4575683 0.26854447 -0.24368611
1.4674288 0.32648179 -0.26218015
0 0 -0
4.1722655 0.60897911 -0.81227022
3.8916852 0.71455193 -0.80098152
