# .PCD v0.7 - Point Cloud Data file format
VERSION 0.7
FIELDS x y z
SIZE 4 4 4
TYPE F F F
COUNT 1 1 1
WIDTH 1546
HEIGHT 1
VIEWPOINT 0 0 0 1 0 0 0
POINTS 1546
DATA ascii
-0.35216182 2.3849971 0.02629941
-0.092098132 2.4572649 0.0069955671
-0.1807425 2.4492831 -0.016760198
-0.26964355 2.4418392 -0.039536178
-0.34624055 2.350858 -0.060936958
-0.090021633 2.4359393 -0.082567275
-0.17829062 2.4281826 -0.10540809
-0.26268968 2.3922603 -0.12722178
-0.35120663 2.3886247 -0.15062617
-0.088526562 2.4393196 -0.17231302
-0.22887303 3.1395848 -0.2521694
-0.25663784 2.3405359 -0.21100913
-0.34267014 2.3353808 -0.234433
-0.0879163 2.4413137 -0.26288164
-0.23328629 3.219496 -0.37805319
-0.18446612 1.6864049 -0.21473436
-0.34220022 2.3361521 -0.32246247
-0.084368162 2.3974674 -0.34757489
-0.085544668 1.189788 -0.18421671
-0.11493728 1.0545121 -0.17440917
-0.14490744 0.99034715 -0.17455769
-0 0 -0
-0.06701944 0.93831348 -0.18121912
-0.098212264 0.90620434 -0.18452138
-0.12830034 0.87877566 -0.18909384
-0 0 -0
-0.063517742 0.8950026 -0.20779072
-0.09646897 0.89099002 -0.21659771
-0 0 -0
-0 0 -0
-0 0 -0
-0 0 -0
-0.11507758 0.78609651 -0.23322415
-0 0 0
-0.17360081 2.49018 0.74140602
-0.27101684 2.5098984 0.72307473
-0.34374237 2.3560164 0.65721196
-0 0 0
-0.16961104 2.4421651 0.6267305
-0.27786344 2.5915253 0.6408152
-0.36169764 2.4998465 0.59495139
-0 0 0
-0.16887861 2.426717 0.52692151
-0.26121804 2.445137 0.50812602
-0.35246599 2.4484041 0.48634094
-0.077858537 2.4171956 0.45565933
-0.16947837 2.444576 0.43640226
-0.25511876 2.3995423 0.40610382
-0.3392325 2.3629103 0.37876874
-0.077054523 2.3987398 0.36116311
-0.16990671 2.4688647 0.34762082
-0.25650975 2.4247007 0.31892139
-0.34994009 2.4530139 0.30046701
-0.077928223 2.4392049 0.27594009
-0.17232925 2.5047042 0.25949219
-0.25439495 2.4139721 0.22774154
-0.34570193 2.4318047 0.20746627
-0.075215153 2.3659284 0.18056108
-0.16907513 2.4687331 0.16483435
-0.25815707 2.4554276 0.14127856
-0.34489152 2.4318912 0.1167779
-0.075918958 2.4119256 0.095275752
-0.16552089 2.4342873 0.073011495
-0.25530347 2.4401622 0.050450638
-0.33878106 2.396024 0.026397582
-0.077582687 2.475775 0.0070467754
-0.16267435 2.4054496 -0.016453108
-0.25413743 2.4384754 -0.039455727
-0.3358576 2.3816447 -0.061680406
-0.074303783 2.4114718 -0.081720948
-0.16868475 2.5079789 -0.10882509
-0.2467712 2.3819075 -0.1265883
-0.33849144 2.4045708 -0.15149792
-0.072475344 2.4039226 -0.16977796
-0.20973733 3.1429191 -0.25232911
-0.25098288 2.4262779 -0.21859618
-0.44626856 3.1770256 -0.3186391
-0.071153954 2.3821783 -0.25646207
-0.21241052 3.2040191 -0.37607566
-0.22197124 2.1513221 -0.27375492
-0.31079918 2.2165384 -0.30568302
-0.069655992 2.3979399 -0.34757489
-0.077788889 1.1833874 -0.18314835
-0.10896924 1.0601054 -0.17522037
-0.14019448 1.0009737 -0.17627577
-0 0 -0
-0.061068952 0.93576741 -0.18065162
-0.092151925 0.90191472 -0.18352933
-0.12480088 0.89310765 -0.19200939
-0 0 -0
-0.0576469 0.88954234 -0.20643704
-0.09021055 0.88382924 -0.21471833
-0.12120083 0.86514127 -0.22054933
-0 0 -0
-0 0 -0
-0.084993117 0.83487558 -0.23694509
-0.10825469 0.77253437 -0.22899906
-0 0 0
-0.15351504 2.4156206 0.71891326
-0.24860291 2.4426529 0.70324939
-0.34421057 2.4650064 0.68701261
-0.06033539 2.3363521 0.62400323
-0.15358281 2.426724 0.62251425
-0.24253462 2.4009151 0.5933032
-0.33500725 2.4200647 0.57546359
-0.061166119 2.3669195 0.53771317
-0.15299551 2.4121015 0.5235343
-0.24787693 2.4632583 0.5115661
-0.32927138 2.3912258 0.47457305
-0 0 0
-0.15323427 2.4259188 0.4328956
-0.23842588 2.381438 0.40278462
-0.32956421 2.400172 0.38441032
-0 0 0
-0.15035805 2.3996887 0.33774447
-0.24211857 2.4311624 0.31956989
-0.33434543 2.4511807 0.2999855
-0.061165612 2.3701036 0.26807538
-0.15565151 2.4848664 0.25733319
-0.24006964 2.4204414 0.2282086
-0.32567498 2.3963597 0.20426801
-0.060696669 2.3663452 0.18056108
-0.15448268 2.4786868 0.16543254
-0.24043201 2.4301405 0.1397361
-0.33063415 2.4389107 0.11701535
-0.060966387 2.4063525 0.09503904
-0.15064295 2.4362545 0.073041402
-0.24071783 2.4456627 0.05053287
-0.32675123 2.4178762 0.026615744
-0.062415347 2.4772038 0.0070496202
-0.1523902 2.4792633 -0.016951276
-0.23760979 2.4240673 -0.039198264
-0.33298716 2.4708438 -0.063936383
-0.059579819 2.4148798 -0.081822507
-0.14982006 2.4521263 -0.10635966
-0.23147377 2.3764195 -0.12621878
-0.32492843 2.4155049 -0.15205833
-0.058154743 2.4222722 -0.1710455
-0.18930368 3.1252422 -0.25081193
-0 0 -0
-0.42703104 3.1816764 -0.31883675
-0.057384942 2.4183533 -0.26031381
-0.19072001 3.1715539 -0.37212065
-0.14163584 1.4604404 -0.18572639
-0.22917664 1.7106948 -0.2357237
-0.052334663 2.2845404 -0.33108518
-0.070937693 1.1907481 -0.18421671
-0.10084967 1.0440571 -0.17246227
-0.13339671 0.99693298 -0.17541674
-0.021991095 0.9932813 -0.18168278
-0.055383977 0.93710476 -0.18084079
-0.088957123 0.92685401 -0.18848959
-0.12177737 0.91227663 -0.19596618
-0 0 -0
-0 0 -0
-0.08543513 0.89113921 -0.21636279
-0 0 -0
-0 0 -0
-0 0 -0
-0 0 -0
-0.10504033 0.78459644 -0.23237914
-0 0 0
-0.13869017 2.416517 0.71891326
-0.22821376 2.3876705 0.68700361
-0.32602027 2.4441404 0.68062681
-0 0 0
-0.13752945 2.4073098 0.61730593
-0.23577353 2.4864647 0.61407477
-0.31581494 2.3892655 0.56766844
-0.046853129 2.377975 0.54014927
-0.13847166 2.4178736 0.52459282
-0.22999585 2.4354837 0.50549531
-0.3229053 2.4564362 0.48711258
-0.046740934 2.3452628 0.44195807
-0.13941087 2.4454887 0.43622693
-0.22316365 2.3759835 0.40162292
-0.33100235 2.525537 0.40415582
-0.05022167 2.5309982 0.38095492
-0.13713925 2.4272611 0.34150025
-0.22424607 2.40101 0.31541961
-0.32019588 2.4600768 0.30082816
-0.04703211 2.3912971 0.2704348
-0.13922377 2.4649193 0.25517419
-0.22668858 2.4377306 0.2297032
-0.31442451 2.424994 0.20654047
-0.045903597 2.3527164 0.17949627
-0.13887915 2.4726145 0.16496728
-0.22754478 2.4534402 0.14099294
-0.31732848 2.4537716 0.11763272
-0.045912463 2.3916957 0.094447263
-0.13513587 2.4271529 0.072742298
-0.2253397 2.4431114 0.050450638
-0.31063095 2.4099183 0.026506662
-0.047214333 2.4775403 0.0070496202
-0.13678829 2.4731627 -0.016903507
-0.22053713 2.4015832 -0.038812079
-0.31272271 2.4331799 -0.062910944
-0.044650156 2.4092045 -0.081619389
-0.13740203 2.5008824 -0.10843582
-0.21625301 2.3708339 -0.12584925
-0.30908513 2.4095335 -0.15156019
-0.043718603 2.4465201 -0.17273553
-0.16990735 3.1223636 -0.25049251
-0.21983504 2.4142966 -0.21725728
-0.40598479 3.1723921 -0.31765077
-0.043157157 2.4534538 -0.26405856
-0.16965009 3.1429114 -0.36863092
-0.21959516 2.4186738 -0.30740923
-0.1667057 1.3051822 -0.17970212
-0.0391789 2.3362739 -0.33854139
-0.064842567 1.2138592 -0.18772706
-0.09506347 1.0515355 -0.17359796
-0.12690315 0.99480104 -0.17490131
-0 0 -0
-0 0 -0
-0.081953615 0.91273957 -0.18551344
-0.11222668 0.8819586 -0.18930209
-0 0 -0
-0 0 -0
-0.078576393 0.87615657 -0.21260403
-0.11536136 0.90407288 -0.23009588
-0 0 -0
-0 0 -0
-0 0 -0
-0.098523386 0.77190113 -0.22843572
-0 0 0
-0.12307524 2.4020047 0.71435779
-0.21792431 2.4378595 0.70104653
-0.30627531 2.4088008 0.67024976
-0 0 0
-0.12231201 2.3994007 0.6150738
-0.21408227 2.4153183 0.59616828
-0.30686522 2.4365478 0.57844406
-0.032340631 2.3840683 0.54147804
-0.12333391 2.4128213 0.52332264
-0.21478941 2.4339225 0.50488824
-0.30234078 2.4145586 0.47843134
-0 0 0
-0.123903 2.4364657 0.4344736
-0.20909783 2.3832023 0.40261868
-0.30302164 2.4275565 0.38817137
-0.03268525 2.3849204 0.35893098
-0.12677449 2.5180581 0.3541587
-0.21200779 2.4309871 0.31918079
-0.30387425 2.4521434 0.29962435
-0.032371949 2.3925345 0.27054715
-0.1240467 2.4647338 0.25507137
-0.21146837 2.4361 0.22942297
-0.30100384 2.4387448 0.20755044
-0.031493407 2.3549478 0.1796484
-0.12470168 2.493351 0.1662966
-0.21283086 2.4587688 0.14122145
-0.29604295 2.4051116 0.11521073
-0.031092905 2.3809419 0.094013296
-0.1210811 2.4449081 0.073250771
-0.21051621 2.4464402 0.05049175
-0.29802954 2.4296441 0.026703009
-0.032076132 2.4827828 0.0070638442
-0.11905769 2.4220192 -0.016548648
-0.20639439 2.4098647 -0.038924716
-0.29572418 2.4181838 -0.062475123
-0.030312674 2.4454095 -0.082838088
-0.11966874 2.4527824 -0.10631641
-0.20263247 2.3830614 -0.12642995
-0.29477835 2.4153478 -0.15180926
-0.028191308 2.4028547 -0.16963714
-0.15103401 3.1293213 -0.25097165
-0 0 -0
-0.29896331 2.4556973 -0.24569999
-0.02747597 2.3989916 -0.25817394
-0.15107408 3.1587744 -0.37037581
-0.19931373 2.3557196 -0.29924679
-0.17339244 1.4271595 -0.19634621
-0.025211334 2.3711069 -0.34356004
-0.056460027 1.1944906 -0.18467459
-0.086787701 1.030467 -0.17002866
-0.12542456 1.0337014 -0.18160185
-0 0 -0
-0 0 -0
-0.078638077 0.94057316 -0.19106892
-0.10881057 0.89913744 -0.19284239
-0 0 -0
-0.041038085 0.88558692 -0.20530896
-0.072713621 0.87081039 -0.21119452
-0.10852686 0.89417601 -0.22740325
-0 0 -0
-0 0 -0
-0 0 -0
-0.095172927 0.7839213 -0.23181579
-0.016479958 2.4296367 0.75062877
-0.10850721 2.4065452 0.71549666
-0.20240375 2.4324446 0.69911909
-0.28975368 2.3962803 0.66625863
-0.017657094 2.3824749 0.63612729
-0.10875858 2.4262364 0.6217702
-0.19766214 2.3972304 0.59139323
-0.28485143 2.3794308 0.56445867
-0.017755119 2.3900728 0.54280686
-0.10883411 2.420367 0.52480453
-0.19856948 2.4195781 0.50165045
-0.29134551 2.4485216 0.48479757
-0 0 0
-0.10829128 2.4224272 0.43184361
-0.19318826 2.3687143 0.39996332
-0.28881863 2.4352546 0.38911161
-0.01807349 2.3880424 0.35937741
-0.10568118 2.3911672 0.3362143
-0.19740787 2.4361954 0.31969956
-0.28742999 2.4421308 0.29817984
-0.017815918 2.40958 0.27245715
-0.10576009 2.3938999 0.24766906
-0.19531654 2.4224656 0.22802179
-0.28533837 2.4346077 0.20704544
-0.017425548 2.4079418 0.18367946
-0.10800121 2.4621706 0.1641697
-0.19662026 2.4460964 0.14042164
-0.28243932 2.4168041 0.11568563
-0.01667681 2.4090652 0.095117934
-0.10573064 2.4376161 0.073011495
-0.19382957 2.4267571 0.050060026
-0.28311592 2.431427 0.026703009
-0.01684146 2.4829328 0.0070638442
-0.10539728 2.4506776 -0.016739724
-0.19429691 2.4449744 -0.039471816
-0.27719271 2.3881769 -0.061654773
-0.015163474 2.4225631 -0.082059473
-0.10363758 2.4305129 -0.10532159
-0.19004743 2.4101431 -0.12780245
-0.28006732 2.4181023 -0.15187153
-0.01342481 2.3989923 -0.16935547
-0.10544724 2.5037529 -0.20074537
-0 0 -0
-0.27806586 2.4070704 -0.24065951
-0.012808379 2.4090574 -0.25924388
-0.10215852 2.4511039 -0.28732041
-0 0 -0
-0.15408039 1.3366581 -0.18376164
-0.010644223 2.3672583 -0.34298649
-0.043648295 1.0615088 -0.1640704
-0.083073683 1.064428 -0.17554484
-0.11885421 1.0324942 -0.18125823
-0.0085089067 2.28214 -0.41733077
-0 0 -0
-0.070595399 0.91172212 -0.1851166
-0.10228761 0.89104295 -0.19096813
-0 0 -0
-0 0 -0
-0.068343252 0.88383871 -0.21424849
-0.099599957 0.8649655 -0.219815
-0 0 -0
-0 0 -0
-0.06373921 0.8271147 -0.23422782
-0.089812115 0.77972448 -0.23040742
-0.0015432475 2.3857417 0.73705071
-0.092769049 2.3822608 0.708094
-0.18548113 2.4077611 0.6916846
-0.27493507 2.3970551 0.6659925
-0.0030258496 2.3728769 0.63354772
-0.091585405 2.3678081 0.60664135
-0.18420491 2.4148586 0.59545201
-0.27101451 2.3879039 0.56606358
-0.00307823 2.3813601 0.54081362
-0.09204752 2.3711829 0.51400787
-0.18416415 2.42661 0.50286466
-0.27609628 2.4483132 0.48441178
-0.0036719115 2.416481 0.45528904
-0.093008265 2.4122245 0.42991498
-0.18168975 2.4101725 0.4067677
-0.27519432 2.4487586 0.39099216
-0.0034175639 2.3861306 0.35907978
-0.089952983 2.364063 0.33231941
-0.18252996 2.4383495 0.31982926
-0.2747497 2.4645674 0.30070779
-0.0030081822 2.3917577 0.2704348
-0.089859679 2.3626962 0.24437913
-0.18495826 2.484184 0.23371997
-0.26533836 2.3907557 0.20317386
-0.0026218318 2.3820789 0.18170196
-0.090635106 2.4029622 0.16018178
-0.1833808 2.4711518 0.14179273
-0.27079055 2.447283 0.11706284
-0.0018758875 2.3851411 0.094171099
-0.089879237 2.4142461 0.072293639
-0.17805378 2.4159355 0.049813319
-0.2679725 2.4311304 0.026681192
-0.0015983912 2.4709897 0.0070297061
-0.089916192 2.4392867 -0.016657835
-0.17826791 2.4321599 -0.039246541
-0.26307973 2.3948011 -0.061782949
-0.00029578694 2.3996239 -0.081280857
-0.088795148 2.4330995 -0.10540809
-0.17836827 2.4540911 -0.13007239
-0.26565984 2.4237437 -0.15212059
0.0012926899 2.394042 -0.16900337
-0.087466754 2.431633 -0.19491625
-0.23054527 3.1788778 -0.28562996
-0.26318297 2.407742 -0.24056065
0.0019760046 2.4120736 -0.25956488
-0.085423946 2.4040408 -0.28173685
-0.23016648 3.1852136 -0.40422803
-0.14877625 1.3641725 -0.18741524
0.0038990499 2.3781652 -0.34456375
-0.084044144 2.4030268 -0.37133327
-0.077955715 1.0846019 -0.17878966
-0.10707752 0.98325771 -0.17249599
0.0029673425 1.2325573 -0.22539459
-0 0 -0
-0.066950537 0.93951201 -0.19067208
-0.097874165 0.90137738 -0.19305065
0 0 -0
-0 0 -0
-0 0 -0
-0 0 -0
0 0 -0
-0 0 -0
-0 0 -0
-0.088248387 0.80983067 -0.23913924
0.013016751 2.3713748 0.7326231
-0.08091528 2.4670975 0.73314917
-0.17185913 2.4251559 0.69636554
-0.26968259 2.4859052 0.69020557
0.011515122 2.3689861 0.63251591
-0.077181093 2.3721983 0.60763341
-0.17237246 2.4585662 0.60595715
-0.2559422 2.3856506 0.56514651
0.011618593 2.3988869 0.54479998
-0.077400729 2.3687725 0.51337272
-0.16913505 2.4257405 0.50245988
-0.26169235 2.4558156 0.48556927
0.011082821 2.4007347 0.4523266
-0.076259814 2.3527262 0.41921967
-0.16717017 2.4151769 0.40743151
-0.25776553 2.4278123 0.38738781
0.011153754 2.3712738 0.35684758
-0.075445674 2.3645704 0.33231941
-0.16661379 2.4255745 0.31801352
-0.2510998 2.3852503 0.29083666
0.011774065 2.4135916 0.27290657
-0.076597221 2.4019768 0.24838872
-0.16883031 2.4723589 0.2325056
-0.25325993 2.4171145 0.20527798
0.012044584 2.3920209 0.18246253
-0.075731657 2.3984869 0.15984945
-0.16923127 2.4871714 0.14264967
-0.2531752 2.4240618 0.11587559
0.012994289 2.4290729 0.09590698
-0.075064011 2.4147522 0.072293639
-0.16383283 2.4259603 0.049998347
-0.25253308 2.4277563 0.026626654
0.013393186 2.4399533 0.0069415141
-0.074763097 2.4337955 -0.01661689
-0.16153289 2.4062722 -0.038812079
-0.25054488 2.4172516 -0.062321313
0.014500144 2.4115734 -0.081687093
-0.073530853 2.4226141 -0.1049323
-0.16284294 2.4481642 -0.12970285
-0.2474981 2.3935595 -0.15012802
0.01607546 2.4079537 -0.16998921
-0.071474992 2.3962548 -0.19204162
-0.21143138 3.1861956 -0.28616551
-0.25034347 2.4281189 -0.2424385
0.01669319 2.4000852 -0.25828093
-0.069679335 2.370765 -0.27778181
-0.21173035 3.2033944 -0.4063628
-0.13178624 1.2812834 -0.17591321
0.018721975 2.4077857 -0.34886542
-0.067987673 2.3580551 -0.36431259
-0.076798752 1.1687531 -0.19258016
-0.10285386 1.0015358 -0.17558855
0 0 -0
-0 0 -0
-0.061566547 0.94577348 -0.19186255
-0.091345437 0.89223105 -0.19096813
0 0 -0
-0 0 -0
-0 0 -0
-0.088779829 0.86419356 -0.21932542
0 0 -0
-0 0 -0
-0 0 -0
-0.083375782 0.81131136 -0.23942092
0.027578093 2.3722057 0.73291826
-0.062863909 2.3583047 0.70069134
-0.15753405 2.4347987 0.69884372
-0.24853937 2.4299762 0.67424095
0.026156973 2.3785319 0.63509548
-0.063620985 2.4103956 0.61730593
-0.15294574 2.3917408 0.58924443
-0.24599802 2.4336605 0.57615137
0.026016476 2.3695171 0.53815609
-0.062916599 2.3711567 0.51379609
-0.15350235 2.4150047 0.50003165
-0.24799053 2.4710433 0.48827007
0.025633618 2.3839164 0.44917899
-0.062287737 2.3708649 0.42237568
-0.15402329 2.4427299 0.41191241
-0.23972003 2.3979001 0.38237306
0.025917782 2.3909371 0.35982385
-0.061598696 2.3907275 0.3359361
-0.15259391 2.4404058 0.31982926
-0.2422339 2.4450319 0.29793906
0.026506756 2.4065189 0.27212009
-0.061319858 2.3815198 0.24622972
-0.15433609 2.4842792 0.23353314
-0.24096563 2.4444056 0.20746627
0.026844047 2.4028695 0.18329917
-0.060962655 2.3969114 0.15971652
-0.1532888 2.4772017 0.14202124
-0.23712473 2.4136407 0.11530571
0.027634604 2.4059668 0.094999589
-0.059822213 2.3981802 0.071785159
-0.14888309 2.4259222 0.049977791
-0.23763189 2.42926 0.026626654
0.027689978 2.3818295 0.0067765117
-0.059410509 2.4172139 -0.016500879
-0.14968593 2.4551227 -0.039584454
-0.2344477 2.4058089 -0.061988041
0.029539835 2.431426 -0.082364149
-0.058616225 2.4210219 -0.10484579
-0.15317264 2.5378318 -0.13440108
-0.2343518 2.4109273 -0.15112431
0.030760627 2.4008279 -0.1694963
-0.0581396 2.4544468 -0.19667296
-0.19313413 3.2083116 -0.28803998
-0.23332854 2.407819 -0.24026416
0.031406507 2.3989434 -0.25817394
-0.056401055 2.4257598 -0.28417966
-0.1912991 3.1917593 -0.40473032
-0.16977309 1.756433 -0.24100111
0.032889765 2.3640845 -0.3425563
-0.057486061 2.5333092 -0.39132699
-0.09854392 1.6548104 -0.27256501
-0.099639989 1.0325459 -0.18091463
0.033571467 2.2868278 -0.41823018
-0 0 -0
-0.053801611 0.91286707 -0.1851166
-0.087554634 0.91029924 -0.19471668
0.022153391 1.4164104 -0.31415281
-0 0 -0
-0 0 -0
-0.08543203 0.88498902 -0.22446586
0.021832021 1.3165113 -0.34444544
-0 0 -0
-0 0 -0
-0.080517411 0.83377427 -0.24589936
0.041759849 2.3509755 0.72642446
-0.050732426 2.4726968 0.73457277
-0.14180489 2.4222839 0.69498885
-0.23353244 2.430496 0.67397487
0.040320527 2.3532102 0.62838852
-0.048476748 2.3933067 0.61284173
-0.13921982 2.4091148 0.5933032
-0.22784263 2.4012089 0.56812698
0.040521692 2.367363 0.53771317
-0.048605416 2.3832238 0.5163365
-0.14002822 2.4393659 0.50488824
-0.23080008 2.4510267 0.48402593
0.040094618 2.3738887 0.44732749
-0.048452623 2.4066377 0.42868766
-0.13763167 2.4190154 0.40776342
-0.22472565 2.3963759 0.38190293
0.040285666 2.372936 0.35714522
-0.046967167 2.3930407 0.3362143
-0.13666829 2.4244666 0.31762442
-0.22465625 2.4187949 0.29456842
0.041170135 2.4003496 0.27144596
-0.046842482 2.3888128 0.24694939
-0.13903432 2.4841852 0.23343974
-0.22687919 2.4557605 0.20830792
0.041587271 2.4026594 0.18329917
-0.046119597 2.3902571 0.15925126
-0.13553099 2.4322419 0.13939333
-0.22084546 2.3991356 0.11454587
0.042414423 2.4067509 0.09503904
-0.045087337 2.3975029 0.071755253
-0.13504237 2.4457569 0.050368398
-0.22089688 2.4107568 0.02640849
0.042197529 2.3756158 0.0067594419
-0.044669818 2.4225318 -0.016534999
-0.13445461 2.4529998 -0.039536178
-0.21877301 2.3972468 -0.061731681
0.043763857 2.3932273 -0.081077747
-0.043344792 2.3983614 -0.10385097
-0.13473354 2.4858754 -0.13160327
-0.21874006 2.4033744 -0.15056391
0.045453455 2.3985994 -0.16935547
-0.042606067 2.4278476 -0.19451699
-0.17140223 3.1716428 -0.28464812
-0.21890965 2.4131696 -0.24065951
0.045743246 2.378824 -0.25603411
-0.041379865 2.4181156 -0.28324908
-0.17048587 3.1700881 -0.40184209
-0.13408586 1.4821322 -0.20324743
0.047613118 2.3747222 -0.34413359
-0.04280784 2.5859861 -0.39941603
-0.079917789 1.496743 -0.2464442
-0.093213916 1.0321566 -0.18074282
0.049568068 2.3809924 -0.43549904
-0.015268942 0.9494186 -0.1829216
-0.049490869 0.93764895 -0.19007687
-0.081441499 0.90497446 -0.19346716
0.026443705 1.2142056 -0.26933569
-0 0 -0
-0 0 -0
-0.080436438 0.89032477 -0.22568978
0.048765127 2.1462059 -0.56159031
-0 0 -0
-0 0 -0
-0 0 -0
0.055796262 2.3344369 0.7214064
-0.034635846 2.4087412 0.71549666
-0.12839787 2.4509492 0.70297402
-0.21611191 2.4040408 0.66625863
0.054938626 2.3606455 0.63045216
-0.033325832 2.3606246 0.60440922
-0.12338359 2.3895583 0.58828938
-0.21525475 2.4268005 0.57385868
0.054888092 2.3602452 0.53616291
-0.033814121 2.3717504 0.51379609
-0.12455669 2.4303989 0.50286466
-0.21558453 2.4504418 0.4836401
0.05488601 2.3834224 0.44917899
-0.033643529 2.4039364 0.42816165
-0.12433548 2.4503453 0.4129082
-0.21122405 2.4114842 0.38409692
0.054502189 2.3578153 0.35491309
-0.032296222 2.394274 0.33635342
-0.12372896 2.4638815 0.32268256
-0.21203987 2.4458423 0.29769829
0.05557372 2.3861444 0.26987302
-0.032264516 2.3950229 0.24756625
-0.12086643 2.4263225 0.22792836
-0.20975278 2.43328 0.20628797
0.056212068 2.3973751 0.18291888
-0.031334244 2.3815157 0.15865307
-0.12268047 2.4749079 0.14179273
-0.21270062 2.4770765 0.1182026
0.056967542 2.397455 0.094683975
-0.030413674 2.4007328 0.07184498
-0.12047388 2.4555268 0.050553426
-0.20627087 2.4140594 0.026430307
0.056701556 2.372313 0.0067509073
-0.029952211 2.4347591 -0.01661689
-0.11823444 2.42981 -0.039149992
-0.20448336 2.4035244 -0.061859857
0.059008893 2.4158938 -0.081856363
-0.028890222 2.4205601 -0.10480254
-0.11799228 2.4557343 -0.12996681
-0.20424218 2.4076545 -0.1507507
0.059719786 2.3803256 -0.16808793
-0.027514907 2.4111187 -0.19315952
-0.14617319 3.0522559 -0.27384773
-0.20334423 2.4055431 -0.23977
0.060338575 2.3784986 -0.25603411
-0.026847009 2.4461322 -0.28650615
-0.14937946 3.1363909 -0.39744696
-0.14546007 1.7258031 -0.23653561
0.062468249 2.385268 -0.34571084
-0.026322074 2.5269063 -0.39025861
-0.088660017 1.8766811 -0.308907
-0.086796381 1.0317274 -0.18057099
0.062904239 2.3334436 -0.42686462
-0.009794686 0.98484266 -0.18973149
-0.043143127 0.92520726 -0.18749753
-0.07605052 0.90740651 -0.19388366
0.040677566 1.4570197 -0.32324612
-0.0093389275 0.98391455 -0.22787037
-0 0 -0
-0.073020443 0.86761367 -0.219815
0 0 -0
-0 0 -0
-0 0 -0
-0 0 -0
0.070721544 2.3541059 0.7276051
-0.019515689 2.3676894 0.70325375
-0.11055941 2.3911905 0.6856268
-0.20328686 2.4283757 0.6726445
0.068939351 2.3438466 0.62606686
-0.019103542 2.3937213 0.61284173
-0.10924868 2.4019113 0.5911544
-0.19891928 2.4106145 0.56973189
0.069455214 2.3627882 0.53682727
-0.019324189 2.3797317 0.51548976
-0.10884751 2.4135075 0.49922216
-0.20030487 2.4487848 0.48306137
0.068821743 2.3594658 0.44473538
-0.018428426 2.3450289 0.41764173
-0.10815592 2.4254482 0.40859324
-0.19850712 2.438329 0.38817137
0.069026276 2.3594131 0.35521069
-0.017524535 2.3835342 0.33482325
-0.1073426 2.4358671 0.31892139
-0.19623175 2.437202 0.29649448
0.070652246 2.4006569 0.27155831
-0.0176048 2.4001491 0.2480803
-0.10549876 2.4160769 0.22690082
-0.19601078 2.4494202 0.20755044
0.070449203 2.3810382 0.18170196
-0.016755974 2.386652 0.15898541
-0.1059766 2.4407039 0.13979323
-0.19368885 2.4305408 0.11592308
0.071527652 2.3920665 0.094486721
-0.015702069 2.403873 0.071934715
-0.103433 2.4102719 0.049607735
-0.19224475 2.4252479 0.026539387
0.071587034 2.3829153 0.0067822007
-0.015073898 2.4448967 -0.016685132
-0.10345059 2.4334867 -0.039198264
-0.19028215 2.4117098 -0.062039312
0.072029911 2.3565476 -0.079859041
-0.01418803 2.446667 -0.10592712
-0.10191866 2.4324667 -0.12869987
-0.18923049 2.4058776 -0.15056391
0.073825873 2.3639617 -0.16696124
-0.012783144 2.4232039 -0.19411774
-0.10434638 2.4997964 -0.22421952
-0.19184504 2.4484124 -0.243921
0.075088196 2.3830523 -0.25656906
-0.011947857 2.4690945 -0.28918159
-0.10316002 2.4870002 -0.31506932
-0.15492846 1.9834896 -0.27171826
0.077038847 2.3828616 -0.34542409
-0.010562958 2.4677236 -0.38110122
-0.051577393 1.2550749 -0.20653288
-0.078243963 1.0037583 -0.17558855
0.078489907 2.3713567 -0.43388012
-0 0 -0
-0.037623934 0.92937183 -0.18829118
-0.06987571 0.90005493 -0.19221763
0.049616907 1.4567426 -0.32324612
-0 0 -0
-0 0 -0
-0 0 -0
0 0 -0
-0 0 -0
-0 0 -0
-0 0 -0
0.084784694 2.3431249 0.72435826
-0.0050258185 2.3859782 0.7086634
-0.098734863 2.4629064 0.70600289
-0.1883828 2.4295774 0.6726445
0.083491281 2.3482072 0.62735671
-0.0043780576 2.3734496 0.60763341
-0.090920806 2.3113256 0.56871158
-0.18471703 2.419554 0.57156599
0.082947336 2.3340559 0.53040487
-0.0047395197 2.3886013 0.51739502
-0.092931047 2.3857517 0.49335375
-0.18571959 2.4558382 0.48421887
0.083089784 2.3531065 0.44362444
-0.0040867324 2.372664 0.42255101
-0.092513926 2.406358 0.40527403
-0.18250468 2.4257128 0.38597742
0.083117262 2.3480744 0.3535738
-0.0029111584 2.3934996 0.3362143
-0.090252668 2.380002 0.31152874
-0.18164167 2.4433103 0.2970964
0.084285989 2.3693941 0.26807538
-0.0028893554 2.4101589 0.24910839
-0.089440152 2.3838463 0.22381818
-0.18222535 2.4674704 0.20898123
0.085200064 2.384547 0.18200618
-0.0021308558 2.4086611 0.16044763
-0.089548409 2.4023993 0.13756523
-0.17862521 2.4296911 0.1158281
0.08559186 2.3746066 0.093816034
-0.00095188559 2.403924 0.071934715
-0.089045987 2.4218512 0.049833879
-0.17743298 2.4273789 0.026550295
0.085375287 2.3594463 0.0067167687
-7.1273229e-05 2.4199438 -0.016514527
-0.088480711 2.4330766 -0.039182175
-0.17613322 2.4218054 -0.062270038
0.086268082 2.3500686 -0.079655923
0.00082537741 2.4487064 -0.10601364
-0.086598903 2.4220684 -0.12811919
-0.17533056 2.4189386 -0.15131111
0.087919682 2.3524992 -0.16618665
0.002061575 2.3953259 -0.19188191
-0.085639879 2.4058287 -0.21573988
-0.17997061 2.4932141 -0.24826966
0.088923305 2.3616822 -0.2543222
0.0031534955 2.4313796 -0.28476128
-0.084990382 2.4052949 -0.30464655
-0.17012595 2.3648784 -0.32381564
0.091468111 2.3773992 -0.34470713
0.0044707162 2.4094334 -0.37209642
-0.049700208 1.422027 -0.23395163
-0.077161841 1.0749669 -0.18795879
0.092498772 2.3570693 -0.43136171
0 0 -0
-0.032492522 0.94623739 -0.19166414
-0.065188408 0.91217381 -0.19471668
0.05753468 1.431048 -0.31761694
0 0 -0
-0 0 -0
-0 0 -0
0.04148569 1.0081917 -0.26396519
0 0 -0
-0 0 -0
-0.059825025 0.83262801 -0.24505436
0.097907603 2.312968 0.71520776
0.0095023438 2.3581645 0.70040661
-0.083196923 2.4509757 0.70242333
-0.17395198 2.437418 0.67450702
0.097576 2.3399282 0.62529302
0.010197709 2.376338 0.60837746
-0.078122333 2.3535733 0.578978
-0.17116207 2.4390903 0.57592213
0.096739307 2.3208368 0.52752584
0.0099410973 2.3944495 0.51866519
-0.077519894 2.3627861 0.48849708
-0.17064735 2.4569316 0.48421887
0.096916042 2.3378243 0.44084716
0.01038049 2.35197 0.41886905
-0.075932316 2.3507001 0.39581433
-0.16822985 2.4356546 0.38738781
0.097276941 2.3415921 0.35268092
0.011775134 2.3934724 0.3362143
-0.07656087 2.4092515 0.31528991
-0.16765922 2.459235 0.29890209
0.098574229 2.3628755 0.26740125
0.011913889 2.4131155 0.24941683
-0.074124545 2.362457 0.22176307
-0.1670818 2.4685421 0.20898123
0.098578244 2.3540924 0.17972445
0.01266417 2.411622 0.16064703
-0.074712679 2.3999097 0.13739385
-0.16599573 2.4646261 0.11744276
0.10028692 2.3770318 0.093934387
0.013901604 2.4218762 0.072473101
-0.074031092 2.4173555 0.049731087
-0.1629362 2.4344082 0.026615744
0.09947034 2.3498862 0.0066911643
0.014826075 2.4278984 -0.016569121
-0.072764628 2.407589 -0.038763802
-0.16465604 2.473711 -0.063577473
0.10042946 2.343504 -0.079452805
0.015488195 2.3927088 -0.10359146
-0.071292385 2.4075818 -0.12732735
-0.16550422 2.4956553 -0.15604347
0.10300323 2.366864 -0.16724291
0.016821748 2.4042394 -0.19260058
-0.07131625 2.4212425 -0.21707878
-0.16257145 2.4624972 -0.245107
0.10345615 2.3620853 -0.25442919
0.01801304 2.4233687 -0.28383067
-0.070519663 2.4156878 -0.3059023
-0.15775804 2.3985038 -0.32828113
0.10596561 2.3748159 -0.34442037
0.019088784 2.3886073 -0.3688913
-0.063790821 2.2143378 -0.36423123
-0.067855455 1.0341333 -0.18074282
0.10722736 2.3623533 -0.43244103
0.018879814 2.2309003 -0.4297806
-0 0 -0
-0.060100045 0.9203645 -0.19638269
0.057861183 1.2482994 -0.27712998
0.019118857 2.144166 -0.49657696
-0 0 -0
-0 0 -0
0.10315779 2.1810846 -0.57120746
0 0 -0
-0 0 -0
-0.054274753 0.82627726 -0.24308266
0.11182028 2.3065977 0.71343672
0.02411776 2.3724406 0.7046774
-0.065618284 2.3601475 0.67626488
-0.15780133 2.4201632 0.66945153
0.1111467 2.3228796 0.62090772
0.024748148 2.3733246 0.60763341
-0.063049369 2.3307109 0.57324785
-0.15383008 2.4031825 0.56720996
0.11107104 2.3221474 0.52796876
0.024421837 2.3738205 0.51421952
-0.063307829 2.3739858 0.49072307
-0.15470096 2.4442227 0.481518
0.11224013 2.3577993 0.44473538
0.024988269 2.3685977 0.4218497
-0.063157775 2.4142127 0.40643576
-0.15235168 2.4218557 0.38503715
0.11136021 2.3350248 0.35178804
0.026428141 2.3903844 0.33579698
-0.061700299 2.4067023 0.31490085
-0.15219782 2.4542727 0.29817984
0.11292817 2.3592484 0.26706418
0.026676206 2.4090183 0.24900559
-0.059953902 2.3758063 0.22297746
-0.15217674 2.4734993 0.20931791
0.11268602 2.3464715 0.17919205
0.027620433 2.4254673 0.16157755
-0.059985705 2.4003229 0.13739385
-0.14879571 2.4317 0.1158281
0.11458076 2.3703833 0.093697675
0.028726084 2.4187467 0.072383367
-0.059148137 2.4157653 0.049689967
-0.15036139 2.4742882 0.02704116
0.11364499 2.3442376 0.0066769402
0.029196704 2.3847659 -0.016275682
-0.057846133 2.4019926 -0.038667254
-0.14670204 2.4287736 -0.062398214
0.11490488 2.34484 -0.079520509
0.030446416 2.4145463 -0.10454302
-0.056448106 2.404979 -0.12716898
-0.14701168 2.4438221 -0.15274328
0.1166334 2.3482542 -0.16597539
0.031586654 2.4050875 -0.19268042
-0.056528084 2.4246218 -0.21734655
-0.15126418 2.5270214 -0.25143233
0.11839408 2.3703432 -0.25539213
0.03245097 2.391433 -0.28010833
-0.055421587 2.4041731 -0.30439538
-0.14227165 2.386569 -0.32652199
0.11978249 2.3592951 -0.34226951
0.033786528 2.3914096 -0.36934918
-0.054786906 2.4169195 -0.39749062
-0.058702365 0.98732734 -0.17249599
0.12166984 2.3606687 -0.43226114
0.032568004 2.2307425 -0.4297806
-0 0 -0
-0.054336179 0.91876328 -0.19596618
0.10682752 2.0346959 -0.45185176
0.021233069 1.4105061 -0.32668942
-0 0 -0
-0 0 -0
0 0 -0
0 0 -0
-0 0 -0
-0.049146771 0.82563692 -0.24280098
0.12586696 2.3039603 0.7128464
0.038439937 2.3578706 0.70040661
-0.05357147 2.4729567 0.70848107
-0.14243719 2.4124255 0.66705686
0.12498076 2.314436 0.61884403
0.039342221 2.3750653 0.60812944
-0.048929937 2.3397915 0.57539666
-0.1403183 2.4254591 0.57225382
0.12563278 2.3272648 0.52929753
0.038730055 2.3579907 0.51083231
-0.048840623 2.379225 0.49173483
-0.13953267 2.4421871 0.48093927
0.12496445 2.3246837 0.43862534
0.039291278 2.3546185 0.41939503
-0.047158852 2.3553987 0.39647818
-0.13771242 2.4266891 0.38566402
0.12584506 2.3372598 0.35223448
0.040703226 2.3674042 0.33259758
-0.046796583 2.4000957 0.31399295
-0.13901818 2.4888606 0.30227271
0.12697335 2.3505735 0.26616538
0.041354463 2.402842 0.24838872
-0.045375098 2.3761296 0.22297746
-0.13650098 2.4654319 0.20856042
0.12794462 2.3616662 0.18040898
0.042309981 2.414278 0.16084643
-0.045030657 2.3886676 0.1367083
-0.13650692 2.4804409 0.11810762
0.12906863 2.368638 0.093658231
0.043530691 2.4165263 0.072323553
-0.04434251 2.4170825 0.049710531
-0.13348623 2.4442122 0.026703009
0.12753588 2.3345096 0.0066513363
0.04347964 2.3655455 -0.016146021
-0.043160513 2.4053013 -0.03871553
-0.13455816 2.4805365 -0.06370566
0.1291803 2.3420951 -0.079452805
0.044942874 2.3973329 -0.10380772
-0.041811511 2.4122691 -0.1275385
-0.13368225 2.4755731 -0.15467359
0.13087302 2.3445065 -0.16576414
0.046343401 2.4048483 -0.19268042
-0.041752446 2.4308982 -0.21788211
-0.13474192 2.5090222 -0.2495545
0.13182217 2.3497183 -0.25325227
0.047104344 2.3901956 -0.27999198
-0.040870149 2.4163713 -0.3059023
-0.12783682 2.3913546 -0.32706326
0.13375039 2.349623 -0.34097901
0.048959918 2.4158595 -0.37316477
-0.040053789 2.4231298 -0.39846408
-0.055159938 1.0348881 -0.18074282
0.1359257 2.3559494 -0.43154162
0.046682507 2.2511172 -0.43375307
-0 0 -0
-0 0 -0
0.095356666 1.6256423 -0.36113498
0.046090122 2.1749377 -0.50379658
-0 0 -0
-0 0 -0
0.058769826 0.98601115 -0.25839734
0 0 -0
-0 0 -0
-0 0 -0
0.14098695 2.3193574 0.71786439
0.052519713 2.3403397 0.69528168
-0.03674024 2.3665426 0.677917
-0.12732667 2.4074783 0.66546041
0.14028181 2.3319495 0.62374532
0.053628761 2.3621886 0.60490525
-0.035648227 2.4128709 0.5933032
-0.12432776 2.4048893 0.56720996
0.13967608 2.3225565 0.52841169
0.05335201 2.3645482 0.5123142
-0.034255147 2.3804593 0.49193722
-0.12359588 2.4243784 0.47727391
0.13922609 2.323873 0.43862534
0.053693272 2.3523645 0.41904435
-0.033102524 2.3842387 0.40129101
-0.12316929 2.4343932 0.38676098
0.14006539 2.3344693 0.35193685
0.055390269 2.3740401 0.33357131
-0.032082237 2.4013293 0.31412265
-0.12157584 2.4460404 0.296976
0.14061789 2.3368556 0.26470476
0.055748954 2.3876264 0.24684657
-0.030730085 2.3713856 0.2225104
-0.12078306 2.4542801 0.20755044
0.14207283 2.3548651 0.17995262
0.056934081 2.405993 0.16031471
-0.03042399 2.3928919 0.13693681
-0.12079697 2.4712548 0.11763272
0.1430555 2.358825 0.093303159
0.058164317 2.4082196 0.072084263
-0.029522939 2.4183087 0.049731087
-0.11950274 2.4659593 0.026932079
0.14216115 2.3386738 0.0066655609
0.05826316 2.3762305 -0.016221087
-0.028460069 2.4105198 -0.038795982
-0.11890314 2.4723287 -0.063474931
0.14397682 2.3482411 -0.079689771
0.059999753 2.4109945 -0.10441326
-0.027165828 2.4264598 -0.12827756
-0.11820369 2.4703653 -0.15429997
0.14476255 2.3356946 -0.1652008
0.061073083 2.4035225 -0.19260058
-0.026275264 2.3803153 -0.21332988
-0.11622482 2.4441991 -0.24303149
0.14679334 2.3577962 -0.25421521
0.061641112 2.3848972 -0.27941039
-0.026074877 2.4195526 -0.30627903
-0.11362953 2.4019909 -0.32841644
0.14685646 2.3280165 -0.33796784
0.06320852 2.3937788 -0.36980703
-0.025543896 2.4578645 -0.40414253
-0.050803985 1.0775207 -0.18813059
0.1495014 2.3413274 -0.42902324
0.060256783 2.2419541 -0.43205059
-0 0 -0
-0 0 -0
0.14839606 2.2894559 -0.50879329
0.060259536 2.2048035 -0.51079065
-0 0 -0
-0 0 -0
0 0 -0
0 0 -0
-0 0 -0
-0.038377643 0.8127597 -0.23885758
0.15444973 2.3070087 0.71432227
0.066741839 2.3351822 0.69385809
-0.022290913 2.3744137 0.68011975
-0.11174221 2.390882 0.66067094
0.15388449 2.3204401 0.62090772
0.067730851 2.3482583 0.6014331
-0.020423094 2.3644922 0.58136553
-0.11058792 2.4279711 0.57248312
0.15411793 2.3245747 0.5290761
0.067607224 2.3553839 0.51040888
-0.019721018 2.3894379 0.49375844
-0.10880573 2.4270515 0.4776597
0.15425994 2.3347418 0.44084716
0.068240114 2.3559272 0.41974568
-0.018128704 2.3400223 0.39382279
-0.10849293 2.4410231 0.38770124
0.15392983 2.326659 0.3508952
0.06919758 2.3479197 0.32995465
-0.017383166 2.4064386 0.31477112
-0.10634895 2.4417815 0.29637411
0.15330967 2.3111615 0.26189592
0.070222192 2.381274 0.24622972
-0.016301217 2.3894503 0.22419183
-0.10434971 2.4231179 0.20485716
0.15592395 2.3449948 0.17926811
0.071041964 2.3836567 0.15885246
-0.015754042 2.3950305 0.13705108
-0.10447995 2.4450045 0.11635049
0.156727 2.3459389 0.092829749
0.072031818 2.3778446 0.071186952
-0.014714271 2.4234431 0.049833879
-0.10403147 2.4586539 0.026844816
0.15644149 2.3367596 0.0066627157
0.072995566 2.380826 -0.016255209
-0.013634846 2.4046502 -0.038699437
-0.10360529 2.4700153 -0.063398018
0.15710428 2.3283675 -0.079046562
0.073150128 2.357656 -0.10212084
-0.01227684 2.4265809 -0.12827756
-0.10167134 2.4381366 -0.15224513
0.16004077 2.3486953 -0.16618665
0.074719466 2.3682315 -0.18980578
-0.011713373 2.3893957 -0.21413322
-0.10073132 2.432935 -0.24184549
0.15922165 2.3270929 -0.25100544
0.076051131 2.3775253 -0.27859613
-0.011237497 2.4216514 -0.30653018
-0.10113005 2.4570911 -0.33585891
0.16031773 2.3152237 -0.33624718
0.077573799 2.3834684 -0.36828083
-0.010848643 2.5487554 -0.41906872
-0.041285742 1.0069423 -0.17576034
0.16427693 2.3462536 -0.43010253
0.074206449 2.2474306 -0.43318558
-0 0 -0
-0 0 -0
0.073962539 1.041999 -0.23166333
0.066616721 1.9901845 -0.46115553
-0 0 -0
-0 0 -0
0 0 -0
0 0 -0
-0 0 -0
-0.033074923 0.80531025 -0.2366042
0.16860236 2.3060176 0.71432227
0.081135526 2.3366449 0.69442755
-0.0077557527 2.3850806 0.68314868
-0.096014395 2.3655174 0.65348685
0.16700201 2.3040342 0.61678034
0.081697889 2.3352122 0.5982089
-0.0059484644 2.3781679 0.58470809
-0.094538443 2.3994255 0.56560498
0.16781449 2.3158042 0.52730435
0.081275515 2.3324597 0.50553977
-0.0050779935 2.3983278 0.49557969
-0.093039215 2.4051223 0.47322264
0.16815792 2.3278704 0.43973622
0.082556359 2.3515286 0.41904435
-0.0038528733 2.3913684 0.40245274
-0.092341304 2.4110482 0.3828432
0.16820304 2.3256707 0.3508952
0.083602838 2.347451 0.32995465
-0.0026193666 2.408483 0.31503052
-0.090733603 2.4255235 0.29432768
0.16842189 2.3230612 0.26335651
0.084654987 2.3758278 0.24571566
-0.0016415671 2.3924923 0.22447206
-0.088082805 2.3858733 0.2016589
0.16973159 2.3360381 0.17865965
0.085021287 2.3652275 0.15765609
-0.0010629665 2.406064 0.13767947
-0.088745303 2.4256353 0.11540069
0.17046395 2.3359637 0.092474677
0.086511455 2.374361 0.071097218
0.00015597329 2.4234877 0.049833879
-0.088256814 2.4402595 0.026637562
0.17033914 2.329772 0.0066456469
0.087455548 2.3763359 -0.01622791
0.001120533 2.4056883 -0.03871553
-0.087446183 2.4426317 -0.062680215
0.17175493 2.3323433 -0.079215832
0.08746662 2.3531692 -0.10194783
0.0025706803 2.3876648 -0.12621878
-0.086283728 2.4267454 -0.15149792
0.17437516 2.3466744 -0.16611624
0.089061521 2.3627481 -0.18940654
0.0029626484 2.4013746 -0.21520431
-0.086011596 2.4394743 -0.2424385
0.17364533 2.3280551 -0.25121939
0.090070248 2.3621264 -0.27685124
0.0036157523 2.4177063 -0.30602786
-0.085184954 2.4329102 -0.33247596
0.1745951 2.3151836 -0.33639058
0.091394648 2.3622091 -0.36507574
0.0047143912 2.508317 -0.41241682
-0.035930097 1.0308055 -0.17988376
0.1778482 2.3344123 -0.4281238
0.092375562 2.358789 -0.45475027
0.0049476102 1.9866954 -0.40217727
-0 0 -0
0.1669426 2.1638422 -0.48129678
0 0 -0
0.0026536263 1.0225557 -0.2471375
-0 0 -0
0.15540011 1.9897795 -0.52210945
0 0 -0
0 0 -0
-0.028099518 0.80453908 -0.23632254
0.18289968 2.3068447 0.71491265
0.094962515 2.3236516 0.69072622
0.0068651093 2.3802764 0.68177187
-0.082294442 2.389183 0.65987271
0.18136342 2.3058558 0.61755425
0.096343428 2.3424103 0.60019302
0.0086473413 2.3791306 0.58494681
-0.079652309 2.3950963 0.56445867
0.18072125 2.2982042 0.52353948
0.095945939 2.3407056 0.5074451
0.0096261585 2.395376 0.49497262
-0.076397106 2.3477869 0.4618406
0.18197741 2.3209167 0.43862534
0.096415415 2.3372064 0.41658971
0.010802511 2.3874023 0.40178886
-0.07729172 2.4036725 0.38158953
0.18246992 2.324595 0.3508952
0.09759178 2.3369997 0.3285636
0.012123817 2.4015131 0.31412265
-0.073925786 2.3645155 0.28686416
0.18189344 2.312078 0.26223299
0.098566882 2.3593624 0.24407071
0.01309278 2.4024134 0.2254062
-0.072889969 2.3684411 0.20014392
0.18367025 2.3299825 0.17827936
0.098903023 2.3497076 0.15665911
0.013734493 2.4120152 0.13802226
-0.073495477 2.4141536 0.11483081
0.18345371 2.3179402 0.091804005
0.10124873 2.37778 0.071216859
0.014914631 2.4054453 0.049463827
-0.073131956 2.4357574 0.02658302
0.18486825 2.3316736 0.0066541815
0.10087632 2.3487802 -0.016043657
0.015881538 2.4056363 -0.03871553
-0.071686327 2.4171424 -0.062013675
0.1862217 2.3332381 -0.079283535
0.10168757 2.3475976 -0.10173156
0.017329106 2.4025829 -0.12701061
-0.071098447 2.4172528 -0.15087524
0.18741041 2.3286569 -0.16491911
0.10368836 2.3651445 -0.18964608
0.01774119 2.4072871 -0.21573988
-0.070317619 2.4150891 -0.23996767
0.15879329 1.9662098 -0.21227399
0.10394721 2.3476381 -0.27522272
0.018495876 2.4235909 -0.30678132
-0.069826387 2.4185314 -0.33044621
0.18332511 2.2469943 -0.32664013
0.10562157 2.35568 -0.36415997
0.019322041 2.4105556 -0.39635494
-0.041593358 1.4485297 -0.25273067
0.17642364 2.1421053 -0.39304644
0.10644708 2.3493495 -0.45304781
0.019352777 2.2434092 -0.45416066
-0 0 -0
0.1813515 2.1763978 -0.48432788
0.071170673 1.5551707 -0.36053157
0.010124465 1.159569 -0.28026146
-0 0 -0
0 0 -0
0 0 -0
0 0 -0
-0.022472249 0.78071851 -0.22928074
0.19599311 2.2933033 0.71107537
0.10863312 2.3105769 0.68702483
0.021409383 2.3734605 0.67984444
-0.067005903 2.367481 0.65375292
0.19542681 2.3037367 0.61729628
0.10998238 2.3262923 0.59622478
0.023235762 2.3780618 0.58470809
-0.063952222 2.3585656 0.5557465
0.19556107 2.3057973 0.52553266
0.10970819 2.3273816 0.50469303
0.024204396 2.3835206 0.49254426
-0.063388191 2.4011786 0.47225809
0.19522095 2.3080058 0.43640351
0.11098749 2.3414876 0.41746634
0.025293445 2.3725002 0.39929947
-0.062875502 2.4169364 0.38362679
0.19681337 2.3244171 0.35104403
0.11240338 2.3462481 0.32995465
0.026759189 2.3924699 0.31295538
-0.060612798 2.4125607 0.29264238
0.19641268 2.3148789 0.26268238
0.11261325 2.349771 0.24314541
0.027810395 2.4002967 0.22521937
-0.058454275 2.3728287 0.2004806
0.19847003 2.3347728 0.1787357
0.11399177 2.3630092 0.15758961
0.028545892 2.4128838 0.13807938
-0.058462705 2.4055717 0.1144034
0.19801266 2.3207531 0.091961809
0.11525281 2.3651338 0.070857935
0.029649219 2.4033091 0.049422707
-0.058017921 2.4291627 0.026506662
0.19934194 2.3324878 0.006659871
0.11543337 2.3511133 -0.016064132
0.030298084 2.3784993 -0.038281064
-0.056759663 2.4135392 -0.061911132
0.20113407 2.3390219 -0.079520509
0.11584346 2.3419404 -0.1015153
0.032030761 2.3994358 -0.12685224
-0.056149017 2.4126546 -0.15056391
0.20152304 2.3254757 -0.16477829
0.11695448 2.3395748 -0.18764982
0.032444436 2.4021535 -0.21529359
-0.0550633 2.3965731 -0.23808983
0.14062792 1.6175247 -0.17471947
0.11850016 2.349932 -0.2755717
0.033147875 2.4075599 -0.30477211
-0.055052795 2.421886 -0.33085218
0.12901205 1.4699421 -0.21379298
0.12002344 2.3540006 -0.36400738
0.033986896 2.4015119 -0.39489478
-0.032571167 1.4428483 -0.25169981
0.12675196 1.4315677 -0.26281047
0.1214155 2.3594391 -0.45512861
0.020892084 1.4151379 -0.28650418
-0 0 -0
0.13569099 1.5159613 -0.33753562
0.07364057 1.4184978 -0.32894558
0.028568322 1.92146 -0.46443999
-0 0 -0
0.08750619 0.96736473 -0.25409496
0.05785897 1.0985807 -0.29895329
0 0 -0
-0 0 -0
0.20918888 2.2825429 0.70812362
0.12306299 2.3146532 0.68844849
0.035811998 2.362711 0.67681557
-0.052413978 2.3649566 0.65295476
0.2083326 2.2890239 0.61368489
0.12384068 2.3178349 0.59424067
0.03782684 2.3778746 0.58470809
-0.050377268 2.4017324 0.56583434
0.21014734 2.3094096 0.52663994
0.12377864 2.3227608 0.50384623
0.03858966 2.3686397 0.4895089
-0.048097141 2.374054 0.46685642
0.21008958 2.3145938 0.43788472
0.12545779 2.3427289 0.41781703
0.039651599 2.3604681 0.39730793
-0.047396619 2.384691 0.37845534
0.21035622 2.3152871 0.34985352
0.12679757 2.3455143 0.32995465
0.041060794 2.3704498 0.31010208
-0.045525808 2.3979988 0.29083666
0.20863102 2.2918596 0.26021063
0.12654565 2.3400967 0.24222013
0.042696603 2.4090402 0.22606009
-0.043727927 2.364176 0.19972311
0.21197724 2.324574 0.17805117
0.12740494 2.342339 0.15626031
0.042991817 2.3926992 0.13693681
-0.043574307 2.3988943 0.11407097
0.21170247 2.313524 0.091725096
0.1295985 2.361388 0.070768207
0.044432022 2.4050813 0.049463827
-0.043182731 2.4334722 0.026550295
0.21291997 2.3232543 0.0066371122
0.12925056 2.3393779 -0.015989065
0.044948321 2.3812675 -0.038329341
-0.041706208 2.3998485 -0.061552223
0.21548225 2.3377438 -0.079520509
0.13026664 2.3421829 -0.10155855
0.046499893 2.3862147 -0.12616599
-0.041070614 2.3969872 -0.14956762
0.21569587 2.3232021 -0.16470787
0.13248101 2.3597131 -0.18932667
0.047065791 2.3959341 -0.21475802
-0.040256649 2.3908961 -0.23749682
0.14852197 1.5948519 -0.17236562
0.13224356 2.337261 -0.27417579
0.047663081 2.3944166 -0.30313963
-0.040109154 2.4172249 -0.33017555
0.13701069 1.4582841 -0.21221571
0.1337885 2.3413796 -0.36217588
0.048641589 2.3973119 -0.3942458
-0.036798399 2.2388988 -0.39052129
0.1315445 1.3886529 -0.25507545
0.13408311 2.3272793 -0.44907534
0.035514355 1.6991554 -0.34404308
-0 0 -0
0 0 -0
0.083133601 1.4316354 -0.33210418
0.020617712 0.98151791 -0.23727079
-0 0 -0
0.096046083 0.99377245 -0.26118127
0 0 -0
0.030039718 1.4124466 -0.3988938
-0 0 -0
0.22337642 2.2831182 0.70871395
0.13680898 2.3061988 0.6861707
0.049919765 2.3441854 0.67158389
-0.037824661 2.3604145 0.65162432
0.22069132 2.2703931 0.60904157
0.13800269 2.3160644 0.59399271
0.051988427 2.3581808 0.57993299
-0.03507638 2.3640392 0.55689287
0.22365335 2.3012824 0.52508974
0.13773853 2.3170795 0.50278771
0.05303479 2.3644421 0.48869947
-0.033155229 2.3478143 0.46164769
0.22400321 2.3103271 0.43732929
0.13894998 2.3271735 0.41518703
0.054066576 2.3572228 0.39681005
-0.032560036 2.3701236 0.37610468
0.22379448 2.3060789 0.34866303
0.14082985 2.3387611 0.32912001
0.055907156 2.3830397 0.31178811
-0.030594308 2.3813579 0.28879023
0.2222089 2.2855911 0.25964886
0.14090183 2.3392761 0.24222013
0.057239883 2.3987794 0.22512595
-0.028925261 2.3404868 0.19770317
0.22556008 2.3162827 0.17751877
0.14105123 2.3295617 0.15546273
0.057359554 2.3794153 0.13619414
-0.02881811 2.3961201 0.1139285
0.22696276 2.3231211 0.09215907
0.14329359 2.3475783 0.070379369
0.05881948 2.389771 0.049155448
-0.028378088 2.44469 0.026670286
0.22746329 2.3248899 0.0066456469
0.14397001 2.3445294 -0.01603001
0.059458639 2.3769486 -0.038264971
-0.027081365 2.4090557 -0.061782949
0.22952881 2.3333936 -0.07941895
0.14482035 2.344331 -0.10168831
0.060961481 2.3788965 -0.12579647
-0.026581705 2.4171541 -0.15081297
0.23171629 2.3397028 -0.16597539
0.14559387 2.3369684 -0.18756996
0.061509363 2.3856435 -0.21386544
-0.02574534 2.406024 -0.23897934
0.16331653 1.6443695 -0.17782226
0.14633347 2.3324406 -0.27371049
0.061837446 2.3742442 -0.30062813
-0.025276585 2.4174254 -0.33017555
0.15936816 1.5913408 -0.2317166
0.14796512 2.3375559 -0.361718
0.063298166 2.3949957 -0.39392135
-0.019894773 1.9317383 -0.33691695
0.15231071 1.5091803 -0.27738106
0.14804804 2.3215132 -0.44812953
0.046575349 1.7224199 -0.34880495
-0 0 -0
0.14478347 1.4209418 -0.31675088
0.13700037 2.1330364 -0.49499762
0.037374854 1.3768371 -0.33288389
-0 0 -0
0.23724249 2.3067975 -0.60663903
0 0 -0
0 0 -0
-0.00814771 0.78579724 -0.23068911
0.23836984 2.2912078 0.71166569
0.15076905 2.3024464 0.68531656
0.064487025 2.3505616 0.67351133
-0.023721948 2.3991582 0.66226745
0.23849356 2.3064766 0.619102
0.15182988 2.3093739 0.59250462
0.065991856 2.3413155 0.57587421
-0.020646466 2.3729701 0.55895627
0.23666644 2.289197 0.52265364
0.15144143 2.3083889 0.5010941
0.066982381 2.3444939 0.48465228
-0.018772192 2.3509171 0.46222645
0.23888075 2.3157516 0.43862534
0.1537443 2.3341362 0.41658971
0.068471886 2.3548756 0.39647818
-0.018286869 2.405833 0.38174623
0.23946337 2.3194168 0.3508952
0.1545217 2.3279719 0.32772896
0.069794722 2.3578742 0.30854574
-0.016135219 2.4043331 0.29155895
0.23663773 2.2881384 0.26009825
0.15459375 2.3284423 0.24119204
0.071808152 2.3934071 0.22465891
-0.014762157 2.3725059 0.20039642
0.23863828 2.3039455 0.17668214
0.15567456 2.3336301 0.15579505
0.071897924 2.377023 0.13607989
-0.014162322 2.4042425 0.11430842
0.24121289 2.3216848 0.09215907
0.15729325 2.3406708 0.070199907
0.073297344 2.3833694 0.0490321
-0.013322505 2.4348187 0.026561204
0.23996513 2.3065417 0.0065972833
0.15666774 2.3186591 -0.015859405
0.073637426 2.3635471 -0.038055785
-0.012304269 2.4101763 -0.061808582
0.24384192 2.3319414 -0.07941895
0.15784782 2.323463 -0.10082325
0.075430147 2.3744853 -0.12558532
-0.011696462 2.4062929 -0.15012802
0.24408449 2.3193882 -0.16463745
0.16027091 2.3410034 -0.18796921
0.075701311 2.3712842 -0.21261582
-0.010977228 2.4051414 -0.23888049
0.16349138 1.5494033 -0.16765793
0.1606423 2.3314986 -0.27371049
0.076212876 2.3678706 -0.29987466
-0.010455906 2.4205074 -0.33058152
0.1524886 1.4338583 -0.20891775
0.16216832 2.3346319 -0.36141273
0.077767529 2.3876584 -0.39278564
-0.01034197 2.4844773 -0.43330166
0.14993763 1.3996493 -0.25741395
0.16215277 2.3186018 -0.44775119
0.074012913 2.2305038 -0.45177978
-0.0038694581 1.0054536 -0.21408421
0.14772883 1.3666424 -0.30484298
0.13961953 1.9834685 -0.46047869
0.032402199 0.97341931 -0.23539144
-0 0 -0
0.13172661 1.2079494 -0.31787175
0 0 -0
0 0 -0
-0 0 -0
0.25273803 2.292551 0.71255118
0.16509928 2.3043463 0.6861707
0.078553729 2.3395531 0.67048252
-0.0089137554 2.3761241 0.65588158
0.25106236 2.2905638 0.61523265
0.16564965 2.3035674 0.59126449
0.080456607 2.3437781 0.57659048
-0.0061407243 2.3944657 0.56400013
0.25240797 2.3032117 0.52619708
0.1659524 2.3122904 0.50215262
0.081162825 2.3381665 0.4834381
-0.004473879 2.419673 0.47573054
0.25383326 2.3210804 0.43992141
0.16834632 2.3370769 0.41729105
0.082642168 2.3465266 0.39515045
-0.003531846 2.4108381 0.38252982
0.25369054 2.3179038 0.3508952
0.16830143 2.3200662 0.32675526
0.083942279 2.3484831 0.30737847
-0.0013867703 2.4123287 0.29252198
0.25175583 2.2965207 0.2612218
0.168302 2.3195131 0.24036954
0.086276688 2.3869517 0.22409841
-0.00020471377 2.3755412 0.20064892
0.25157359 2.2915351 0.1758455
0.17049816 2.339597 0.15626031
0.085900806 2.3605738 0.13516584
0.00059206143 2.4122753 0.11468834
0.25523522 2.3181744 0.092080161
0.16975081 2.3137431 0.06942223
0.087846309 2.3808765 0.04899098
0.0016148561 2.430855 0.026517574
0.25433245 2.3070138 0.0066029732
0.17148007 2.3256323 -0.015913999
0.087691285 2.3510606 -0.037862692
0.0024958618 2.4212029 -0.062090583
0.2583659 2.3323879 -0.079486653
0.17306116 2.335403 -0.10138554
0.089355178 2.3570137 -0.1246879
0.0030774041 2.413306 -0.15056391
0.25654364 2.3019848 -0.16351075
