# .PCD v0.7 - Point Cloud Data file format
VERSION 0.7
FIELDS x y z
SIZE 4 4 4
TYPE F F F
COUNT 1 1 1
WIDTH 1536
HEIGHT 1
VIEWPOINT 0 0 0 1 0 0 0
POINTS 1536
DATA ascii
-0.70924085 2.3401213 0.11625551
-0.4448486 2.3788788 0.095551908
-0.53092229 2.3599327 0.072383367
-0.61929625 2.3502631 0.049977791
-0.71162504 2.3515358 0.02680118
-0.44339156 2.3729208 0.0068675471
-0.52480412 2.3367369 -0.016343923
-0.61000872 2.3187938 -0.038586795
-0.69842529 2.3109727 -0.061911132
-0.44610769 2.3943999 -0.082499564
-0.52740365 2.3523438 -0.10437001
-0.61137092 2.3297551 -0.12732735
-0.7082755 2.3456349 -0.15286781
-0.44603711 2.4028704 -0.17252427
-0.513017 2.2938015 -0.18828861
-0.59728807 2.2775466 -0.21100913
-0.61869955 2.0511806 -0.21278846
-0.40694913 2.1957145 -0.24030612
-0.4599745 2.0608592 -0.24730495
-0.43393916 1.6564405 -0.21674357
-0.49202049 1.632643 -0.23288202
-0.20074028 1.0880848 -0.16030888
-0.25683475 1.153747 -0.18253787
-0.27191809 1.0395988 -0.17668055
-0.30484727 1.0121324 -0.1843508
-0 0 -0
-0 0 -0
-0 0 -0
-0.26008153 0.86448777 -0.19221763
-0.15932256 0.87202817 -0.19658907
-0.19394359 0.87504435 -0.2075651
-0.22812258 0.87471592 -0.21847709
-0.25476533 0.84574699 -0.22299717
-0.1522226 0.83763206 -0.22271271
-0.18001287 0.81508607 -0.22683737
-0.20161445 0.77390248 -0.22580431
-0.22253355 0.73865342 -0.22646402
-0.40886936 2.2650561 0.71107537
-0 0 0
-0.62254912 2.3899388 0.70737964
-0.70237857 2.3354654 0.67317665
-0.43349311 2.3928654 0.64928323
-0.52444971 2.3832762 0.62474632
-0.59921736 2.307467 0.58614063
-0.68465745 2.2863767 0.56216604
-0.42836511 2.3643239 0.54568589
-0.50988311 2.3155403 0.51358443
-0.6031571 2.3263094 0.49659151
-0.68151098 2.2818096 0.46820682
-0.422746 2.3302956 0.44621655
-0.51386136 2.3365192 0.42605764
-0.58912867 2.2769463 0.39581433
-0.69215161 2.3206851 0.38425362
-0.45429999 2.5054748 0.38318706
-0.51950246 2.3678818 0.34052655
-0.59984398 2.3233762 0.31386325
-0.68911129 2.318023 0.29324427
-0.42861438 2.3661706 0.27189538
-0.51474756 2.3464048 0.24828592
-0.60137177 2.333163 0.22606009
-0.68375558 2.3041294 0.20300554
-0.42901286 2.3704934 0.18375552
-0.51347095 2.3441036 0.15984945
-0.60743368 2.3590662 0.13939333
-0.69486874 2.344429 0.11625551
-0.42864493 2.3727138 0.095196843
-0.51856601 2.372911 0.07268247
-0.5934183 2.3094754 0.0490321
-0.70002043 2.3654463 0.026910262
-0.42775744 2.3696923 0.0068504787
-0.50939059 2.3350279 -0.016309801
-0.59477562 2.318619 -0.038522433
-0.68423229 2.3152146 -0.061911132
-0.42892921 2.3833215 -0.082025625
-0.50211841 2.3057504 -0.1021641
-0.59483641 2.3247554 -0.12685224
-0.67493302 2.2858038 -0.14869586
-0.4337495 2.4193084 -0.17351013
-0.50168353 2.3095694 -0.18932667
-0.58206838 2.2763438 -0.21056284
-0.64438814 2.1847436 -0.2262298
-0.40643263 2.2705944 -0.24822362
-0.4149183 1.9141597 -0.22939104
-0.42965975 1.6821414 -0.21975741
-0.47023076 1.5957147 -0.22719869
-0.39298049 2.2058733 -0.32463267
-0.23241845 1.0751256 -0.16987009
-0.27089843 1.062283 -0.18024984
-0.31338185 1.0640688 -0.19345665
-0 0 -0
-0 0 -0
-0 0 -0
-0.25256401 0.85856074 -0.19055161
-0.15752983 0.8931796 -0.20113572
-0.18775091 0.87240833 -0.20666265
-0.21173333 0.83276528 -0.20767069
-0.24299626 0.82497257 -0.21712238
-0 0 -0
-0.17440124 0.8133446 -0.22605065
-0.19567759 0.7704612 -0.22444569
-0.21962392 0.74552745 -0.22815406
-0 0 0
-0.50529605 2.3622627 0.71748972
-0.58870697 2.3182406 0.68507612
-0.68178034 2.3184609 0.66705686
-0.41530839 2.375494 0.64386606
-0.50091124 2.3447647 0.61383379
-0.58409452 2.3073347 0.58518559
-0.68182904 2.3288345 0.57156599
-0.40511599 2.3169568 0.53416973
-0.50322521 2.3539877 0.52141732
-0.57735348 2.2843926 0.48687822
-0.66887242 2.2906578 0.46917143
-0.41216812 2.3541412 0.45028993
-0.50013173 2.3425167 0.42658365
-0.58406907 2.3158972 0.40195483
-0.66601098 2.2841177 0.37751508
-0.40550923 2.3172989 0.35402024
-0.50620133 2.3768361 0.34136117
-0.59186804 2.3520141 0.31723535
-0.67542928 2.3241141 0.29348502
-0.40878335 2.3384125 0.26841244
-0.50800627 2.3855157 0.25208989
-0.58243537 2.3184621 0.22428523
-0.67016006 2.3101952 0.20317386
-0.41720447 2.3887968 0.18497244
-0 0 0
-0.58735806 2.3404772 0.13807938
-0.67880273 2.3428919 0.11597057
-0.41356334 2.3723462 0.095078491
-0 0 0
-0.579965 2.3159823 0.049093772
-0.68410385 2.3648944 0.026855722
-0.41320923 2.3722725 0.0068504787
-0 0 -0
-0.58369011 2.3348351 -0.03873162
-0.66779399 2.3116863 -0.06170604
-0 0 -0
-0 0 -0
-0.58684236 2.353554 -0.12822476
-0.67279547 2.331136 -0.15137339
-0.41787666 2.4160266 -0.17308763
-0.48750284 2.3126042 -0.18932667
-0.56640428 2.2731073 -0.20993802
-0 0 -0
-0.39942917 2.3132155 -0.25261033
-0 0 -0
-0.41717368 1.6760815 -0.21862721
-0.46289885 1.6071388 -0.22841655
-0.30050021 1.7488426 -0.25709647
-0.23210683 1.1065156 -0.17460144
-0.2617577 1.0533912 -0.17846519
-0.29921666 1.0394644 -0.188646
-0.16650268 0.97348619 -0.18060349
-0 0 -0
-0 0 -0
-0.25350729 0.88171417 -0.19534142
-0 0 -0
-0.17980582 0.86114645 -0.20372967
-0.21853995 0.88216698 -0.21965168
-0.2454405 0.85253656 -0.2239763
-0.14209339 0.84039086 -0.22296578
-0.16960388 0.81534415 -0.22631288
-0.19788155 0.79967332 -0.23259747
-0.21504532 0.74686098 -0.22815406
-0.39069149 2.3273807 0.72908098
-0.47891167 2.308063 0.70012188
-0.54884183 2.2182236 0.65451205
-0.66860676 2.3263063 0.66812116
-0 0 0
-0.49280491 2.3781495 0.6217702
-0.58062226 2.3542454 0.59616828
-0.66163605 2.3123868 0.56652212
-0.39510536 2.3444006 0.53992784
-0.49174866 2.3713858 0.52459282
-0.56636959 2.3002539 0.4895089
-0.65184283 2.2843394 0.4670493
-0.39231899 2.3246489 0.44417989
-0.48115698 2.3233681 0.42255101
-0.5707891 2.3232682 0.40261868
-0.65171278 2.2872114 0.37735838
-0.39407897 2.3363199 0.35655001
-0.48439592 2.3449845 0.33635342
-0.5724678 2.3353777 0.31451175
-0.6516645 2.2947907 0.28927174
-0.3939321 2.3379371 0.26807538
-0.49818844 2.411967 0.25455731
-0.56843531 2.3229594 0.22437866
-0.64917892 2.2902968 0.20106974
-0.3967461 2.3568974 0.18231042
-0.4772101 2.3140707 0.15739022
-0.58104634 2.3770111 0.14002176
-0.66387004 2.3450906 0.11587559
-0.39701238 2.363014 0.094605066
-0.48638672 2.3644104 0.072233818
-0.56408513 2.3126981 0.04894986
-0.66114932 2.3392179 0.026517574
-0.39996985 2.3826525 0.0068732374
-0.48270914 2.3508985 -0.016378043
-0.57171828 2.3480875 -0.03889253
-0.6573987 2.3292093 -0.062064946
-0.39585626 2.3657339 -0.081247009
-0.48301244 2.3567595 -0.10415375
-0.57003367 2.3474064 -0.12769687
-0.65252012 2.3140869 -0.15000349
-0.4038642 2.4234648 -0.17343971
-0.47490078 2.3233647 -0.18996549
-0.55643916 2.2929945 -0.21145543
-0.62616247 2.2231376 -0.22939247
-0.38816497 2.333277 -0.25453621
-0.43962738 2.1555893 -0.2576578
-0.43329033 1.7875603 -0.23281726
-0.4602752 1.6357002 -0.23207012
-0.36507338 2.2056477 -0.32391572
-0.24205394 1.1902382 -0.18757445
-0.25505722 1.0540185 -0.17830296
-0.28323191 1.0071404 -0.18246089
-0.16516306 1.002637 -0.18582012
-0 0 -0
-0.22097172 0.91560727 -0.19067208
-0.2430671 0.86536199 -0.19138461
-0.15160555 0.9258759 -0.20806397
-0.17490506 0.86414319 -0.2041809
-0.21175532 0.8778218 -0.21824215
-0.23757961 0.84469289 -0.22152847
-0.13926563 0.85557008 -0.22676201
-0.16669583 0.82677507 -0.2291975
-0.18913874 0.78496724 -0.22797813
-0.21201757 0.75370836 -0.22984409
-0.37701318 2.3335073 0.73026174
-0.47362342 2.3551283 0.7135036
-0.55300891 2.295383 0.67626488
-0.63060731 2.2459111 0.64390808
-0 0 0
-0.48068333 2.3934758 0.6249944
-0.54848033 2.2841129 0.57754546
-0.64402884 2.3042161 0.56354165
-0.37961987 2.3400428 0.53837758
-0.4787294 2.3820238 0.52628642
-0.55635411 2.3208277 0.49315134
-0.64308321 2.3072 0.47090769
-0.37820539 2.3279822 0.44436505
-0.46786067 2.3311031 0.42342767
-0.55973464 2.3401537 0.4049421
-0.64402187 2.3140028 0.3811194
-0.37751734 2.3250289 0.35446665
-0.46630511 2.3294632 0.33371043
-0.55306399 2.3176279 0.31165844
-0.64951122 2.3417938 0.29468882
-0.38085207 2.3481569 0.26897418
-0.46815187 2.3389008 0.24653813
-0.5541712 2.3264036 0.22437866
-0.63484782 2.2932765 0.20098557
-0.38147959 2.3543661 0.18193012
-0.47551584 2.3795757 0.16164401
-0.55859256 2.3475089 0.13807938
-0.65106541 2.3548963 0.11616053
-0.38362235 2.3723106 0.094881237
-0.46366337 2.3261788 0.070977576
-0.55242449 2.3268163 0.049176008
-0.64864606 2.349978 0.026593929
-0.38406667 2.3771644 0.0068504787
-0.4680801 2.3528354 -0.01637122
-0.55983627 2.3622537 -0.039069537
-0.64096951 2.3254893 -0.061859857
-0.38180959 2.3710785 -0.081348568
-0.46620759 2.3479197 -0.10363471
-0.5540117 2.3440571 -0.12732735
-0.64122349 2.3286316 -0.15068844
-0.38788098 2.4190028 -0.17294678
-0.46373397 2.3418803 -0.19124311
-0.54075652 2.2895803 -0.21083063
-0.59298128 2.155937 -0.22207882
-0.38169804 2.3847029 -0.25988585
-0.42543012 2.1533744 -0.25707614
-0.39862424 1.689765 -0.21975741
-0.44629222 1.6241628 -0.23004036
-0.34764257 2.1834123 -0.32033104
-0.22901602 1.1626114 -0.18299572
-0.24451362 1.0382751 -0.17538261
-0.28226432 1.0278585 -0.18589707
-0 0 -0
-0 0 -0
-0 0 -0
-0.23904631 0.8715533 -0.19242589
-0.14394768 0.91425157 -0.20524938
-0.17016169 0.86806822 -0.20485774
-0.20325521 0.86585647 -0.21495324
-0.23521687 0.85641932 -0.2242211
-0 0 -0
-0.1597705 0.81831115 -0.22657511
-0.18409903 0.78517604 -0.2277064
-0.20891382 0.76054651 -0.23153411
-0.36312777 2.338609 0.73114723
-0 0 0
-0.54440004 2.3221323 0.68314868
-0.6372053 2.3241098 0.66519427
-0.38475999 2.4676974 0.6668244
-0.46247476 2.3783121 0.62028211
-0.53290838 2.2808161 0.57587421
-0.64550996 2.3654051 0.57752699
-0.36330125 2.3298023 0.53549856
-0.46167761 2.3724449 0.5235343
-0.54343802 2.3299201 0.49436551
-0.62942964 2.3129959 0.47129348
-0.36649176 2.3467648 0.44751263
-0.45448747 2.3387618 0.42430434
-0.54581225 2.3454652 0.40527403
-0.62256014 2.2912242 0.37673151
-0.36614153 2.345865 0.35729402
-0.45878589 2.3672793 0.33871818
-0.53816015 2.3180802 0.31126934
-0.63487053 2.3447769 0.29456842
-0.36750832 2.3573222 0.26976067
-0.45738733 2.3602834 0.24849153
-0.54168433 2.3375194 0.22512595
-0.62310421 2.3057864 0.20174307
-0.36871412 2.3674998 0.18276677
-0.45920041 2.373632 0.16104582
-0.54057562 2.3353298 0.13716532
-0.64024746 2.3723481 0.11682539
-0.36798468 2.367708 0.094605066
-0.45316893 2.348609 0.071575783
-0.53768706 2.3282137 0.049134888
-0.61938679 2.2988794 0.025972167
-0.36947343 2.3794763 0.0068504787
-0.45533642 2.3645008 -0.016432637
-0.53769475 2.3325171 -0.038522433
-0.62357193 2.3177943 -0.061552223
-0.36679527 2.3704135 -0.081247009
-0.45141512 2.3487737 -0.1035482
-0.53805238 2.3405998 -0.12695783
-0.62407357 2.3219202 -0.15000349
-0.37105644 2.4085207 -0.17203134
-0.45423388 2.3701351 -0.19331922
-0.53093451 2.3112988 -0.21252654
-0.59289986 2.2085495 -0.22711931
-0.37068534 2.4105849 -0.26245368
-0.40903842 2.1393602 -0.25509864
-0.43417278 1.8923397 -0.24575156
-0.43169829 1.6096449 -0.22760463
-0.28351954 1.8538634 -0.27172214
-0.20688881 1.0853596 -0.17063321
-0.24540798 1.0714968 -0.18073657
-0.27799252 1.0371835 -0.18727154
-0.16290829 1.0707182 -0.19805224
-0 0 -0
-0 0 -0
-0.23976405 0.89567912 -0.19742396
-0 0 -0
-0.16428752 0.86622447 -0.2041809
-0.1946937 0.85287279 -0.21142943
-0.22568978 0.84192574 -0.22005978
-0.12933078 0.86104149 -0.22777435
-0.15743302 0.83349967 -0.23050871
-0.18248685 0.80036527 -0.23178229
-0 0 -0
-0 0 0
-0.42428011 2.2524281 0.68076104
-0 0 0
-0.62143785 2.3223889 0.66359782
-0 0 0
-0.44733578 2.3782489 0.61953807
-0.52514243 2.3115046 0.58279806
-0.61244774 2.2997184 0.56056112
-0.35246301 2.3551338 0.54081362
-0.44675031 2.3733122 0.52311093
-0.52220076 2.3026485 0.48788998
-0.61371452 2.3111243 0.47013599
-0.35689253 2.3810406 0.45362264
-0.43940106 2.3376365 0.423603
-0.53053999 2.3449228 0.40461022
-0.61507076 2.3198223 0.38080597
-0.35511011 2.3705604 0.36071667
-0.43914345 2.3427966 0.33482325
-0.52741939 2.3368142 0.31334448
-0.61666787 2.3342311 0.29276276
-0.35553682 2.3762393 0.2716707
-0.44216335 2.3591349 0.2480803
-0.52470565 2.3291435 0.22400498
-0.61529553 2.3336544 0.20384718
-0 0 0
-0 0 0
-0.5290854 2.3512647 0.137908
-0.61804873 2.3472536 0.11540069
-0.35507113 2.3807926 0.09503904
-0.43929964 2.3542931 0.071665518
-0.52514321 2.339273 0.049299356
-0.60984528 2.3200443 0.026168514
-0.36208737 2.4301631 0.0069898772
-0.44081956 2.3672502 -0.016432637
-0.52402842 2.3386996 -0.038570706
-0.61872858 2.357353 -0.06250076
-0.35180345 2.3696537 -0.08114545
-0 0 -0
-0.52977747 2.3711452 -0.12843592
-0.60956168 2.3247402 -0.14994122
-0.34737521 2.3505573 -0.16773586
-0.44149861 2.382679 -0.19411774
-0.50827855 2.276602 -0.20904543
-0.55538732 2.1206951 -0.21773012
-0.35661271 2.4177322 -0.26298866
-0.41179055 2.2277763 -0.26533517
-0.41650772 1.8678557 -0.24223545
-0.42707998 1.6323929 -0.23044631
-0.25978872 1.7713577 -0.25939068
-0.21132901 1.1468678 -0.18009588
-0.22489353 1.0103757 -0.17019089
-0.2701281 1.0331513 -0.1862407
-0.14767379 1.0123211 -0.18707931
-0 0 -0
-0.1974977 0.88985765 -0.18452138
-0.23154549 0.88672364 -0.19513318
-0.13285755 0.91691536 -0.20546588
-0.16107726 0.87871522 -0.20688826
-0.19050944 0.85879612 -0.21260403
-0.22027428 0.84235662 -0.219815
-0 0 -0
-0.15058295 0.82495677 -0.2278863
-0.1788215 0.80710745 -0.23341264
-0.2007789 0.76769441 -0.23294248
-0.34223223 2.3977487 0.74826729
-0.41457149 2.2776239 0.68759429
-0.49839714 2.2497966 0.6600191
-0.60011607 2.2991097 0.65588158
-0.35019797 2.4425855 0.65882772
-0.42944327 2.3628392 0.61482579
-0.5122053 2.3203728 0.58423054
-0.60126191 2.314738 0.56331235
-0 0 0
-0.43113011 2.3702395 0.52184075
-0.51164454 2.322068 0.49133015
-0.60641044 2.3414431 0.47553763
-0.34814361 2.4240403 0.46139905
-0.42592898 2.3451316 0.42447963
-0.50979066 2.3192399 0.39963141
-0.59464371 2.2996478 0.37688825
-0.3561528 2.4813454 0.37723464
-0.42881882 2.3678589 0.33802265
-0.51031035 2.3274152 0.31165844
-0.60803008 2.3600819 0.29553148
-0.34673098 2.4187043 0.27627715
-0.42643896 2.3549521 0.24736063
-0.51253289 2.3420455 0.22493914
-0.59773928 2.3248398 0.20275304
-0.35588726 2.4853554 0.1915134
-0.43216753 2.390871 0.16184342
-0.51912546 2.3749492 0.13910769
-0.60810602 2.3684165 0.11625551
-0.34186944 2.3928182 0.095433556
-0.42502302 2.357928 0.071695425
-0.51163185 2.3463588 0.049381595
-0.60056365 2.3431151 0.026386674
-0.33897409 2.3749213 0.0068248743
-0.42469281 2.3610528 -0.01637122
-0.50775492 2.3330779 -0.038425885
-0.59359509 2.3194613 -0.061398413
-0.33683482 2.3687994 -0.081043884
-0.42026347 2.3413529 -0.1029859
-0.50590092 2.3314118 -0.12611321
-0.59874678 2.341974 -0.15081297
-0.33126861 2.3407924 -0.16689083
-0.42950436 2.4000614 -0.1953155
-0.49894333 2.3010926 -0.21100913
-0.54999655 2.1539524 -0.22079398
-0.33593121 2.3785262 -0.25849494
-0.38799042 2.1735511 -0.25858837
-0.41700739 1.9256438 -0.24939324
-0.4153415 1.6282623 -0.22949909
-0.20089324 1.4308792 -0.20934792
-0.20601924 1.1578729 -0.18162212
-0.21472874 0.9934116 -0.16710831
-0.25161654 0.98705906 -0.17765024
-0.13901117 0.99567181 -0.18384141
-0 0 -0
-0.19265337 0.89392704 -0.1851166
-0.22754811 0.89381468 -0.19638269
-0 0 -0
-0.15805936 0.89311737 -0.21004686
-0.18544106 0.86089909 -0.21283895
-0.21749687 0.8530876 -0.22226281
-0 0 -0
-0.14468101 0.82111335 -0.22657511
-0.17366341 0.80724865 -0.23314092
-0.19772421 0.77542025 -0.23491418
-0 0 0
-0.40374005 2.2980635 0.69300389
-0.51692927 2.4031878 0.70407546
-0.60002357 2.3578653 0.6715802
-0.35948458 2.6217701 0.70655012
-0.41359803 2.3577964 0.61284173
-0.51423794 2.3994336 0.60333091
-0.58728659 2.3193276 0.56354165
-0 0 0
-0.41184655 2.3458869 0.51591313
-0.50496656 2.3605964 0.49881744
-0.58218497 2.3061137 0.46762806
-0 0 0
-0.41272143 2.3544893 0.42570701
-0.50357634 2.3599365 0.40610382
-0.58052218 2.3032532 0.37688825
-0 0 0
-0.41479331 2.3733718 0.33843997
-0.50118041 2.3547485 0.31490085
-0.58966917 2.3483627 0.29360539
-0 0 0
-0.41026893 2.3477259 0.24633253
-0.50249708 2.3655982 0.22690082
-0.58491629 2.3342633 0.20325804
-0 0 0
-0.41303149 2.3679211 0.16011532
-0.50122797 2.3624637 0.13819364
-0.59453207 2.3759792 0.11644547
-0 0 0
-0.41191727 2.3683698 0.071934715
-0.49556914 2.3416288 0.049217124
-0.58738685 2.3516066 0.026441215
-0 0 0
-0.41173655 2.3724813 -0.016432637
-0 0 -0
-0.58370614 2.3405192 -0.061859857
-0 0 -0
-0 0 -0
-0 0 -0
-0.587502 2.3581939 -0.15162246
-0 0 -0
-0.41900906 2.4272087 -0.19731179
-0 0 -0
-0 0 -0
-0 0 -0
-0.37717444 2.1905732 -0.26033324
-0.435379 2.0718565 -0.26797843
-0.41227382 1.6586648 -0.23342329
-0.1478982 1.1025093 -0.16116923
-0.19272615 1.1230755 -0.17597504
-0.22949214 1.0941814 -0.18381913
-0.24982999 1.0057938 -0.18074282
-0 0 -0
-0 0 -0
-0 0 -0
-0.22041111 0.88854897 -0.19492492
-0.11787981 0.89040935 -0.19918716
-0.15355963 0.89983237 -0.21140055
-0.17896211 0.85631198 -0.21142943
-0 0 -0
-0 0 -0
-0.14012489 0.82483977 -0.22736184
-0.16359462 0.78380513 -0.22607604
-0.19157438 0.77103168 -0.23322415
-0 0 0
-0.38258833 2.2589109 0.68047631
-0.48508772 2.3244412 0.68011975
-0.58136886 2.3446612 0.66679072
-0 0 0
-0.40138441 2.3736625 0.61631387
-0.48764551 2.3454986 0.58900559
-0.57700771 2.3389528 0.5674392
-0.35980245 2.7489581 0.62962049
-0.39206281 2.31657 0.50892699
-0.49067166 2.3646092 0.4990198
-0.57481962 2.3372746 0.47322264
-0.36091378 2.7525952 0.52305466
-0.38727668 2.2919371 0.41395971
-0.48748761 2.3552566 0.40477616
-0.5743857 2.3393831 0.38221636
-0.33287048 2.5404363 0.38556802
-0.39314938 2.3338821 0.3324585
-0.48431695 2.3461263 0.31334448
-0.57100338 2.3345792 0.29143855
-0.34345302 2.6247571 0.29930961
-0.39519498 2.3462756 0.2459213
-0.47812873 2.3208544 0.22232357
-0.56680226 2.3223197 0.20191139
-0.31722087 2.4272478 0.18672177
-0.40196821 2.3910742 0.16151108
-0.4881312 2.37234 0.13859354
-0.5700084 2.3388228 0.11445089
-0.31519285 2.4176409 0.096262038
-0.39638609 2.3649378 0.071755253
-0.48099089 2.343646 0.049196564
-0.56703752 2.3308766 0.026168514
-0.31238741 2.3987348 0.0068817721
-0.39733645 2.3759494 -0.016439462
-0.48028997 2.3450105 -0.038522433
-0.57499665 2.3673708 -0.062475123
-0.31198269 2.4054615 -0.082161032
-0.39084214 2.3423922 -0.10281289
-0.4790507 2.3462501 -0.1265883
-0.57302135 2.3617542 -0.15162246
-0.30979431 2.4010723 -0.17090465
-0.40001956 2.4051514 -0.1953155
-0.46688494 2.2884998 -0.2093132
-0.55047232 2.2717578 -0.23215982
-0.29859275 2.3193576 -0.25164738
-0.37510282 2.2614338 -0.26847592
-0.4466233 2.1921146 -0.28317311
-0.39905846 1.6486444 -0.23166418
-0.19223385 1.5029353 -0.21952854
-0.28189006 1.7053689 -0.26693872
-0.23594782 1.1603554 -0.19468929
-0.24712799 1.0216705 -0.18331994
-0 0 -0
-0 0 -0
-0.18751046 0.92504144 -0.19106892
-0.21403632 0.88608176 -0.19409192
-0.11229195 0.89014733 -0.19897065
-0.15072128 0.91710013 -0.21523599
-0.1737045 0.85739398 -0.21142943
-0.20883569 0.86323154 -0.2242211
-0 0 -0
-0.13630737 0.83330286 -0.22945976
-0.16164488 0.7989431 -0.23015194
-0.18616286 0.76939481 -0.23237914
-0 0 0
-0.3747375 2.2981145 0.69158036
-0.463954 2.2934527 0.67020708
-0.5683288 2.3538065 0.66838723
-0 0 0
-0.39163774 2.4057217 0.62400228
-0.48130152 2.3884282 0.5990333
-0.56059927 2.3339312 0.56537575
-0 0 0
-0.37815559 2.3208613 0.50935042
-0.47460878 2.3598948 0.49740094
-0.55498403 2.3178558 0.46859267
-0 0 0
-0.38063571 2.339942 0.42220035
-0.48233613 2.4046135 0.41274226
-0.55749506 2.3322971 0.38049257
-0.31115374 2.4933681 0.37812752
-0.38357663 2.3655758 0.3366316
-0.47321877 2.3655827 0.31554928
-0.56241626 2.3621821 0.29444805
-0.31026161 2.4897554 0.28369248
-0.38095024 2.349638 0.2460241
-0.48161581 2.4125936 0.23082417
-0.55323309 2.3286622 0.20216389
-0.31414351 2.5241375 0.19402331
-0.3820298 2.3609915 0.15931772
-0.47512722 2.3831229 0.13905056
-0.55334133 2.3325572 0.11397599
-0.30318373 2.4423363 0.097169422
-0.38091254 2.3614047 0.071575783
-0.46699145 2.3485146 0.049237683
-0.55456805 2.3420961 0.026255777
-0.30000117 2.419462 0.0069358251
-0.38227376 2.3753808 -0.016418988
-0.46822751 2.3596823 -0.03871553
-0.56252974 2.3796103 -0.062705852
-0.29672733 2.403363 -0.082025625
-0.37567025 2.3398142 -0.10259663
-0.46735808 2.3628604 -0.12732735
-0.55851912 2.3652258 -0.15162246
-0.28982815 2.3603544 -0.16787668
-0.37800914 2.3622835 -0.19164236
-0.44858587 2.2698252 -0.20734951
-0.5187071 2.1995468 -0.22445081
-0.28798282 2.3507528 -0.25485718
-0.35480309 2.22348 -0.26370665
-0.41837338 2.119869 -0.27350378
-0.39279714 1.6674569 -0.23396458
-0.19914566 1.6367134 -0.23888607
-0.18172313 1.1429243 -0.17872226
-0.22481915 1.1414502 -0.19128223
-0.23543698 1.0001537 -0.17919654
-0.11877155 0.9824366 -0.18096326
-0.15388764 0.97080642 -0.18935317
-0.18126452 0.92328924 -0.19047368
-0.2085954 0.88737839 -0.19409192
-0.1086879 0.90632898 -0.20243478
-0.14311409 0.90549815 -0.212303
-0.17124771 0.87275106 -0.21495324
-0.20064647 0.85222763 -0.22103891
-0 0 -0
-0.12609401 0.80171186 -0.22054359
-0.15562929 0.79425341 -0.22852157
-0 0 -0
-0 0 0
-0.36345038 2.3183644 0.69699001
-0.45708123 2.3330493 0.68094581
-0.54814261 2.3328512 0.66146916
-0 0 0
-0.37027842 2.365967 0.61308974
-0.4543623 2.3284316 0.58327556
-0.54715407 2.3411183 0.56629282
-0.31721088 2.6785994 0.61256778
-0.37026045 2.3636916 0.51824182
-0.4702282 2.4146702 0.50832838
-0.54164195 2.3250399 0.46936432
-0.30024466 2.5304165 0.48009941
-0.36231619 2.3169436 0.41764173
-0.45309609 2.3329883 0.39996332
-0.53601503 2.3048906 0.37547785
-0.30283466 2.5541496 0.38705614
-0.37317204 2.3943033 0.3403874
-0.46171141 2.3840175 0.31762442
-0.55239165 2.3849311 0.29685563
-0.2878527 2.4314189 0.27683896
-0.36652595 2.3519313 0.2460241
-0.46283615 2.3949749 0.22886248
-0.53713924 2.3242459 0.20149057
-0.29092306 2.460664 0.1890035
-0.3624759 2.3307552 0.15712436
-0.4618201 2.3928556 0.13945048
-0.53991693 2.3398018 0.11416595
-0.29708478 2.5195692 0.10016775
-0.36687544 2.3666608 0.071665518
-0.45861933 2.3827522 0.049895555
-0.53794253 2.3357105 0.026146697
-0.28819096 2.4470787 0.0070097921
-0.36799717 2.3796582 -0.016432637
-0.45543724 2.3713484 -0.038860351
-0.54635006 2.3761973 -0.062526397
-0.28139311 2.4001756 -0.081856363
-0.36222026 2.3479993 -0.10285614
-0.45510399 2.3774529 -0.12796082
-0.5482406 2.3870902 -0.15280555
-0.27926669 2.395776 -0.1702709
-0.35911492 2.3359866 -0.18932667
-0.43595979 2.2793829 -0.20797431
-0.49007404 2.1367335 -0.21773012
-0.27079725 2.3287728 -0.25228932
-0.34115338 2.2256153 -0.26370665
-0.41094166 2.1516302 -0.27727106
-0.31507415 1.3752723 -0.19269262
-0.12553646 1.0873483 -0.15858823
-0.17261814 1.1303405 -0.17658554
-0.21319255 1.1185756 -0.18722621
-0.22621791 0.98813534 -0.17679121
-0 0 -0
-0.13492332 0.88630533 -0.17270674
-0.17065728 0.89838576 -0.1851166
-0.2011849 0.88006026 -0.19221763
-0.10323501 0.90794885 -0.20265129
-0.137263 0.90443289 -0.21185178
-0.16534549 0.87092054 -0.21424849
-0.19671194 0.8591134 -0.2225076
-0 0 -0
-0.12290141 0.81392068 -0.22369048
-0.1507529 0.79519337 -0.22852157
-0.1739227 0.75946254 -0.2287174
-0 0 0
-0.35863352 2.3831148 0.71578139
-0.42932954 2.2649705 0.66029441
-0.50826538 2.2243426 0.62980598
-0.29212651 2.6038792 0.69958526
-0.35647374 2.3729844 0.61432981
-0.44601116 2.3626652 0.5911544
-0.53234756 2.3425333 0.56583434
-0.30240041 2.6950316 0.61588973
-0.35778466 2.3794494 0.5212056
-0.45087096 2.3934505 0.50326937
-0.52953315 2.3378894 0.47129348
-0.28976348 2.5771327 0.48861641
-0.35393825 2.358067 0.42465502
-0.44405246 2.3638306 0.40477616
-0.52948558 2.3418529 0.3809627
-0.28815064 2.5648038 0.38839543
-0.35818088 2.3945894 0.34010923
-0.44816998 2.3926532 0.31840262
-0.53360438 2.3698745 0.29456842
-0.28566653 2.546699 0.28975961
-0.35664898 2.3846323 0.24921119
-0.44429103 2.3772175 0.22690082
-0.52046537 2.3168037 0.20056476
-0.27404332 2.4465482 0.18778656
-0.35906649 2.4059632 0.16204281
-0.44529736 2.3858299 0.13887918
-0.52773619 2.3528171 0.11464085
-0.26409444 2.3644433 0.093934387
-0.35234699 2.3688674 0.071665518
-0.44289276 2.3796239 0.049772203
-0.5251298 2.3457978 0.026223052
-0.26729468 2.3961277 0.0068590124
-0.35104084 2.366045 -0.016323451
-0.44197369 2.3799963 -0.038956895
-0.52739924 2.3599927 -0.062013675
-0.26699144 2.4048367 -0.081957914
-0.35263297 2.3827918 -0.1042835
-0.44432396 2.4008214 -0.12906939
-0.54445505 2.4391136 -0.15591894
-0.26674947 2.4172745 -0.17167926
-0.35044596 2.3766057 -0.19244087
-0.42377657 2.2918091 -0.20886691
-0.48496464 2.1756372 -0.22138695
-0.26150694 2.3758521 -0.257211
-0.33038002 2.2473195 -0.26603311
-0.40889996 2.2145979 -0.28505674
-0.38221049 1.716639 -0.24018919
-0.12724493 1.1648356 -0.16977257
-0.16453367 1.1235555 -0.17536455
-0.20185532 1.0956023 -0.18317018
-0.21544376 0.96834922 -0.17301142
-0 0 -0
-0.1482029 1.0153744 -0.19767639
-0.16761969 0.91291207 -0.18789434
-0.19556905 0.88032335 -0.19200939
-0.097557664 0.9075945 -0.20243478
-0.13157065 0.90429395 -0.21162616
-0.15666521 0.85375369 -0.20978498
-0.18975201 0.85273278 -0.22054933
-0 0 -0
-0.11527872 0.7965135 -0.21870793
-0.14378947 0.78474402 -0.22526087
-0.17092703 0.76800817 -0.23097077
-0.2888799 2.7422357 0.85187358
-0.36165601 2.5076649 0.75251001
-0.42027456 2.2940392 0.66800427
-0.52302599 2.3553996 0.6659925
-0.28663167 2.7045825 0.72615504
-0.35336336 2.4547136 0.63491493
-0.42941445 2.3538938 0.58828938
-0.51691467 2.3410032 0.56468797
-0 0 0
-0.35669869 2.4754322 0.54174054
-0.43337041 2.3807564 0.50003165
-0.51644343 2.3468442 0.47245097
-0 0 0
-0.34983441 2.4323061 0.43762958
-0.42636985 2.3490458 0.40178886
-0.52654839 2.3971484 0.38942504
-0.26969421 2.5409567 0.38452637
-0.3586534 2.5026104 0.35513246
-0.4303022 2.3777952 0.31606808
-0.52011365 2.3779531 0.29517034
-0.26040199 2.4574955 0.27942309
-0.36797163 2.5679502 0.26812822
-0.42916563 2.3769596 0.22662057
-0.50369066 2.3082709 0.19955477
-0.26039028 2.4610741 0.18877532
-0.34768632 2.4318268 0.16363798
-0.4302955 2.3865523 0.13876492
-0.51499069 2.3638189 0.11502077
-0.2555564 2.4226606 0.096183136
-0.34245783 2.40364 0.072652563
-0.42474526 2.3626163 0.049361032
-0.51136374 2.351907 0.026255777
-0.25918749 2.4603758 0.0070382408
-0.33595368 2.3641942 -0.016296152
-0.42436108 2.3659327 -0.038683344
-0.50866801 2.343646 -0.061500955
-0.25348085 2.4183576 -0.082364149
-0.33576274 2.3690839 -0.10359146
-0.41886678 2.3435376 -0.12584925
-0.52503812 2.4219248 -0.1546113
-0.25056908 2.4059677 -0.17076384
-0.33515999 2.3737762 -0.19204162
-0.4188109 2.3453522 -0.2135084
-0.46655312 2.15523 -0.21901496
-0.24682136 2.3764231 -0.25710404
-0.30910939 2.1961944 -0.25975162
-0.39182085 2.1975315 -0.28254521
-0.31094658 1.438109 -0.200947
-0.10822772 1.0504133 -0.15299605
-0.14172199 1.0110129 -0.1576602
-0.19633886 1.1036206 -0.18430586
-0.21033019 0.97350454 -0.17369865
-0 0 -0
-0.12498783 0.89470178 -0.17403089
-0.1630415 0.91971385 -0.18908481
-0.18562627 0.86047298 -0.18742782
-0.091298252 0.90137678 -0.20091923
-0.12669128 0.90990877 -0.21275423
-0.15345854 0.86618418 -0.21260403
-0.18574493 0.85956728 -0.22201805
-0 0 -0
-0.11396299 0.82301468 -0.2257884
-0.14416842 0.81498903 -0.23368436
-0 0 -0
-0 0 0
-0.32647979 2.3664446 0.7095176
-0.40602326 2.2956283 0.66772896
-0.49962372 2.3171036 0.65428513
-0 0 0
-0.38018528 2.7610607 0.71353525
-0.41108972 2.3344879 0.58279806
-0.50845784 2.3717313 0.57133675
-0.23947947 2.3996723 0.54767901
-0.38140509 2.7670603 0.60503882
-0.41146711 2.3418956 0.49133015
-0.50162375 2.3480496 0.47206512
-0.23405543 2.3399482 0.44306898
-0.36308047 2.6392248 0.4744494
-0.40224946 2.2962513 0.39232916
-0.50956422 2.389709 0.38770124
-0.24623132 2.4638467 0.37262154
-0.34033266 2.4831796 0.35207215
-0.40853989 2.3393664 0.31062087
-0.49788496 2.3451695 0.29071629
-0 0 0
-0.35261318 2.5731163 0.26843664
-0.40824997 2.3432567 0.22316429
-0.49695048 2.3464119 0.20258471
-0.24508685 2.4606409 0.1886232
-0.33708343 2.4655495 0.16576488
-0.41239256 2.3704593 0.13767947
-0.50151008 2.3718204 0.11525822
-0.24433918 2.4609733 0.097642846
-0.33013132 2.4235234 0.07319095
-0.40938625 2.3602529 0.04925824
-0.49878114 2.3638062 0.02635395
-0.24231012 2.4440076 0.0069870325
-0.32897893 2.4217 -0.016678307
-0.41017699 2.3704624 -0.03871553
-0.49716258 2.3604178 -0.061859857
-0.24216832 2.455673 -0.083582856
-0.32873076 2.4265406 -0.10601364
-0.40312192 2.338191 -0.12542695
-0.50893486 2.419241 -0.15423772
-0.23881599 2.4382355 -0.17294678
-0.3280533 2.431108 -0.19651328
-0.40407407 2.3459146 -0.21332988
-0.45863885 2.1833725 -0.22158463
-0.23426476 2.3986733 -0.25935087
-0.20944177 1.5572389 -0.18402465
-0.35865656 2.0855 -0.26785287
-0.29580989 1.4099296 -0.19675218
-0.11713816 1.2096521 -0.17608169
-0.13459755 1.0050068 -0.15659183
-0.18522486 1.0795186 -0.1800876
-0 0 -0
-0.094531506 0.98407632 -0.18078336
-0 0 -0
-0.15937707 0.93229014 -0.19146574
-0.18034302 0.86159575 -0.18742782
-0.085858211 0.90289193 -0.20113572
-0.11853728 0.89135474 -0.20824195
-0.15206943 0.89010465 -0.21824215
-0.18006927 0.8587929 -0.22152847
-0.083240397 0.88420469 -0.23232985
-0.10992286 0.83135182 -0.2278863
-0.13495773 0.79119283 -0.2266195
-0.1583385 0.75502253 -0.22646402
-0 0 0
-0.34462589 2.6164584 0.78382897
-0.38982883 2.2857568 0.6641494
-0.50691301 2.4229696 0.68328756
-0 0 0
-0.34076312 2.5923736 0.66938883
-0.40000859 2.3561139 0.58757311
-0.49349919 2.3729005 0.57087821
-0.22602321 2.4146895 0.55077952
-0.35880917 2.7267134 0.59572405
-0.39349172 2.3231337 0.48687822
-0.48780423 2.3539658 0.47264388
-0.2340152 2.4939725 0.47195271
-0.33521444 2.5525751 0.45849413
-0.38667461 2.2899249 0.39083549
-0.48128909 2.3270228 0.37704495
-0.22630942 2.4141145 0.36488339
-0.32367688 2.4744201 0.35054204
-0.39220309 2.3300955 0.30906454
-0.48668915 2.3637378 0.29264238
-0.22531883 2.4080703 0.27346832
-0.32056427 2.4509575 0.25548261
-0.39238054 2.3368804 0.22232357
-0.48154145 2.3445368 0.20216389
-0.23072593 2.4700408 0.18923166
-0.33911762 2.5991619 0.17460477
-0.39602408 2.3621142 0.13705108
-0.49216399 2.4002945 0.11649296
-0.22691882 2.4375532 0.096656553
-0.32517481 2.501827 0.075494058
-0.39456666 2.3607481 0.049217124
-0.48426771 2.366822 0.02635395
-0.2248105 2.4185646 0.0069102207
-0.31218562 2.4087977 -0.016575946
-0.39430889 2.3650446 -0.038586795
-0.48146978 2.357547 -0.06170604
-0.22746395 2.4610934 -0.08371827
-0.31844518 2.4641817 -0.10757075
-0.38794932 2.335695 -0.12516299
-0.48789757 2.3920023 -0.15230741
-0.2216633 2.4158149 -0.17125675
-0.30142432 2.342119 -0.18916698
-0.38527006 2.3218203 -0.21091987
-0.44185731 2.169569 -0.21990447
-0.2176404 2.3792729 -0.25710404
-0.23248062 1.8126614 -0.21403626
-0.36336499 2.1933658 -0.28141505
-0.44099927 2.1680648 -0.30216476
-0.10042197 1.1078429 -0.16116923
-0.13756612 1.0773776 -0.16773337
-0.17682771 1.0699258 -0.17830296
-0.21700788 1.0677247 -0.19002049
-0 0 -0
-0 0 -0
-0.15237983 0.92551368 -0.18987845
-0.17699799 0.87227154 -0.18951035
-0.080057196 0.90048444 -0.20048621
-0.11465827 0.90462959 -0.21117494
-0.14660498 0.89102095 -0.21824215
-0.174217 0.85703123 -0.22079413
-0 0 -0
-0.10723214 0.85115933 -0.23313111
-0.1307245 0.79580462 -0.2277064
-0.15427631 0.75880069 -0.22730905
-0 0 0
-0.31674966 2.5243595 0.75564188
-0.37610793 2.2900028 0.66470003
-0.47747457 2.3542359 0.66306567
-0 0 0
-0.32328552 2.5819194 0.66616464
-0.38053104 2.3278565 0.57993299
-0.47739136 2.3682506 0.56904405
-0 0 0
-0.31532827 2.5155196 0.54915005
-0.38553455 2.3641663 0.49497262
-0.47180578 2.3492186 0.47110057
-0.20944153 2.3896341 0.4519563
-0.31478015 2.516485 0.45165619
-0.37214193 2.2893341 0.39033762
-0.45807314 2.2853863 0.36983627
-0.21218245 2.4233384 0.36607385
-0.30873284 2.4783247 0.35082021
-0.37805709 2.333437 0.30919421
-0.47780901 2.394912 0.29613337
-0.21936187 2.5103769 0.28492838
-0.3184287 2.5565212 0.26627764
-0.37803432 2.3392441 0.22232357
-0.46831349 2.3533111 0.20266889
-0.21799167 2.4992232 0.19136128
-0.30360353 2.4437556 0.16403678
-0.38025066 2.3566146 0.13659404
-0.47372881 2.3846543 0.11559065
-0.2131692 2.4528365 0.09720888
-0.30257559 2.4452479 0.073729344
-0.38055024 2.366086 0.049278799
-0.46973604 2.3697491 0.02635395
-0.20875604 2.4059508 0.0068703927
-0.29776692 2.4136455 -0.016596418
-0.37994826 2.3684068 -0.038602889
-0.47184551 2.3849738 -0.062346946
-0.21227281 2.461447 -0.083684415
-0.29587957 2.405602 -0.1049323
-0.37408319 2.3409896 -0.12532136
-0.47050285 2.3812432 -0.15143566
-0.20802663 2.4310439 -0.1722426
-0.29286376 2.3914161 -0.19299982
-0.37290049 2.335943 -0.21199098
-0.43739641 2.2171485 -0.22445081
-0.19974212 2.3419278 -0.2529313
-0.23759462 1.9471502 -0.22974001
-0.35598922 2.2337632 -0.28631252
-0 0 -0
-0.10036929 1.1883168 -0.17278373
-0.12416095 1.02228 -0.15903382
-0.17444232 1.0973024 -0.18268345
-0.19732286 1.0023421 -0.17816567
-0 0 -0
-0.11864034 0.9806869 -0.19029899
-0.14133298 0.89254928 -0.18293411
-0.17352869 0.88293827 -0.19159287
-0.074208468 0.89706689 -0.19962017
-0.10968824 0.9101522 -0.212303
-0.14067927 0.8890236 -0.21753739
-0.16764389 0.85142487 -0.21908064
-0 0 -0
-0.10212225 0.85275942 -0.23339336
-0.12403708 0.78518468 -0.22444569
-0.14906129 0.75690871 -0.22646402
-0.19708917 2.4456501 0.75800806
-0.30363822 2.5462449 0.761621
-0.37734753 2.3891239 0.69278598
-0.4607906 2.3457706 0.65987271
-0.19967958 2.4585004 0.65856975
-0.29381648 2.4693799 0.63665104
-0.36895442 2.3474147 0.58423054
-0.47142929 2.4150805 0.57959038
-0.20703387 2.548497 0.58067709
-0.30497414 2.5601077 0.55846483
-0.37117273 2.3674548 0.49517494
-0.46169022 2.3742223 0.47553763
-0.19908388 2.4437654 0.4619545
-0.29387191 2.4724205 0.44341555
-0.36098057 2.3100865 0.39349088
-0.44930995 2.3153014 0.37422413
-0.19827162 2.4364221 0.3678596
-0.29666269 2.5067246 0.35457602
-0.36724144 2.3582468 0.31217721
-0.46178734 2.3909757 0.29529071
-0.19703792 2.4265006 0.27526599
-0.29022932 2.4527311 0.25527698
-0.36382666 2.3425033 0.22241697
-0.45933098 2.3845155 0.20510966
-0.20088063 2.4786494 0.18968803
-0.29468402 2.4971001 0.16749299
-0.36440676 2.3500245 0.13607989
-0.46021962 2.3934016 0.11587559
-0.1966676 2.4361703 0.09649875
-0.28721616 2.4440804 0.073639609
-0.36602503 2.3683763 0.049278799
-0.45405626 2.3666945 0.026288502
-0.1946321 2.4151604 0.0068931514
-0.28399861 2.4243658 -0.016657835
-0.36479956 2.3667407 -0.038538527
-0.45588672 2.3809512 -0.062167495
-0.1986811 2.4816318 -0.084327623
-0.28250402 2.4192801 -0.10545135
-0.36137888 2.3540986 -0.12590206
-0.46525556 2.4331002 -0.15454905
-0.20431668 2.5734775 -0.18224196
-0.27841499 2.3951485 -0.19315952
-0.35810751 2.3352339 -0.21172322
-0.43199468 2.2627983 -0.22879948
-0.19195527 2.426367 -0.26191872
-0.20313551 1.7542076 -0.20682417
-0.33687204 2.2006016 -0.28179178
-0.4132472 2.1674738 -0.30135286
-0.092458092 1.1810172 -0.17163663
-0.12422155 1.0780027 -0.16758074
-0.17440841 1.1422472 -0.18998429
-0.18637584 0.97837311 -0.17369865
-0 0 -0
-0 0 -0
-0.13659048 0.89824456 -0.18392615
-0.17395504 0.91473377 -0.19825697
-0.068777293 0.89847875 -0.19983669
-0.10365907 0.90693641 -0.21140055
-0.13536769 0.89083099 -0.21777231
-0.1629609 0.85529482 -0.219815
-0 0 -0
-0.096996754 0.85432881 -0.23365559
-0.1199386 0.79068846 -0.22580431
-0.14603075 0.76629204 -0.22899906
-0.17973943 2.4153707 0.74826729
-0.28467137 2.5185311 0.75279474
-0.36714971 2.4208591 0.7013219
-0.4496285 2.3655999 0.66466212
-0 0 0
-0.2676951 2.373908 0.61160165
-0.36570048 2.4235709 0.60261464
-0.43980432 2.3289771 0.55826849
-0.18256031 2.4320548 0.55387998
-0.28925988 2.5619309 0.55846483
-0.35649359 2.3687193 0.49497262
-0.44149062 2.3471169 0.46955723
-0.18652026 2.4772787 0.46806452
-0.30470312 2.7050612 0.48479399
-0.36274245 2.4185574 0.4115805
-0.44584489 2.3752856 0.38347006
-0.18042612 2.3991356 0.36205599
-0.27917954 2.4897997 0.35193306
-0.36258399 2.4261603 0.32086682
-0.43945256 2.3527784 0.29023477
-0.18184811 2.4237003 0.27481657
-0.27340099 2.4386497 0.25363201
-0.35619766 2.3899903 0.22671399
-0.43903452 2.3569214 0.20250055
-0.1864126 2.4897785 0.1904486
-0.27337033 2.4453139 0.16390383
-0.35923684 2.4144285 0.13967898
-0.44771644 2.4079649 0.11644547
-0.18193871 2.4403207 0.096617103
-0.27022395 2.4279151 0.073101215
-0.35441878 2.3903573 0.049689967
-0.44025543 2.3733685 0.026332133
-0.1806998 2.4282763 0.0069272905
-0.26878688 2.4230812 -0.016637363
-0.34924686 2.3620107 -0.038425885
-0.44345248 2.395499 -0.062475123
-0.17991537 2.434962 -0.082702681
-0.26633686 2.4090519 -0.1049323
-0.34605482 2.3503439 -0.12558532
-0.44287881 2.3956707 -0.15199606
-0.17555591 2.3975987 -0.16970755
-0.26207811 2.3819492 -0.19196175
-0.3476851 2.3639932 -0.21413322
-0.41340652 2.2399635 -0.2262298
-0.18270548 2.5048456 -0.27026415
-0.22114755 2.018043 -0.23776637
-0.32581276 2.2193136 -0.28392658
-0.41179281 2.2342784 -0.31028387
-0.079799622 1.1065423 -0.16073906
-0.1173905 1.0767797 -0.1672755
-0.16167836 1.1042422 -0.18349466
-0.18554294 1.0075947 -0.17868111
-0.07049261 0.98806232 -0.18114315
-0 0 -0
-0.1285312 0.88160819 -0.18035477
-0.16215013 0.88211542 -0.19096813
-0.063948438 0.90862256 -0.20200175
-0.096836016 0.8959325 -0.20869318
-0.12961885 0.88972116 -0.21730247
-0.15841234 0.86009282 -0.22079413
-0 0 -0
-0.092576683 0.86258388 -0.23575351
-0.11605419 0.79807603 -0.2277064
-0.14115229 0.76623005 -0.2287174
-0.16738772 2.4526508 0.75948399
-0.27012897 2.5288091 0.75535721
-0.38852724 2.6723175 0.77346414
-0.42848608 2.3322871 0.65455115
-0.1671049 2.4260662 0.64928323
-0.26954734 2.5296345 0.6512838
-0.3624984 2.5064998 0.62266994
-0.42969957 2.3546131 0.56377089
-0.16924269 2.4564779 0.5591951
-0.27861553 2.6112766 0.56883812
-0.35062033 2.4309576 0.50751895
-0.43620482 2.3999825 0.47958887
-0.17029993 2.463671 0.46528721
-0.2822645 2.6520572 0.47497538
-0.3498596 2.4344032 0.41390395
-0.42051134 2.3186975 0.37391073
-0.16774508 2.4297929 0.36652029
-0.26483589 2.5003288 0.35318497
-0.36272806 2.5333645 0.33474424
-0.43205911 2.3945088 0.29504997
-0.16697314 2.4247706 0.27481657
-0.26000392 2.4551189 0.25517419
-0.35165805 2.4630964 0.23343974
-0.42579967 2.3664358 0.2030897
-0.17058533 2.4829171 0.18984012
-0.26223746 2.4836595 0.16636306
-0.34807789 2.4422851 0.14116432
-0.43099084 2.3998523 0.11592308
-0.16859797 2.4653165 0.097563937
-0.25459018 2.4225688 0.072891846
-0.34480548 2.4281218 0.050430074
-0.42533177 2.3740568 0.026310319
-0.16668193 2.4423091 0.0069642738
-0.25610116 2.44557 -0.016780671
-0.33881244 2.3928189 -0.03889253
-0.42522699 2.3784935 -0.061962403
-0.17550574 2.5915747 -0.087983742
-0.25227597 2.4175963 -0.10523508
-0.33692396 2.3899984 -0.1275913
-0.9261542 5.1877303 -0.32877475
-0.159106 2.3727534 -0.16787668
-0.25106058 2.4182143 -0.19475655
-0.45441568 3.227103 -0.29205662
-0.40367034 2.2649903 -0.22850297
-0.16580898 2.4831026 -0.26780331
-0 0 -0
-0.28830206 2.0513108 -0.26220196
-0.4102281 2.3050463 -0.31975609
-0.07177107 1.0882483 -0.15801466
-0.10744572 1.0450374 -0.16223893
-0.13750611 0.98110908 -0.16289005
-0.17280355 0.97185731 -0.17215239
-0 0 -0
-0.096070386 0.93874657 -0.18178661
-0.12325478 0.88335091 -0.18055317
-0.16066571 0.90524334 -0.19575794
-0.058246907 0.9070493 -0.20156875
-0.092225529 0.90523255 -0.2107237
-0.12469408 0.89435047 -0.21824215
-0.15567847 0.87536758 -0.22446586
-0 0 -0
-0.08699096 0.8602553 -0.23496678
-0.11115511 0.79877305 -0.2277064
-0.1396409 0.78503066 -0.23406915
-0.15168412 2.4431417 0.75623703
-0.24712177 2.456023 0.73314917
-0.35463616 2.5489645 0.73711765
-0.41702953 2.3510077 0.65907454
-0.15148999 2.4154747 0.64618772
-0 0 0
-0.35842508 2.5904398 0.64296401
-0.41034672 2.3294058 0.55712211
-0.1542279 2.4584432 0.55941653
-0.25496525 2.5370872 0.55232555
-0.34239018 2.4815691 0.5176369
-0.41435 2.3620226 0.47148639
-0.15413016 2.4479966 0.46213964
-0.24006532 2.3951244 0.42868766
-0.33169284 2.4130571 0.4099209
-0.40201926 2.2969124 0.36999297
-0.15140581 2.4080775 0.36309764
-0.24605002 2.4674182 0.34831637
-0.33264944 2.4294446 0.32073712
-0.40748224 2.34039 0.28806794
-0.15134571 2.4138486 0.27346832
-0.24404654 2.4477599 0.25424889
-0.34973574 2.5618827 0.24259424
-0.4080331 2.3503504 0.20149057
-0.15553395 2.4869027 0.1900683
-0.24669704 2.4822431 0.16616365
-0.33375975 2.4493208 0.14144996
-0.41199431 2.3778462 0.11473583
-0.1552055 2.4942288 0.09866859
-0.24129467 2.4400005 0.073370412
-0.33864206 2.4945874 0.051766381
-0.41297069 2.3894312 0.026452124
-0.15231273 2.4532666 0.0069927224
-0.24020821 2.4381387 -0.016719252
-0.32398993 2.393862 -0.03887644
-0.41079473 2.3820434 -0.061988041
-0.15837267 2.5726519 -0.087306686
-0.23646125 2.4091558 -0.10480254
-0.32718599 2.4286385 -0.1295445
-0.41073689 2.3851876 -0.15099978
-0.15976243 2.6235993 -0.18555163
-0.23689592 2.4266539 -0.1953155
-0.43460599 3.2298305 -0.29205662
-0.38925928 2.2644823 -0.22820647
-0.1570065 2.5902641 -0.27925158
-0 0 -0
-0.2899709 2.1592331 -0.27576414
-0.39775306 2.3172853 -0.32110927
-0.065387689 1.0936077 -0.15873161
-0.10530844 1.0899436 -0.16910698
-0.13449563 1.0044289 -0.1666216
-0.19164619 1.1175719 -0.19775186
-0 0 -0
-0 0 -0
-0.11886822 0.89186281 -0.18214045
-0.15246807 0.89078718 -0.19242589
-0 0 -0
-0.085277483 0.89123464 -0.2073395
-0.11881916 0.89220828 -0.21753739
-0.14833747 0.86483884 -0.22152847
-0 0 -0
-0.080707751 0.85020542 -0.23208216
-0.10942163 0.82328969 -0.23449954
-0 0 -0
-0.13573009 2.4268556 0.75092393
-0.22781183 2.4126377 0.71976745
-0.32392034 2.4376895 0.70435077
-0.40747216 2.3820267 0.66705686
-0 0 0
-0.22640592 2.4044745 0.61829799
-0.32408109 2.4529967 0.60834467
-0.39897972 2.349153 0.56124896
-0.13864453 2.4505808 0.55742341
-0.23379602 2.4792497 0.53941184
-0.33137769 2.5156639 0.52431482
-0.39510462 2.3364637 0.46589187
-0.13949676 2.4557641 0.46343571
-0.2253646 2.3965523 0.42868766
-0.32149887 2.4502461 0.41589546
-0.39711905 2.3538735 0.37876874
-0.13713123 2.4178467 0.36443695
-0.22823136 2.4402881 0.34428233
-0.33058462 2.5297596 0.33370668
-0.39377129 2.3467622 0.28854945
-0.13417585 2.3730645 0.26874951
-0.22902279 2.4492111 0.25424889
-0.32153422 2.4682136 0.23353314
-0.39146659 2.3400335 0.20039642
-0.14184335 2.5156848 0.19219792
-0.22859153 2.4529121 0.16410324
-0.3165364 2.4344921 0.14047877
-0.39311975 2.3547134 0.11350109
-0.13956267 2.4891481 0.098431878
-0.22797929 2.4593506 0.073908806
-0.31305665 2.4172978 0.050121702
-0.39600214 2.3781109 0.02629941
-0.13759194 2.4601457 0.0070097921
-0.22377257 2.4236348 -0.016610065
-0.31108764 2.409688 -0.039101716
-0.39371341 2.3697267 -0.061603498
-0.14313705 2.5835543 -0.08764521
-0.2254255 2.4513512 -0.10657593
-0.31176895 2.4266384 -0.12933333
-0.39397052 2.3748631 -0.15019029
-0.14665993 2.6793113 -0.1894246
-0.22091265 2.4161496 -0.19435728
-0.41376582 3.2245333 -0.29134256
-0.36917996 2.2295222 -0.22445081
-0.13418964 2.4641018 -0.26555645
-0 0 -0
-0.25227082 1.9700662 -0.25140247
-0.36639515 2.216064 -0.30676559
-0 0 -0
-0.098084643 1.0846636 -0.16819122
-0.1293297 1.0130657 -0.16791952
-0.17531323 1.0613811 -0.18761516
-0 0 -0
-0.082959749 0.92225087 -0.17838165
-0.11376418 0.89549232 -0.1827357
-0.1506585 0.9139021 -0.19721571
-0 0 -0
-0.079373159 0.8868894 -0.20621142
-0.11468884 0.90352756 -0.22012153
-0.14381833 0.87051576 -0.22275238
-0 0 -0
-0.076939553 0.86702543 -0.23654023
-0 0 -0
-0.13015327 0.78763181 -0.23435083
-0.12093162 2.4295509 0.7515142
-0 0 0
-0.31318417 2.4730117 0.71398813
-0.38861772 2.3588014 0.65987271
-0.12280975 2.4364505 0.65134686
-0.21309134 2.422224 0.62251425
-0.30829599 2.4491582 0.60691214
-0.37921697 2.3188963 0.5534538
-0.12321257 2.443594 0.55565166
-0.21497627 2.4397478 0.53052044
-0.30935109 2.4651785 0.51338738
-0.37634629 2.311727 0.4604902
-0.12402817 2.4487224 0.4619545
-0.21117233 2.4037745 0.42973965
-0.30303428 2.4247742 0.41124859
-0.37728548 2.3231201 0.37344059
-0.12478981 2.4680226 0.37187746
-0.21644177 2.4781437 0.34942919
-0.3057501 2.4569592 0.32384983
-0.37873137 2.3452141 0.28806794
-0.12111264 2.4036155 0.27212009
-0.21321163 2.4416521 0.25332361
-0.30037838 2.4217255 0.22895591
-0.37615076 2.3364887 0.19989143
-0.12390365 2.4667156 0.18839504
-0.21786079 2.5039701 0.16742651
-0.30159265 2.4363885 0.14047877
-0.37913942 2.3600399 0.11364356
-0.12777391 2.5598161 0.1011935
-0.20986934 2.4258487 0.07286194
-0.29895237 2.4251266 0.050245047
-0.38140288 2.380496 0.02629941
-0.12209647 2.4529533 0.0069870325
-0.2088114 2.4239662 -0.016603241
-0.29556459 2.405597 -0.039005168
-0.37932342 2.3730848 -0.061629131
-0.12506965 2.539464 -0.086121827
-0.20918469 2.4387522 -0.10597038
-0.29614648 2.4225581 -0.12901659
-0.380335 2.3831494 -0.15056391
-0.11801844 2.4290826 -0.17167926
-0.21107872 2.4760587 -0.19906849
-0.3852821 3.1558273 -0.28491589
-0.36269358 2.2769504 -0.22899714
-0.12084265 2.5016234 -0.26951519
-0.087456465 1.0312244 -0.12120967
-0.25697365 2.1094496 -0.26898307
-0.36586279 2.3004646 -0.31813228
-0.11439264 2.4091027 -0.34943897
-0.091095567 1.0813059 -0.16758074
-0.12049434 0.99228984 -0.16435021
-0.16323267 1.0274115 -0.18143003
-0 0 -0
-0 0 -0
-0.10873762 0.90006566 -0.18352933
-0.14167844 0.89355719 -0.19263415
-0 0 -0
-0.0740107 0.88833058 -0.20643704
-0.10867681 0.90035421 -0.21918184
-0.13984376 0.87999988 -0.22495542
-0 0 -0
-0.070824139 0.8578639 -0.23391782
-0.10023097 0.83221424 -0.23667337
-0.12486614 0.78557277 -0.23350582
-0.10564712 2.4216566 0.74885768
-0.19677675 2.3980546 0.71464252
-0.29972807 2.4892035 0.71811837
-0.3795681 2.3954163 0.66945153
-0.10721692 2.4226801 0.64747757
-0.19704022 2.4090028 0.61879402
-0.29914615 2.5001781 0.61908865
-0.37087789 2.3586798 0.56239527
-0.10782845 2.4355359 0.55365849
-0.1999224 2.440047 0.53030872
-0.29758239 2.4952304 0.51925582
-0.37171304 2.3750658 0.47264388
-0.10825807 2.4327476 0.45880693
-0.19657934 2.4069874 0.43009028
-0.29617399 2.4941564 0.42269984
-0.37048858 2.3732069 0.3811194
-0.10793283 2.4302142 0.36607385
-0.19538417 2.407372 0.33927459
-0.28764215 2.4331868 0.32047775
-0.36524779 2.3533797 0.28879023
-0.1056594 2.3884301 0.27032244
-0.19830637 2.4439058 0.2534264
-0.29063877 2.4670296 0.23306608
-0.36394003 2.3525391 0.20106974
-0.10678986 2.4226031 0.18497244
-0.19959871 2.4694562 0.16503374
-0.28255773 2.4034894 0.13847928
-0.36388943 2.3573859 0.11340611
-0.10778315 2.4627218 0.097327232
-0.19754198 2.4589739 0.073819071
-0.28569371 2.4408176 0.05053287
-0.36557221 2.3748851 0.026212145
-0.10717389 2.4566536 0.0069955671
-0.194014 2.4261985 -0.016610065
-0.27975604 2.398427 -0.038860351
-0.36551395 2.3803082 -0.061757315
-0.10565516 2.4513171 -0.083108917
-0.19524738 2.4529366 -0.10653267
-0.27724829 2.3896115 -0.12716898
-0.36313394 2.3686669 -0.14950533
-0.10374604 2.4447103 -0.17273553
-0.19478193 2.4633954 -0.19795059
-0 0 -0
-0.35142469 2.2968388 -0.23077613
-0.10574197 2.5082781 -0.27015716
-0 0 -0
-0 0 -0
-0.3559297 2.3300908 -0.3219212
-0.099853754 2.4156923 -0.3502993
-0.078690022 1.0079479 -0.15613396
-0.11846916 1.0283002 -0.17019089
-0.16138364 1.0576094 -0.18658431
-0.040190686 0.9907425 -0.18132302
-0 0 -0
-0.1054445 0.92019087 -0.18749753
-0.13766536 0.90407896 -0.19471668
-0 0 -0
-0.069158033 0.89653862 -0.20824195
-0.097843535 0.8546502 -0.20790561
-0.13575818 0.88946772 -0.22715847
-0 0 -0
-0 0 -0
-0 0 -0
-0.11975399 0.78442705 -0.23294248
-0 0 0
-0.18757141 2.4718626 0.7362811
-0.2785593 2.4394183 0.70324939
-0.37008357 2.4320076 0.6790303
-0 0 0
-0.18145162 2.3995407 0.61606592
-0.27515328 2.42574 0.60022706
-0.36497048 2.4176962 0.57592213
-0.092324972 2.421535 0.5503366
-0.18406081 2.4295332 0.52776831
-0.28622642 2.5320415 0.52654082
-0.36573324 2.4345512 0.48402593
-0.090014629 2.3469512 0.44251353
-0.18143606 2.4032397 0.42921364
-0.27369684 2.43223 0.41191241
-0.36689606 2.4486911 0.39287269
-0.092225224 2.4100797 0.36294883
-0.18268254 2.4361753 0.34316948
-0.27513495 2.4565845 0.32333103
-0.36045188 2.4203818 0.29673526
-0.089602835 2.3522944 0.26616538
-0.18323275 2.4440846 0.25332361
-0.26853949 2.4064288 0.22718106
-0.35081491 2.3635986 0.20182721
-0.091734052 2.4182308 0.18459214
-0.1860026 2.4915299 0.16642953
-0.27001449 2.4250224 0.13962184
