# .PCD v0.7 - Point Cloud Data file format
VERSION 0.7
FIELDS x y z
SIZE 4 4 4
TYPE F F F
COUNT 1 1 1
WIDTH 1600
HEIGHT 1
VIEWPOINT 0 0 0 1 0 0 0
POINTS 1600
DATA ascii
-0.96200299 2.2896471 -0.13128655
-1.0425075 2.2471354 -0.15454905
-0.76399451 2.269918 -0.16907378
-0.84993142 2.2501245 -0.19268042
-0.94024473 2.2388453 -0.21761434
-0.91403794 1.9717501 -0.21585228
-0.65248907 1.9404143 -0.22029844
-0.67832243 1.7981768 -0.22508705
-0.87184435 2.0774984 -0.28518233
-0.84338558 1.8205054 -0.27401865
-0.45028204 1.3427229 -0.20518966
-0.60116369 1.5963346 -0.26342839
-0 0 -0
-0 0 -0
-0.39567342 1.1828948 -0.22809285
-0 0 -0
-0 0 -0
-0 0 -0
-0.31776217 0.95301336 -0.2227865
-0 0 -0
-0 0 -0
-0 0 -0
-0 0 -0
-0 0 -0
-0 0 -0
-0 0 -0
-0 0 0
-0.88204724 2.3577232 0.74766982
-0.94992906 2.2724032 0.70545214
-1.0206604 2.2064521 0.67104799
-0 0 0
-0 0 0
-0.95633179 2.2925532 0.61073226
-1.0145298 2.2000477 0.57064891
-0 0 0
-0.87844121 2.3489587 0.54322243
-0.97108364 2.3304348 0.52168411
-1.0260499 2.2292228 0.48248261
-0.76489896 2.3036239 0.45732567
-0.84843087 2.2705224 0.43166828
-0.97969055 2.3544457 0.42917228
-1.0294356 2.238842 0.39099216
-0.75983059 2.2890277 0.36294883
-0.87405401 2.3427093 0.35123754
-0.94541156 2.275423 0.32229346
-1.0062398 2.193537 0.29264238
-0.78408241 2.363467 0.28155777
-0.88417554 2.3699641 0.26144558
-0.92929631 2.2391729 0.22746129
-1.0018826 2.1868579 0.20317386
-0.77543694 2.3386359 0.18793869
-0.85724974 2.2999976 0.16350505
-0.93818891 2.262161 0.140136
-0.95702612 2.0907784 0.10932197
-0.76660812 2.3144429 0.096262038
-0.87890577 2.3616266 0.075404331
-0.9575054 2.3120434 0.051458001
-0.97713184 2.1370673 0.025634017
-0.78793669 2.3799486 0.0071321218
-0.87841266 2.3629508 -0.017203771
-0.93563443 2.2618005 -0.039391361
-1.0034992 2.1968637 -0.061936766
-0.75143099 2.2736731 -0.081111595
-0.85900903 2.3133504 -0.10683544
-0.94450545 2.2871997 -0.13081144
-1.0220683 2.2389629 -0.15355276
-0.74817789 2.2688792 -0.16865128
-0.83160442 2.2431469 -0.19164236
-0.92952985 2.2519376 -0.2183284
-0.95684713 2.0977354 -0.22899714
-0.61443764 1.8650576 -0.21131106
-0.70451957 1.9028987 -0.23765002
-0.85075837 2.0626321 -0.28241965
-0.8502816 1.8653144 -0.27997264
-1.1534296 3.5107961 -0.53541452
-0 0 -0
-0.62549633 1.5181459 -0.26996914
-0.62781715 1.3778541 -0.26407006
-0.36482161 1.1133225 -0.2142418
-0 0 -0
-0.41233796 1.0025263 -0.21944156
-0.54224348 1.1910392 -0.27864268
-0 0 -0
-0 0 -0
-0 0 -0
-0 0 -0
-0 0 -0
-0 0 -0
-0 0 -0
-0 0 -0
-0 0 0
-0 0 0
-0.94619715 2.3030875 0.71316206
-1.0142906 2.2284658 0.6758374
-0 0 0
-0.87044865 2.3728685 0.64706761
-0.93377483 2.2777123 0.60524088
-1.0086528 2.223073 0.57500505
-0 0 0
-0.92899776 2.5313818 0.58408052
-0.94340545 2.3037238 0.51439917
-1.0305672 2.2756989 0.49116379
-0.74588668 2.2933216 0.45436329
-0.86261564 2.3524044 0.44622087
-0.94842923 2.3193381 0.42170405
-1.0071303 2.2262197 0.38770124
-0.7356807 2.2626133 0.3580381
-0.85421562 2.3331497 0.34901187
-0.93742919 2.2958686 0.3243686
-1.0005206 2.2168617 0.29492956
-0.76311684 2.3483882 0.27919835
-0 0 0
-0.92907518 2.2780213 0.23082417
-0.99376845 2.2047739 0.20426801
-0 0 0
-0 0 0
-0.92994291 2.2817433 0.14099294
-0.94458956 2.097522 0.10936946
-0.74375856 2.2924905 0.095157392
-0.87159896 2.386692 0.076032445
-0.9391554 2.3076887 0.051231857
-0.95292491 2.1184008 0.025339499
-0.77640337 2.3942506 0.0071605705
-0.8519035 2.3354163 -0.016964924
-0.91345501 2.2471209 -0.039037354
-0.95066279 2.1154442 -0.059475705
-0.75193197 2.3229308 -0.082702681
-0.84616661 2.3223326 -0.10700846
-0.94171822 2.3207119 -0.1323951
-1.0095377 2.2479234 -0.15373956
-0.72933704 2.2582393 -0.16752459
-0.81748432 2.2472706 -0.1915625
-0.91943836 2.2668285 -0.219221
-0.93784654 2.0899487 -0.22751464
-0.62649089 1.9416517 -0.21954949
-0 0 -0
-0 0 -0
-0.77192545 1.7213268 -0.25764519
-1.1148911 3.4650495 -0.5273847
-0 0 -0
-0.46694085 1.1533568 -0.204586
-0.81841373 1.8257598 -0.34894359
-0.32762554 1.0209391 -0.1960735
-0.40988472 1.1319391 -0.23191507
-0.38891804 0.9623279 -0.21011627
-0.43617594 0.97386342 -0.22720416
-0.27332729 0.85455483 -0.19897065
-0 0 -0
-0 0 -0
-0.39901003 0.89004904 -0.24625154
-0 0 -0
-0 0 -0
-0 0 -0
-0 0 -0
-0.7214011 2.2720547 0.73646033
-0.82770985 2.2980223 0.72546178
-0.92988867 2.3035011 0.71150994
-1.0065069 2.247844 0.67982852
-0 0 0
-0.81486684 2.2642243 0.61606592
-0.92957789 2.3077192 0.61168724
-0.9981671 2.2363307 0.57683915
-0.7327649 2.3026884 0.54878634
-0.84590781 2.3494465 0.54089373
-0.93144572 2.3149204 0.51561332
-1.0189801 2.2873573 0.49232131
-0.7183817 2.2557185 0.44603142
-0.83516788 2.3215239 0.43938291
-0.95072412 2.3662908 0.42917228
-0.9866249 2.2170177 0.38503715
-0.72058374 2.2633159 0.35744286
-0.84021837 2.3392794 0.34915099
-0.93033886 2.3190625 0.32683283
-0.99052471 2.2311249 0.296013
-0 0 0
-0.82543784 2.2982545 0.25239831
-0.91359866 2.2799823 0.23045051
-0.97779822 2.2053645 0.20376301
-0.72522533 2.2805107 0.18253858
-0.84783131 2.3629375 0.1672271
-0.90850246 2.2688699 0.13985036
-0.94343382 2.1297634 0.11074667
-0.74994689 2.3608167 0.09780065
-0.84244227 2.3515325 0.074746296
-0.92868984 2.3226912 0.051437445
-0.98846185 2.2339387 0.026648469
-0.74596161 2.3494079 0.0070126369
-0.83048254 2.3208277 -0.016821615
-0.90780818 2.2731118 -0.039391361
-0.95342726 2.1568961 -0.060475513
-0.73585284 2.3217845 -0.082499564
-0 0 -0
-0.92487228 2.3199532 -0.13202558
-0.99854875 2.2604661 -0.15417543
-0.71697068 2.2674274 -0.16787668
-0.80501997 2.2559996 -0.19188191
-0.89813817 2.2539225 -0.21743581
-0.91174489 2.0656216 -0.22425313
-0.56784403 1.7975589 -0.20285861
-0.69045001 1.9375975 -0.24090712
-0 0 -0
-0.90210265 2.0451291 -0.30527708
-1.0588204 3.3613837 -0.5106082
-0.47595719 1.3380331 -0.21932015
-0 0 -0
-0.93318337 2.1164913 -0.40340695
-0.3125104 0.99477619 -0.19067699
-0.46110359 1.2982131 -0.2653971
-0 0 -0
-0 0 -0
-0.26953724 0.86087424 -0.20005319
-0 0 -0
-0.37328419 0.94049644 -0.24455336
-0.41583937 0.94304854 -0.26020417
-0 0 -0
-0 0 -0
-0 0 -0
-0 0 -0
-0 0 0
-0.79635137 2.2542489 0.71008706
-0.91573715 2.3091633 0.71150994
-0.98725605 2.241627 0.67610347
-0.69728786 2.2387853 0.62606686
-0 0 0
-0.88896042 2.2465608 0.59401947
-0.97620988 2.2236969 0.57202452
-0.69948202 2.245692 0.53416973
-0 0 0
-0.92370373 2.3369856 0.51925582
-0.98720598 2.2531238 0.4836401
-0.71739542 2.3013637 0.45417809
-0.82385582 2.3349605 0.44096091
-0.94161719 2.3858387 0.43166164
-0.97498304 2.2275536 0.38582072
-0.71403784 2.2912967 0.36116311
-0.82124263 2.3313143 0.34720352
-0.90155065 2.2878268 0.32164499
-0.97721332 2.2380705 0.29613337
-0.73690027 2.3661144 0.28020954
-0.83941102 2.3830228 0.26113716
-0.92912841 2.3605874 0.23801699
-0.94911319 2.1766138 0.20056476
-0.73196256 2.3515608 0.18786262
-0.82735497 2.3511534 0.16603073
-0.89273667 2.2697561 0.13956472
-0.93952388 2.1565742 0.11183894
-0.72565693 2.3338866 0.09649875
-0.82070845 2.3359108 0.074088268
-0.91551703 2.3311374 0.051499121
-0.98072094 2.2537153 0.026812091
-0.75378942 2.4255619 0.0072260029
-0.83178949 2.3702271 -0.017142352
-0.903337 2.3028405 -0.039809734
-0.97166014 2.235132 -0.06250076
-0.70974886 2.2880738 -0.08114545
-0.81859571 2.3353698 -0.10713822
-0.90552247 2.3125663 -0.13128655
-0.98386467 2.2647197 -0.15405092
-0.7048139 2.2775016 -0.16829918
-0.78358972 2.2392566 -0.19004534
-0.86795598 2.2176533 -0.21341912
-0.90578932 2.086695 -0.2259333
-0.64842969 2.097378 -0.23624042
-0 0 -0
-0 0 -0
-0.90491468 2.0860755 -0.31055447
-0.38629106 1.2531193 -0.18999042
-0 0 -0
-0 0 -0
-0.92331451 2.1294081 -0.40478143
-0 0 -0
-0.32458648 0.93194789 -0.19010982
-0.37067023 0.95059127 -0.20654489
-0.40708461 0.93965381 -0.21804102
-0.26139009 0.85317737 -0.19788811
-0.3305724 0.95052308 -0.2330595
-0.35338509 0.90654367 -0.23515651
-0 0 -0
-0.25455451 0.8336705 -0.22802743
-0 0 -0
-0 0 -0
-0 0 -0
-0 0 0
-0.78062201 2.2536578 0.70837873
-0.91341364 2.3451958 0.72087187
-0.97884661 2.260026 0.67982852
-0 0 0
-0.78290111 2.2621522 0.61284173
-0.88043529 2.2655499 0.59760076
-0.97797877 2.2653906 0.58119529
-0 0 0
-0.80709994 2.3310206 0.53433102
-0.88914698 2.2905715 0.5077213
-0.97258592 2.2573364 0.48325428
-0 0 0
-0.80726016 2.3334589 0.43973359
-0.91983253 2.3731818 0.42834246
-0.98042893 2.2779462 0.39349952
-0.70400304 2.3088772 0.36324647
-0.76036924 2.2015224 0.32717252
-0.89000094 2.2997887 0.32255289
-0.97051215 2.2604442 0.29830021
-0.72758174 2.3877006 0.2822319
-0.80139387 2.3204334 0.25373486
-0.9225238 2.3866746 0.24007209
-0.96165627 2.2428405 0.20611963
-0.71200055 2.3378849 0.18641753
-0 0 0
-0.88562763 2.292886 0.14065015
-0.93807346 2.1898437 0.11326364
-0.71103203 2.3373392 0.096459299
-0.80766225 2.3446827 0.074207909
-0.89867789 2.3301814 0.051355213
-0.97080755 2.2688837 0.026921172
-0.7138747 2.3478611 0.006981343
-0.79543328 2.3119328 -0.016685132
-0.90895772 2.359657 -0.040694751
-0.959499 2.2447288 -0.062603302
-0.7023716 2.3143818 -0.081924066
-0.82438129 2.3989282 -0.10981991
-0.89454126 2.3264675 -0.13176163
-0.96367717 2.2560287 -0.15305462
-0.68995905 2.2789192 -0.16808793
-0.76983517 2.2440226 -0.19004534
-0.85397512 2.2220075 -0.21332988
-0.88710922 2.0784853 -0.22445081
-0.61280894 2.0261343 -0.22778797
-0 0 -0
-0.61316037 1.5966659 -0.21649243
-0.88782185 2.0815637 -0.309066
-0.35859355 1.1891395 -0.17995319
-0.59252363 1.7327846 -0.28281158
-0.70325786 1.8333822 -0.32285976
-0.91988987 2.1576886 -0.40907663
-0.29319736 0.9749859 -0.18617989
-0.33282217 0.97481012 -0.19843304
-0 0 -0
-0.40782738 0.95743126 -0.22158132
-0.25615019 0.85476512 -0.19788811
-0 0 -0
-0 0 -0
-0.39092565 0.91686428 -0.25163674
-0 0 -0
-0 0 -0
-0 0 -0
-0 0 -0
-0.69579744 2.3398969 0.75417084
-0.78403783 2.3092375 0.72432292
-0.9045009 2.365123 0.72527754
-0.96722698 2.271311 0.68142503
-0 0 0
-0.77958721 2.2981052 0.62127417
-0.86132473 2.2573004 0.59401947
-0.958736 2.258805 0.57798553
-0.69304132 2.3251314 0.55100095
-0.77393609 2.2803998 0.52162904
-0.87054151 2.2840879 0.50509059
-0.96292675 2.2732 0.48537633
-0.69022381 2.3137608 0.45491871
-0.77964842 2.2992089 0.43236962
-0.89157486 2.3428369 0.42186999
-0.96835762 2.2884669 0.39428306
-0.66806263 2.2401862 0.35178804
-0.79066676 2.3355887 0.34636888
-0.87446415 2.3014987 0.32203406
-0.95932639 2.2727587 0.29914287
-0.69475394 2.3311744 0.27504128
-0.80691504 2.3837223 0.26010907
-0.88136798 2.3224764 0.23306608
-0.95174682 2.2578809 0.20696127
-0.69194943 2.3230975 0.18489638
-0.79076922 2.3384445 0.16443557
-0.87897599 2.3178804 0.14184985
-0.93431115 2.2185726 0.11445089
-0.69468248 2.334954 0.096183136
-0.79581821 2.3571703 0.074447192
-0.88082296 2.3263016 0.051149625
-0.9708252 2.3079796 0.027313864
-0.69859993 2.3493216 0.0069728084
-0.77963489 2.312032 -0.01665101
-0.90719461 2.3988581 -0.041274033
-0.95074201 2.2625549 -0.062936574
-0.69100118 2.328229 -0.082262591
-0.78700554 2.3367181 -0.10674894
-0.86437964 2.289871 -0.12938613
-0.95870394 2.2830644 -0.15448679
-0.67341417 2.2745013 -0.16745417
-0.75382793 2.24209 -0.18948638
-0.84770864 2.2467752 -0.21520431
-0.89705426 2.1380281 -0.23028198
-0.57808775 1.954535 -0.21933553
-0 0 -0
-0 0 -0
-0.87541604 2.0878856 -0.3092013
-0.34233317 1.1609411 -0.17536473
-0.44276917 1.3212664 -0.21519932
-0.45622998 1.2115647 -0.21286029
-0.82019657 1.9570482 -0.37007603
-0.27971703 0.95128566 -0.18132302
-0.36391118 1.0876474 -0.22094357
-0.37277067 0.99176657 -0.21448131
-0.39098975 0.93375254 -0.21554199
-0.25364569 0.86568969 -0.20005319
-0 0 -0
-0 0 -0
-0 0 -0
-0 0 -0
-0 0 -0
-0 0 -0
-0 0 -0
-0 0 0
-0 0 0
-0 0 0
-0.95327228 2.2772031 0.68142503
-0 0 0
-0.78013939 2.346972 0.63317883
-0.85495162 2.2825494 0.59927207
-0.93586314 2.2430856 0.57248312
-0.69731295 2.3930039 0.56606048
-0.76763952 2.3082905 0.52692151
-0.87641311 2.3425853 0.51682746
-0.96367019 2.314393 0.49290004
-0.66033101 2.2641783 0.44436505
-0.76366341 2.2983437 0.43131763
-0.84785122 2.2697415 0.40776342
-0.95353907 2.2925417 0.39396966
-0.6808753 2.3353798 0.36607385
-0.77320319 2.330997 0.34497783
-0.86379081 2.3161113 0.32333103
-0.9487868 2.2868547 0.30022627
-0.6823827 2.3420715 0.27582777
-0.7810002 2.3546402 0.25640792
-0.88691044 2.3810217 0.23839064
-0.93749344 2.2627578 0.20687713
-0.68353623 2.3474035 0.18649359
-0.7735815 2.334728 0.16383737
-0.84523445 2.2708333 0.13865066
-0.98333275 2.3756244 0.12223925
-0.68592352 2.3583617 0.096972167
-0.78353733 2.3686519 0.074656561
-0.87280154 2.3485312 0.051519677
-0.9650504 2.3342226 0.02755384
-0.68472987 2.3554842 0.0069784978
-0.769512 2.3291159 -0.016739724
-0.85488117 2.3031423 -0.039536178
-0.94828945 2.2960649 -0.06370566
-0.67503154 2.3266661 -0.082059473
-0.76200849 2.3092456 -0.10527832
-0.84580296 2.2829583 -0.12869987
-0.93820429 2.2732201 -0.15342823
-0.66221851 2.2881725 -0.16815835
-0.75502604 2.2921178 -0.19331922
-0.83079392 2.2435281 -0.21440099
-0.88278061 2.1407323 -0.22998548
-0.54620206 1.8892748 -0.21163203
-0.55021304 1.6727998 -0.20624255
-0.66099751 1.7864352 -0.24110526
-0.65005577 1.577471 -0.23301736
-0.31821018 1.1040604 -0.16647461
-0.42109004 1.2826433 -0.20848387
-0 0 -0
-0.4614915 1.1203872 -0.21132477
-0 0 -0
-0.31563529 0.96295834 -0.19521725
-0 0 -0
-0.45188129 1.0980355 -0.2528193
-0.24994168 0.87286115 -0.20135224
-0.28090021 0.85830224 -0.20914441
-0 0 -0
-0 0 -0
-0.2370427 0.83077228 -0.22600278
-0.25185126 0.77150017 -0.22054359
-0 0 -0
-0 0 -0
-0.64901716 2.2848425 0.73380375
-0.75950223 2.3305335 0.7280243
-0.87474447 2.3742406 0.72472686
-0.92681175 2.2527001 0.67237842
-0 0 0
-0.7384302 2.2678893 0.61060959
-0.85969186 2.3387938 0.61264229
-0.94386953 2.3019209 0.58600992
-0.66205263 2.3250201 0.54900777
-0.76163501 2.3380475 0.53263742
-0.84683442 2.3065498 0.5077213
-0.93161422 2.2766724 0.4836401
-0.65262073 2.2899241 0.44862354
-0.7504608 2.3057947 0.43184361
-0.82881743 2.2610128 0.40527403
-0.94505966 2.3120627 0.39632028
-0.66599101 2.3376117 0.36577624
-0.73409981 2.2594106 0.33371043
-0.85297096 2.3306794 0.32462797
-0.936611 2.2972295 0.30082816
-0.6524896 2.2917399 0.2694236
-0.75270677 2.3168168 0.25178146
-0.89313418 2.4434609 0.24408886
-0.92772496 2.2786193 0.20780292
-0.66093338 2.3227823 0.18421187
-0.75277305 2.3195002 0.1624416
-0.84019035 2.300359 0.140136
-0.94051105 2.3122189 0.1186775
-0 0 0
-0.75481671 2.3296742 0.073280685
-0.85734719 2.3510246 0.051458001
-0.94431144 2.3243511 0.027368402
-0.67026401 2.3596413 0.0069784978
-0.74966472 2.3166685 -0.01661689
-0.84689254 2.3252554 -0.039825823
-0.9135071 2.2508941 -0.062295672
-0.65420073 2.3076873 -0.081247009
-0.75888556 2.3481011 -0.10683544
-0.84917885 2.3359694 -0.13139211
-0.91186023 2.2484126 -0.15137339
-0.64789468 2.2912328 -0.16808793
-0.72564518 2.2492745 -0.18932667
-0.81701225 2.2485836 -0.21440099
-0.8853246 2.1848438 -0.23413649
-0.50135589 1.7749019 -0.1984719
-0.56186497 1.744211 -0.21461788
-0.62395501 1.7186526 -0.23143592
-0.64966118 1.6043892 -0.23640029
-0 0 -0
-0.37479475 1.1657149 -0.18910068
-0.45242834 1.2476844 -0.21821424
-0.48491547 1.1980777 -0.22541308
-0 0 -0
-0 0 -0
-0.38825709 1.0727605 -0.23094934
-0.39636847 0.98019052 -0.22512163
-0.24300325 0.8687371 -0.20005319
-0.27622312 0.8618651 -0.20959564
-0 0 -0
-0 0 -0
-0 0 -0
-0.25328314 0.79233378 -0.22605065
-0 0 -0
-0 0 -0
-0 0 0
-0.78890264 2.4721355 0.77073193
-0.8454535 2.3388791 0.712336
-0.915501 2.2646 0.67424095
-0.62647331 2.252605 0.6242612
-0.7224409 2.2659166 0.60887349
-0.85191375 2.3622947 0.61741734
-0.93627477 2.3239202 0.59013677
-0.64803541 2.329978 0.5492292
-0.75351191 2.3622303 0.53708315
-0.84262186 2.3393433 0.5137921
-0.9249478 2.3005536 0.48749843
-0.64224726 2.3071394 0.45121565
-0.73540169 2.3075418 0.43131763
-0.84896731 2.3607068 0.42220193
-0.91723663 2.2839077 0.390522
-0.62644988 2.2511508 0.35163924
-0.74213839 2.3327606 0.34386504
-0.83831906 2.3349361 0.3244983
-0.93098819 2.3241286 0.30359688
-0.65199316 2.3445249 0.27515364
-0.72611368 2.2825282 0.24756625
-0.84149402 2.3467407 0.23390682
-0.91150564 2.2787178 0.20729794
-0.65467852 2.3556147 0.18649359
-0.73973548 2.3278794 0.16270746
-0.82504952 2.3026514 0.13996461
-0.90740168 2.2706413 0.11625551
-0 0 0
-0.73990345 2.3323565 0.073220864
-0.83246601 2.3270588 0.05082069
-0.92743701 2.3236008 0.027292047
-0.65309954 2.3540735 0.0069500492
-0.73513371 2.3202713 -0.016610065
-0.82857215 2.319109 -0.039632726
-0.90152991 2.2611001 -0.062423855
-0.65202928 2.3550017 -0.082770392
-0.73361313 2.3184228 -0.10527832
-0.82040709 2.3006904 -0.12912218
-0.90580469 2.2734361 -0.15268101
-0.63780671 2.3095882 -0.16914421
-0.7139318 2.2603383 -0.18988563
-0.79952151 2.2432339 -0.21341912
-0.8262642 2.0755918 -0.22188114
-0.53275931 1.9312984 -0.21559076
-0.57863504 1.8347702 -0.22531968
-0.61805737 1.7355331 -0.23319399
-0.62039441 1.5595517 -0.22922845
-0.30122659 1.095477 -0.16461055
-0.39315283 1.2490638 -0.20222631
-0.42856085 1.2048819 -0.21026443
-0.48993075 1.2321547 -0.23125458
-0.26580068 0.96955478 -0.18384141
-0 0 -0
-0.34133661 0.96151417 -0.20654489
-0.39612421 0.99714768 -0.22845367
-0.23586769 0.86361933 -0.19853763
-0.26947144 0.85889608 -0.20846756
-0 0 -0
-0 0 -0
-0 0 -0
-0.24611121 0.78650522 -0.22395271
-0 0 -0
-0 0 -0
-0 0 0
-0.72027045 2.3058231 0.71748972
-0.7954272 2.243448 0.68177187
-0.94428396 2.3776813 0.70617026
-0 0 0
-0.73045784 2.340589 0.6277225
-0.81732595 2.3107164 0.60261464
-0.90444618 2.2852733 0.5789026
-0.64420366 2.3724954 0.55830926
-0.73201233 2.344419 0.53200233
-0.8223803 2.3278487 0.5101496
-0.90360582 2.2879333 0.4836401
-0.61467713 2.2617247 0.44158778
-0.7185905 2.3035524 0.42973965
-0.80297703 2.2765934 0.40626979
-0.92966384 2.3565605 0.40196186
-0.63181031 2.3255684 0.3626512
-0.72869414 2.340107 0.34428233
-0.8239764 2.3400359 0.3244983
-0.91780055 2.3325689 0.30395803
-0.63368988 2.3340969 0.27346832
-0.72540206 2.3296781 0.25219268
-0.82443643 2.3443458 0.2331595
-0.89932859 2.2889049 0.20771877
-0.63734037 2.3490021 0.18565696
-0.71269536 2.2914057 0.15984945
-0.80891931 2.3020189 0.13962184
-0.89564204 2.2817452 0.11654045
-0.63377303 2.3387613 0.095670268
-0.73032081 2.3521261 0.073699437
-0.79566538 2.2679706 0.049422707
-0.91170228 2.3255239 0.027248414
-0.63812011 2.3561063 0.0069443597
-0.71821743 2.3161423 -0.016548648
-0.80242431 2.2901788 -0.039053444
-0.88873273 2.2693815 -0.06250076
-0.64069611 2.3705356 -0.08317662
-0.72232926 2.3324239 -0.10571086
-0.80858225 2.3122795 -0.1294917
-0.89911246 2.2975395 -0.15392637
-0.61531532 2.2826378 -0.16689083
-0.69416147 2.2456293 -0.18828861
-0.79132891 2.2640817 -0.21493655
-0.84105295 2.151058 -0.22939247
-0.51650441 1.9182099 -0.21377189
-0.56238675 1.8221525 -0.22334218
-0.61491966 1.7608348 -0.23608224
-0.71069264 1.8189619 -0.2667115
-0.29757762 1.1087749 -0.16633123
-0.32758638 1.0634986 -0.1718542
-0.50012726 1.4338931 -0.24968901
-0 0 -0
-0.2608636 0.97496843 -0.18456092
-0.29295036 0.95264935 -0.19200148
-0 0 -0
-0.39462006 1.0114048 -0.23116097
-0 0 -0
-0.26391035 0.85960203 -0.20824195
-0.30156913 0.86660951 -0.22176598
-0 0 -0
-0.2177383 0.82003397 -0.22195345
-0.23845538 0.77877337 -0.22133033
-0 0 -0
-0 0 -0
-0 0 0
-0.68537366 2.2423599 0.69642055
-0.77817416 2.2382982 0.67874306
-0.87047756 2.2316597 0.66120315
-0.6260007 2.3628561 0.65263671
-0.69486314 2.275538 0.6091215
-0.79772294 2.300091 0.5985558
-0.8967545 2.3071103 0.58302945
-0.61115223 2.3066478 0.54192096
-0.70990336 2.3236299 0.52628642
-0.81000465 2.3384032 0.5113638
-0.90764642 2.34009 0.4934788
-0 0 0
-0.70099366 2.2966187 0.42763564
-0.79060447 2.2861373 0.40709957
-0.91590041 2.3640623 0.40227529
-0.62234354 2.3475626 0.36547861
-0.70797223 2.3236938 0.34122205
-0.7973066 2.3094316 0.31956989
-0.90239751 2.3353784 0.30359688
-0.62368208 2.3542705 0.27537835
-0.70732522 2.3217154 0.25085616
-0.81555331 2.3653617 0.23474751
-0.90571296 2.3473701 0.21251616
-0.62674296 2.3673267 0.18679781
-0.70239854 2.3081448 0.16071351
-0.80225867 2.3286493 0.14093579
-0.88413948 2.2937219 0.11687288
-0.62068784 2.3474362 0.095867522
-0.72255695 2.3785601 0.074387372
-0.78726244 2.2888823 0.049772203
-0.89418268 2.3226755 0.02715024
-0.62569523 2.3677118 0.0069671185
-0.7127015 2.3492129 -0.016753374
-0.79290462 2.3082983 -0.039278723
-0.8801735 2.2887878 -0.062885299
-0.61925805 2.3483298 -0.082262591
-0.70105165 2.3138649 -0.10467278
-0.79178846 2.3096402 -0.12906939
-0.88428205 2.3011498 -0.15380183
-0.59698462 2.2699702 -0.16569373
-0.6823892 2.2565253 -0.18884756
-0.77451617 2.2604144 -0.21413322
-0.81250149 2.1162317 -0.22514264
-0.57848835 2.2021399 -0.24501383
-0.5158847 1.7086184 -0.20903432
-0.52666283 1.5383713 -0.20581849
-0.6104371 1.5910989 -0.23274671
-0.29653394 1.1325999 -0.16962919
-0.34871221 1.1572759 -0.1866587
-0.39586505 1.1577642 -0.20117892
-0.43385682 1.1313753 -0.21132477
-0 0 -0
-0 0 -0
-0.33141086 0.97119617 -0.20773536
-0.38385785 1.0019337 -0.22845367
-0.22426943 0.86266923 -0.19767161
-0.25722995 0.85653996 -0.20711388
-0.29185256 0.85556412 -0.21847709
-0 0 -0
-0 0 -0
-0.24197832 0.80795485 -0.2291975
-0 0 -0
-0 0 -0
-0 0 0
-0.71278763 2.3842902 0.73912829
-0.78923446 2.3158269 0.70077121
-0.83435756 2.1784468 0.64390808
-0 0 0
-0.67118436 2.2472701 0.60044098
-0.78922093 2.3214917 0.60285336
-0.88882852 2.3289382 0.58715624
-0.59454775 2.3009126 0.53970629
-0.70850414 2.3710175 0.53602463
-0.78430641 2.3099458 0.50407881
-0.89396924 2.3474491 0.49386466
-0.59622663 2.3052506 0.44862354
-0.68407243 2.2914429 0.42588234
-0.77877814 2.297483 0.4082613
-0.84905761 2.2320936 0.37892547
-0.58886784 2.2776186 0.35402024
-0.67786437 2.2748477 0.33343223
-0.79869455 2.3603027 0.32592493
-0.88805091 2.3408713 0.30359688
-0.60649055 2.34747 0.27414244
-0.68397677 2.295507 0.24756625
-0.77903044 2.3052387 0.228302
-0.8948226 2.3622017 0.21335781
-0.60273331 2.3344412 0.18390763
-0.68167639 2.2904155 0.1591848
-0.77965093 2.3089349 0.13945048
-0.87358421 2.3084459 0.11734778
-0.60277963 2.3376544 0.095315196
-0.70510221 2.3733673 0.074088268
-0.77671647 2.3040912 0.049998347
-0.8827424 2.3356013 0.027237507
-0.60766172 2.3579493 0.0069272905
-0.69144732 2.3305337 -0.016589593
-0.77649301 2.3064866 -0.039166082
-0.86470091 2.2904043 -0.062782757
-0.60906869 2.36854 -0.082838088
-0.68939519 2.3267441 -0.10506206
-0.78873318 2.3475862 -0.130917
-0.86133873 2.2831869 -0.15224513
-0.58676189 2.288084 -0.16674998
-0.66937864 2.2635376 -0.18908712
-0.76158315 2.2679567 -0.21440099
-0.78721744 2.0885866 -0.22168346
-0.49884713 1.9475197 -0.21633971
-0.51157844 1.7327081 -0.21159346
-0.55097926 1.6422135 -0.21925509
-0.57342345 1.5224916 -0.22219191
-0.28982362 1.135357 -0.16977257
-0.32652161 1.1082022 -0.17841701
-0.38499159 1.1489439 -0.19923204
-0.56920892 1.5120215 -0.28176636
-0 0 -0
-0 0 -0
-0.31580955 0.94439614 -0.20158464
-0 0 -0
-0.21993132 0.86781454 -0.19853763
-0.24977365 0.85062414 -0.20530896
-0.28721377 0.85918248 -0.21894692
-0 0 -0
-0.20765883 0.82264423 -0.22195345
-0.23213491 0.79275435 -0.2244772
-0 0 -0
-0 0 -0
-0.56978005 2.2684629 0.72258717
-0.68308437 2.3370926 0.72318411
-0 0 0
-0.83624125 2.224128 0.65588158
-0 0 0
-0.68752301 2.3545678 0.62797052
-0.78662449 2.3613002 0.61192602
-0.86291152 2.3033571 0.57936114
-0 0 0
-0.69174999 2.3678153 0.53433102
-0.77846539 2.3398039 0.50954252
-0.88710731 2.3731103 0.49810877
-0.58062929 2.303148 0.44751263
-0.66862029 2.2908716 0.42500564
-0.76559889 2.3050258 0.40875918
-0.86609256 2.3196087 0.39287269
-0.57778132 2.2926953 0.35580593
-0.65780008 2.2580476 0.33037192
-0.76797014 2.3162184 0.31918079
-0.85773551 2.3034813 0.29805943
-0.58795023 2.3347661 0.27223244
-0.68378836 2.3474109 0.25270674
-0.76768774 2.3184819 0.22914273
-0.87197727 2.3452322 0.21133785
-0.59083152 2.347765 0.18466821
-0.6759724 2.323297 0.16117877
-0.76358736 2.3079882 0.13910769
-0.854882 2.3015897 0.11673041
-0.58988607 2.3471236 0.095551908
-0.69303513 2.3862879 0.074357457
-0.76413196 2.3135602 0.050101139
-0.85691822 2.3100359 0.026877539
-0.59707987 2.3771515 0.0069728084
-0.67741293 2.3356929 -0.016596418
-0.75637537 2.2931664 -0.038860351
-0.86973459 2.3472235 -0.064192742
-0.60594332 2.4177969 -0.084429182
-0.67927462 2.3453245 -0.10571086
-0.75589263 2.2964177 -0.12780245
-0.84696656 2.287493 -0.15218286
-0.57779038 2.3119643 -0.16822878
-0.65630764 2.2704751 -0.18932667
-0.75045419 2.2811022 -0.21520431
-0.77369684 2.0915112 -0.22148581
-0.4965198 1.9891303 -0.22061943
-0.59181631 2.0507231 -0.2499804
-0.54460996 1.6568731 -0.22076201
-0 0 -0
-0.28691298 1.1534408 -0.17221019
-0.31424576 1.0911911 -0.17536455
-0.3939383 1.200036 -0.20766859
-0.43325564 1.1726532 -0.21802531
-0 0 -0
-0.27210999 0.94655544 -0.18973149
-0 0 -0
-0.35019675 0.94876218 -0.21533373
-0.21062392 0.85303479 -0.194857
-0.2458933 0.85682279 -0.20643704
-0.28405407 0.86739486 -0.22059138
-0 0 -0
-0 0 -0
-0.23098327 0.80715245 -0.22814856
-0.25557446 0.78112012 -0.23205401
-0 0 -0
-0 0 0
-0.65688378 2.2997611 0.71037173
-0.75537574 2.3088913 0.69581491
-0.81957513 2.2210782 0.65348685
-0 0 0
-0.66934121 2.3457 0.62449837
-0.76187825 2.3346944 0.60380834
-0.8648842 2.3524601 0.59036601
-0 0 0
-0.67264712 2.3560388 0.53073215
-0.76864582 2.3585033 0.51257795
-0.85292971 2.3250799 0.48691967
-0.58336157 2.3753808 0.46084359
-0.65860164 2.3091326 0.42763564
-0.75174624 2.3106179 0.40892518
-0.84742618 2.3128238 0.39083546
-0.57926291 2.3595805 0.36562741
-0.65179533 2.2896619 0.33440593
-0.76201302 2.3463497 0.32268256
-0.84085989 2.3012416 0.2970964
-0.57479703 2.3431554 0.27279422
-0.6729123 2.3639994 0.25404328
-0.75068295 2.314625 0.228302
-0.80702502 2.2119961 0.19888146
-0.56074613 2.2874298 0.1796484
-0.65842974 2.3158839 0.16038117
-0.73956293 2.282238 0.13727959
-0.84074366 2.306792 0.11673041
-0.57523561 2.3497281 0.09551245
-0.67128521 2.365494 0.073579788
-0.74930644 2.316303 0.050060026
-0.84170192 2.3124313 0.026844816
-0.57915556 2.3671713 0.0069329794
-0.65816104 2.3224876 -0.016473582
-0.74075365 2.2930069 -0.038779892
-0.86112273 2.3684874 -0.064628556
-0.57829815 2.3690395 -0.082601123
-0.66079056 2.3350289 -0.10506206
-0.76109093 2.3608904 -0.13112818
-0.81826043 2.2523098 -0.14950533
-0.56052673 2.3028662 -0.16731334
-0.63911283 2.262948 -0.18836847
-0.72911268 2.2629116 -0.21306209
-0.75473773 2.0793819 -0.21970679
-0.47467566 1.9525286 -0.21623273
-0.57194483 2.0285053 -0.24683966
-0.54355335 1.6885144 -0.22452928
-0.54692715 1.5079907 -0.21907961
-0.27377224 1.1301715 -0.16848207
-0.30219117 1.0740718 -0.17231208
-0.35999107 1.1197635 -0.19339137
-0.42974535 1.1854774 -0.21991521
-0 0 -0
-0 0 -0
-0.27635181 0.86140656 -0.18313251
-0.34736609 0.95916981 -0.21720803
-0.20698328 0.86095577 -0.19637257
-0.23826444 0.84987295 -0.2044065
-0.27516448 0.85801446 -0.21777231
-0 0 -0
-0 0 -0
-0.22836453 0.81691891 -0.23050871
-0.24255459 0.75701219 -0.22444569
-0 0 -0
-0.55163962 2.3161795 0.73557484
-0.58917552 2.1116924 0.65115041
-0.725649 2.264961 0.68122125
-0.80494696 2.223346 0.65268862
-0 0 0
-0.65311497 2.3432307 0.62276226
-0.72802979 2.2782753 0.5880506
-0.83359003 2.3110261 0.57867336
-0.54416561 2.2782695 0.53195512
-0.64767659 2.3224652 0.52226412
-0.73153198 2.2922704 0.49719855
-0.8462894 2.3515043 0.49135676
-0 0 0
-0.63438052 2.2770913 0.420973
-0.73396242 2.3039117 0.40693364
-0.82653725 2.2993915 0.38770124
-0.56247526 2.3534727 0.36413932
-0.66585374 2.3947513 0.34915099
-0.73377955 2.3075144 0.31671655
-0.83275348 2.3231788 0.29926324
-0.55533099 2.3253753 0.27032244
-0.65786147 2.3661671 0.25383765
-0.74460274 2.3448091 0.23082417
-0.85354102 2.3848393 0.21394695
-0.54878324 2.299556 0.18033291
-0.65168262 2.3467999 0.1622422
-0.73430151 2.3143299 0.13893631
-0.83363545 2.3316591 0.1177277
-0.56127042 2.3551576 0.095591359
-0.64661318 2.3329656 0.072443195
-0.74594748 2.3551695 0.050800133
-0.82648855 2.3147273 0.026812091
-0.56415665 2.3687348 0.0069272905
-0.6494996 2.3467212 -0.01661689
-0.72606707 2.2956023 -0.038747713
-0.82138813 2.303108 -0.062705852
-0.56328905 2.3705988 -0.082533419
-0.64857972 2.3467429 -0.10540809
-0.73336577 2.3236144 -0.12880544
-0.81816167 2.2958341 -0.15205833
-0.55029535 2.3227632 -0.16851045
-0.6236254 2.2610614 -0.18788937
-0.70892185 2.2473955 -0.21118766
-0.70925546 1.9921026 -0.21002111
-0.45192608 1.9099299 -0.21120405
-0.50596428 1.8375887 -0.22322586
-0.52006179 1.6501846 -0.21900395
-0.56655639 1.5925318 -0.23085226
-0.27273688 1.1568749 -0.17221019
-0.31235158 1.136896 -0.18207999
-0.35577971 1.1304225 -0.19485155
-0.37493616 1.0544314 -0.19517474
-0.22970895 0.97772354 -0.18366151
-0 0 -0
-0 0 -0
-0.33754542 0.95022321 -0.21470897
-0.20169666 0.86220962 -0.19637257
-0.23381691 0.8541379 -0.20508336
-0.27135035 0.86432362 -0.21894692
-0 0 -0
-0.19862682 0.85270935 -0.22903976
-0.21979041 0.80527145 -0.22683737
-0.25028998 0.79797155 -0.23612991
-0 0 -0
-0 0 0
-0.62382567 2.2900755 0.70496207
-0.71979296 2.2950549 0.68893105
-0.78870904 2.2209764 0.65056002
-0 0 0
-0.62142766 2.2836299 0.60589731
-0.72534317 2.3188446 0.59736204
-0.82199121 2.3234384 0.58050746
-0.54032946 2.3252592 0.54214245
-0.62827891 2.3075354 0.51803011
-0.73292941 2.3462586 0.50792366
-0.82008737 2.3233433 0.48441178
-0.54281312 2.3335459 0.45140085
-0.62168854 2.2856908 0.4218497
-0.72186697 2.3149617 0.40809536
-0.81011415 2.2978992 0.38660425
-0.53369075 2.2952368 0.35461545
-0.62987471 2.3204248 0.33774447
-0.72108048 2.3167071 0.31736502
-0.81716609 2.3244987 0.29878172
-0.57028621 2.4545643 0.28492838
-0.63473195 2.33848 0.25044492
-0.71069765 2.2865832 0.22465891
-0.79962033 2.2781458 0.20393135
-0.54278117 2.3378458 0.18307099
-0.63570428 2.3449759 0.16184342
-0.71564585 2.3044901 0.13807938
-0.81501645 2.3244762 0.11711033
-0.54161841 2.3361688 0.094683975
-0.63098085 2.3320649 0.072293639
-0.72556186 2.3406031 0.050388962
-0.825158 2.3565617 0.027237507
-0.53561747 2.3117521 0.0067509073
-0.63482732 2.3496966 -0.016610065
-0.7084198 2.2885523 -0.038554616
-0.80955118 2.3147099 -0.062885299
-0.54625684 2.3632991 -0.082161032
-0.63130575 2.3400681 -0.1049323
-0.7214523 2.3357036 -0.12922776
-0.80043745 2.2904472 -0.15137339
-0.5380488 2.3348444 -0.16914421
-0.61803234 2.2956464 -0.1904446
-0.69453108 2.2497995 -0.21100913
-0.72785163 2.0847292 -0.21931146
-0.4629443 2.0114977 -0.22211735
-0.498804 1.8560053 -0.22508705
-0.50700277 1.6438644 -0.21774818
-0.49802887 1.4275864 -0.20649505
-0.2691721 1.1739607 -0.1745044
-0.29333934 1.0939268 -0.17490667
-0.33082861 1.074116 -0.18479259
-0.42100361 1.2074053 -0.22300777
-0 0 -0
-0 0 -0
-0.266624 0.86754358 -0.18372774
-0.33653462 0.96613109 -0.21783276
-0.1998671 0.87866235 -0.19983669
-0.22857162 0.85555649 -0.20508336
-0.2629019 0.85575163 -0.21636279
-0 0 -0
-0 0 -0
-0.21410009 0.80380738 -0.22605065
-0.23832949 0.77649194 -0.22933675
-0 0 -0
-0.55655575 2.4709773 0.78250754
-0.62084442 2.3355501 0.71777445
-0.6904664 2.2498002 0.67406207
-0.7988416 2.2940493 0.67051589
-0 0 0
-0.62232167 2.3435783 0.62077814
-0.71479613 2.3353229 0.60046583
-0.80771941 2.3284383 0.58050746
-0.53615159 2.3732371 0.55255121
-0.6186257 2.3283494 0.52184075
-0.7113626 2.3272979 0.50286466
-0.80389071 2.322768 0.48325428
-0.53520435 2.3665462 0.45714054
-0.61295581 2.3094451 0.42553166
-0.7062102 2.3146315 0.40726557
-0.79438603 2.2981596 0.38582072
-0.54009354 2.3891339 0.36860365
-0.62323159 2.3529639 0.34191757
-0.71262914 2.3400588 0.31995893
-0.7983591 2.3163292 0.2970964
-0.53288335 2.3591537 0.27346832
-0.63081282 2.3817544 0.25466013
-0.70186812 2.3080471 0.22634032
-0.80086601 2.3272939 0.20788708
-0.53435367 2.3673933 0.18512455
-0.62717235 2.3710186 0.16337211
-0.70323372 2.3145692 0.13842215
-0.7987901 2.3237655 0.11682539
-0.53320557 2.365767 0.095749162
-0.61691487 2.336859 0.072323553
-0.7056734 2.3268325 0.049998347
-0.78698242 2.2925391 0.026441215
-0.52911341 2.3491397 0.0068504787
-0.62039787 2.3535476 -0.016610065
-0.69813162 2.3052964 -0.038763802
-0.79565746 2.3205793 -0.062910944
-0.5306502 2.3617308 -0.081991777
-0.62303865 2.3670855 -0.10597038
-0.69670844 2.3056734 -0.12732735
-0.78863281 2.3019247 -0.15180926
-0.52240413 2.3322616 -0.16872171
-0.60596061 2.3071082 -0.1910834
-0.66775572 2.2111123 -0.20699245
-0.69087839 2.0185444 -0.21189895
-0.45059326 2.0143006 -0.22211735
-0.46322498 1.7668 -0.21391994
-0.50464392 1.6725888 -0.22113872
-0.52613086 1.5384272 -0.2220566
-0.26260951 1.1784881 -0.17493457
-0.2728658 1.0431199 -0.16651239
-0.3267937 1.0846288 -0.18625274
-0.44895557 1.3134375 -0.24207853
-0 0 -0
-0 0 -0
-0.26242456 0.87291771 -0.18452138
-0.3185899 0.93300509 -0.20991914
-0.19257569 0.87129271 -0.19788811
-0.22110665 0.84845829 -0.20305282
-0.25568792 0.8508324 -0.21471833
-0 0 -0
-0 0 -0
-0.20455365 0.78736001 -0.22106808
-0.23190016 0.77240938 -0.2277064
-0.25888288 0.75719947 -0.23491418
-0 0 0
-0.60120928 2.3189008 0.7115106
-0.68383551 2.2779341 0.68122125
-0.75454384 2.2104177 0.64470631
-0 0 0
-0.60185802 2.3239074 0.61457783
-0.69042701 2.3061745 0.59187067
-0.79999769 2.3527031 0.58532214
-0.5090366 2.3193324 0.53926343
-0.612418 2.363322 0.52882683
-0.7116558 2.3804095 0.51338738
-0.7937212 2.3397365 0.48576218
-0.51751018 2.3553884 0.45436329
-0.60888904 2.3522398 0.4327203
-0.68212503 2.2858477 0.40145695
-0.77234668 2.2796052 0.38190293
-0.52351481 2.3837101 0.36726436
-0.60531485 2.3433204 0.33997008
-0.69910651 2.3472383 0.32034802
-0.78063637 2.3108385 0.29577222
-0.51903677 2.3652909 0.27380538
-0.59429556 2.300828 0.24561286
-0.68599004 2.3065841 0.22577985
-0.7700116 2.283066 0.20351054
-0.51426494 2.3453047 0.18314706
-0.60264301 2.3361759 0.16071351
-0.68674368 2.3111846 0.13796513
-0.78068984 2.3172641 0.11625551
-0.52209884 2.3846116 0.09638039
-0.60007256 2.3309205 0.07202445
-0.69706869 2.3502891 0.050409518
-0.78852469 2.3437641 0.02697571
-0.51468939 2.3523421 0.0068504787
-0.60121512 2.3389089 -0.016480407
-0.69135547 2.3344631 -0.039182175
-0.78426939 2.333946 -0.063141659
-0.51913244 2.3786125 -0.082465716
-0.60626751 2.3621547 -0.1055811
-0.68566072 2.3204393 -0.12790804
-0.7814824 2.3275356 -0.15317915
-0.5093562 2.3412714 -0.16914421
-0.58165365 2.2711914 -0.1878095
-0.66602403 2.2552874 -0.21074136
-0.71297348 2.1255813 -0.22267179
-0.44160268 2.0325727 -0.22382921
-0.49911344 1.9524397 -0.2360215
-0.49044135 1.6623323 -0.21938068
-0.52581221 1.5688704 -0.22598082
-0.2591413 1.1974882 -0.17751557
-0.28233543 1.1070204 -0.17643291
-0.31316087 1.0629505 -0.18219672
-0.40240026 1.2012714 -0.22094604
-0 0 -0
-0.24391542 0.9582634 -0.19048816
-0.25623426 0.87169045 -0.18392615
-0.28647712 0.856103 -0.19221763
-0.18722592 0.87245792 -0.19788811
-0.21661611 0.85263169 -0.20372967
-0.24964042 0.84958756 -0.21401358
-0.28921258 0.86327612 -0.2298511
-0.17723887 0.82973015 -0.22195345
-0.20208779 0.79795498 -0.22369048
-0.23311989 0.79413271 -0.23368436
-0.24783039 0.73966789 -0.22899906
-0 0 0
-0.5688836 2.2509832 0.68958735
-0.67607284 2.303303 0.68755436
-0.75105834 2.2451732 0.65348685
-0 0 0
-0 0 0
-0.677082 2.3131635 0.59258693
-0.78431588 2.3538735 0.584405
-0.50129825 2.3529322 0.54635018
-0.57636356 2.2817538 0.50977385
-0.67121011 2.2963731 0.49436551
-0.7613982 2.2905574 0.47457305
-0.50058812 2.3469863 0.45214143
-0.58023375 2.2996106 0.42237568
-0.66753411 2.2880967 0.40112501
-0.75678885 2.2796147 0.3811194
-0.50826019 2.383976 0.36681792
-0.59648621 2.3690774 0.34316948
-0.66390079 2.2800825 0.31062087
-0.76956207 2.3250093 0.296976
-0.50285769 2.3606563 0.27290657
-0.59400916 2.3594131 0.25147301
-0.67015642 2.3050137 0.22521937
-0.77005768 2.3303237 0.20729794
-0.4984116 2.341589 0.18261464
-0.59510946 2.3669243 0.16257453
-0.67254955 2.3153551 0.13796513
-0.75800306 2.2964001 0.11497328
-0.49167067 2.3134885 0.093382068
-0.58527249 2.3326194 0.071964622
-0.68152088 2.3506811 0.050327286
-0.76192051 2.3115208 0.026550295
-0.50294662 2.3681719 0.0068874615
-0.58806747 2.3474038 -0.016514527
-0.66923338 2.311769 -0.03873162
-0.75180304 2.2836411 -0.061654773
-0.5041135 2.3797975 -0.082398005
-0.59345919 2.3726146 -0.10588387
-0.67861444 2.3495469 -0.12928055
-0.75783026 2.3038442 -0.15131111
-0.49724758 2.3550885 -0.16991881
-0.57518953 2.3046992 -0.19028489
-0.65963143 2.2851689 -0.21315135
-0.70022845 2.1308613 -0.22277065
-0.41907158 1.9875734 -0.21858655
-0.4799217 1.9265528 -0.23253179
-0.47803313 1.6576843 -0.21837607
-0.52173948 1.5890117 -0.22841655
-0.25728014 1.2252065 -0.18138708
-0.27958962 1.125037 -0.17902753
-0.29216129 1.0145963 -0.17359796
-0.37659159 1.1475569 -0.21063754
-0.20665231 0.98788065 -0.18456092
-0.22715771 0.91590065 -0.18178661
-0 0 -0
-0.27817199 0.84855056 -0.19013511
-0.18306299 0.87932497 -0.19918716
-0.2111463 0.85299909 -0.20350406
-0.24522765 0.85390604 -0.21471833
-0.28753841 0.87608916 -0.23278847
-0 0 -0
-0.2041229 0.82728708 -0.23155767
-0.22744662 0.79277301 -0.23286919
-0.23849927 0.72658819 -0.22449233
-0 0 0
-0 0 0
-0.65795094 2.2935467 0.683424
-0.73906922 2.2552354 0.65508336
-0 0 0
-0 0 0
-0.65993816 2.3070045 0.58996069
-0.76351553 2.33921 0.57959038
-0 0 0
-0.56188506 2.2833493 0.50935042
-0.67324567 2.3569472 0.5065071
-0.74611413 2.2914543 0.47380137
-0.48577967 2.3480887 0.45177111
-0.56329268 2.2916551 0.42027169
-0.65510428 2.2978396 0.4021208
-0.73820579 2.2701268 0.37876874
-0.4932223 2.385113 0.36652029
-0.58005148 2.3649988 0.34205666
-0.65803868 2.3127244 0.31451175
-0.76293546 2.353296 0.2999855
-0.4893688 2.3685627 0.27346832
-0.57383466 2.339828 0.24900559
-0.66144234 2.3282371 0.22708765
-0.74868727 2.3132 0.20536214
-0.48887286 2.3680396 0.18444003
-0.57226759 2.336611 0.16024823
-0.65723968 2.3155961 0.1377366
-0.75219464 2.3266699 0.11625551
-0.47968501 2.3272269 0.093816034
-0.56952494 2.3303409 0.071785159
-0.66027194 2.33077 0.049813319
-0.76154697 2.3589735 0.02704116
-0.48578376 2.3584809 0.0068504787
-0.57151961 2.3422246 -0.016453108
-0.64551127 2.2821577 -0.038168427
-0.73501581 2.2796481 -0.061424047
-0.48326746 2.3524976 -0.081348568
-0.57486987 2.3597097 -0.10514858
-0.66038823 2.3402116 -0.1285415
-0.73602891 2.2847016 -0.14975442
-0.48378807 2.3629816 -0.1702709
-0.55891842 2.2994676 -0.18956622
-0.64154226 2.2747941 -0.21181247
-0.66610563 2.069757 -0.21595113
-0.44072407 2.1557062 -0.23677537
-0 0 -0
-0.46731469 1.6586765 -0.21812491
-0.51925904 1.6148208 -0.23166418
-0.24659859 1.2112457 -0.17909285
-0.27175137 1.1228889 -0.17841701
-0.29768825 1.0581646 -0.18073657
-0.36532331 1.1367155 -0.20823219
-0.19902287 0.98141748 -0.18312186
-0 0 -0
-0 0 -0
-0.27774367 0.86514157 -0.19346716
-0.17689165 0.87660378 -0.19832113
-0.20385391 0.84575474 -0.20147353
-0.23919588 0.85258704 -0.21401358
-0.27414665 0.85291415 -0.22617935
-0.16951959 0.84417331 -0.22524352
-0.19025168 0.79193008 -0.22133033
-0.21686418 0.77376699 -0.22689122
-0.2352111 0.73169178 -0.22561902
-0 0 0
-0.55060297 2.2969475 0.70154554
-0.63478613 2.2651417 0.6737867
-0.71372944 2.223932 0.64470631
-0 0 0
-0.55469453 2.3166914 0.60986555
-0.637146 2.2801471 0.58208179
-0.74292493 2.3243806 0.57477582
-0.46989718 2.3464768 0.54347122
-0.55150741 2.3019609 0.51273763
-0.63271499 2.2676489 0.48647347
-0.73263609 2.297859 0.47418723
-0.47059023 2.3471713 0.45103052
-0.55815673 2.3324096 0.42710966
-0.64813536 2.3274655 0.4066017
-0.74913388 2.3527241 0.3917757
-0.47974408 2.3939121 0.36741316
-0.56414932 2.3627341 0.34122205
-0.64755261 2.3300931 0.31632748
-0.73076069 2.3021073 0.29288313
-0.47424114 2.368598 0.27313128
-0.56339383 2.3597524 0.25075334
-0.64634544 2.3293736 0.2268074
-0.72815835 2.2978024 0.20359468
-0.47687644 2.3837051 0.18542878
-0.55421722 2.3245494 0.1591848
-0.64488608 2.3263202 0.13813652
-0.73398572 2.3188615 0.11563814
-0.46637493 2.3350258 0.094013296
-0.5619244 2.3619916 0.072652563
-0.65555561 2.3694668 0.050553426
-0.73168916 2.3149762 0.026484849
-0.47756639 2.3927979 0.0069415141
-0.55852371 2.3515248 -0.016494054
-0.63602197 2.3024595 -0.038441978
-0.72853738 2.3079476 -0.062064946
-0.47136 2.3681612 -0.081788652
-0.56268525 2.3729138 -0.1055811
-0.64468998 2.339406 -0.12827756
-0.72529864 2.2996449 -0.15043937
-0.47102663 2.3747115 -0.17090465
-0.54548711 2.305764 -0.18980578
-0.62386984 2.2652442 -0.21056284
-0.64980483 2.0624158 -0.21476512
-0.42613643 2.1515427 -0.23602642
-0.46925321 1.9873949 -0.23916224
-0.45449674 1.6519473 -0.21686916
-0.50606823 1.6075807 -0.23017567
-0.23877892 1.2107941 -0.17880608
-0.26191097 1.1120297 -0.17643291
-0.27367663 0.99622065 -0.16986641
-0.33853239 1.0759748 -0.19672103
-0.18958473 0.96524578 -0.17988394
-0 0 -0
-0 0 -0
-0.26597852 0.84630179 -0.18888558
-0.17001168 0.8700074 -0.19658907
-0.19710335 0.84035033 -0.19989422
-0.2326759 0.84935123 -0.21283895
-0.2665799 0.84718132 -0.2242211
-0.16267481 0.83665061 -0.22296578
-0.19066063 0.81563461 -0.22762407
-0.21693885 0.79271972 -0.23205401
-0.23273335 0.739528 -0.22759071
-0.4462406 2.309587 0.72671962
-0.55609494 2.3843026 0.72717011
-0.64041269 2.3403928 0.69498885
-0.70151484 2.2328677 0.64603674
-0 0 0
-0.56025046 2.4049659 0.63218677
-0.63311154 2.3205504 0.59139323
-0.69958419 2.2359996 0.55184895
-0.45270646 2.3349555 0.54014927
-0.54402864 2.3338561 0.51908863
-0.62882763 2.3083389 0.49436551
-0.71881521 2.3032477 0.47438014
-0.45543033 2.3461559 0.45028993
-0.54963934 2.3607211 0.43166828
-0.62556338 2.3009479 0.40129101
-0.72381043 2.3223886 0.38597742
-0 0 0
-0.54448766 2.3439655 0.33802265
-0.63246435 2.3311517 0.31593838
-0.72958136 2.3482611 0.29817984
-0.45969877 2.3714633 0.27313128
-0.54620343 2.3515379 0.24951963
-0.64739901 2.3899944 0.23231879
-0.70341903 2.2679651 0.20056476
-0.45977655 2.3738604 0.18444003
-0.53971809 2.3269341 0.15911832
-0.62929589 2.3254147 0.13785087
-0.71797013 2.3175967 0.1153532
-0.46228212 2.39082 0.096143678
-0.54291356 2.3459187 0.072054356
-0.63240212 2.3415928 0.049874995
-0.72072142 2.3299301 0.026604837
-0.45642558 2.3623009 0.0068447883
-0.54340917 2.3519845 -0.016473582
-0.62500602 2.3179033 -0.038635071
-0.70344484 2.2770345 -0.061116412
-0.45833299 2.3788598 -0.082059473
-0.54070473 2.3441961 -0.10415375
-0.63136107 2.3471749 -0.1284887
-0.72530395 2.3498278 -0.15342823
-0.45832753 2.3873532 -0.17160884
-0.52797598 2.2944963 -0.18860804
-0.61409581 2.2844193 -0.21199098
-0.65824872 2.134831 -0.22188114
-0.41554734 2.1677876 -0.23752432
-0.4759455 2.0725181 -0.2490498
-0.44203633 1.6460817 -0.21573897
-0.49911186 1.6201243 -0.23152885
-0.23357138 1.2239019 -0.18052675
-0.26324719 1.1492593 -0.18207999
-0.27854735 1.0388639 -0.17684278
-0.29887649 0.97069931 -0.17713483
-0.18604609 0.97895396 -0.18222244
-0 0 -0
-0 0 -0
-0.27055639 0.8797031 -0.19596618
-0.16902274 0.8940571 -0.20178525
-0.19627616 0.86054033 -0.2044065
-0.22520046 0.84231162 -0.21072465
-0.26508617 0.86084735 -0.22740325
-0.15485591 0.82337141 -0.21916954
-0.18394132 0.80926114 -0.22552615
-0.20685589 0.77451044 -0.22634777
-0 0 -0
-0.43399125 2.3226128 0.72996652
-0.53000653 2.3371866 0.71179527
-0.61934334 2.319201 0.68755436
-0.68950069 2.2426584 0.64763314
-0 0 0
-0 0 0
-0.61461359 2.3084385 0.58733433
-0.68955541 2.2523494 0.55482942
-0.4437629 2.3664432 0.54679316
-0.52840191 2.3314314 0.51781839
-0.61389732 2.3093145 0.49375844
-0.71326625 2.335768 0.4801676
-0 0 0
-0.52688408 2.3275609 0.42500564
-0.6121918 2.3076022 0.40178886
-0.69715935 2.2861643 0.37923887
-0.45160773 2.4064221 0.36845481
-0.53598499 2.373343 0.34177846
-0.61891001 2.3378642 0.31632748
-0.71025068 2.3365464 0.29613337
-0.44550529 2.3761926 0.27335596
-0.52453393 2.3228264 0.24612691
-0.61720294 2.3352046 0.22662057
-0.70656067 2.328496 0.20553048
-0.43969452 2.3472352 0.18215831
-0.52718604 2.3379889 0.15965006
-0.62623006 2.3717046 0.14036451
-0.70257723 2.3181348 0.11516324
-0.4446649 2.3778965 0.09551245
-0.52434063 2.3306775 0.071486056
-0.6139465 2.3299603 0.049546059
-0.71683842 2.3687632 0.026997527
-0.44137114 2.362108 0.0068362537
-0.53291172 2.3728368 -0.016596418
-0.61713147 2.3458691 -0.039037354
-0.70044971 2.3176713 -0.062090583
-0.44354492 2.3806448 -0.082025625
-0.52784085 2.3542938 -0.10445652
-0.6164403 2.3490729 -0.12838313
-0.70683295 2.3408575 -0.15255646
-0.44603711 2.4028704 -0.17252427
-0.51802099 2.3161752 -0.19012518
-0.59905672 2.2842906 -0.21163395
-0.64887303 2.1512148 -0.22316597
-0.41256601 2.2260203 -0.24362293
-0.37602806 1.6847475 -0.20217121
-0.43293354 1.6526018 -0.21624129
-0.49287817 1.635489 -0.23328799
-0.2251595 1.2204458 -0.17980979
-0.25640523 1.1518176 -0.1822326
-0.28764886 1.0997409 -0.18690172
-0.30740422 1.0206219 -0.18589707
-0.17968039 0.97814214 -0.18186268
-0 0 -0
-0 0 -0
-0.26064509 0.86636096 -0.19263415
-0 0 -0
-0.19204633 0.86648422 -0.20553458
-0.22199024 0.85120201 -0.21260403
-0.25616363 0.85038888 -0.2242211
-0.15274154 0.84048754 -0.22347194
-0.18375878 0.83204734 -0.23155767
-0.20282753 0.77855897 -0.22716294
-0 0 -0
-0.42499334 2.3543797 0.73911697
-0.51813102 2.3516285 0.71521193
-0.60800928 2.334121 0.69085854
-0.68627656 2.281925 0.65774411
-0 0 0
-0.51195788 2.3265092 0.60986555
-0.59409165 2.2877288 0.58112675
-0.69024193 2.3050258 0.56675136
-0.42784357 2.3614452 0.54502147
-0.51261538 2.3279483 0.5163365
-0.60782701 2.3443205 0.50043631
-0.68347657 2.2883906 0.46955723
-0.42537722 2.3447995 0.44899386
-0.51111227 2.3240192 0.42377833
-0.59431595 2.2969949 0.39929947
-0.69751495 2.3386679 0.38723111
-0 0 0
-0.52374679 2.3872271 0.34330863
-0.60777581 2.3540988 0.31801352
-0.68797976 2.3142166 0.29276276
-0.42152986 2.3270602 0.26740125
-0.51986307 2.3697228 0.25075334
-0.61329985 2.3794405 0.23054394
-0.68885821 2.3213241 0.20452049
-0.42776987 2.3636253 0.18322311
-0.51197642 2.3372808 0.15938418
-0.60245472 2.3397298 0.13825077
-0.68323082 2.3051634 0.11430842
-0.43166479 2.3894298 0.095867522
-0.50832278 2.3260388 0.071246773
-0.599141 2.3317471 0.049504947
-0.70229048 2.3731172 0.026997527
-0.42686921 2.3647718 0.0068362537
-0.52026045 2.384855 -0.016657835
-0.60048985 2.3408949 -0.03889253
-0.68196565 2.3075452 -0.06170604
-0.4260968 2.3675835 -0.081483975
-0.51593614 2.3692021 -0.10497555
-0.60325271 2.3576481 -0.12864707
-0.68878216 2.3327069 -0.15174699
-0.43550983 2.429127 -0.17421432
-0.50485742 2.3241808 -0.19052444
-0.57861394 2.2628343 -0.2093132
-0.63031238 2.1370211 -0.22128813
-0.40275368 2.2500412 -0.24597675
-0.4452166 2.053936 -0.2461417
-0.42720455 1.6725291 -0.21850164
-0.48031312 1.6299288 -0.23207012
-0.33882415 1.9018836 -0.27989531
-0.25016829 1.1572331 -0.1828431
-0.27748188 1.088099 -0.18463033
-0.32173127 1.0924188 -0.19861092
-0.17573667 0.99084902 -0.18402128
-0 0 -0
-0.23629843 0.92897451 -0.19404507
-0.25504825 0.86700559 -0.19242589
-0 0 -0
-0.18672606 0.86764628 -0.20553458
-0.21436802 0.84312773 -0.21025482
-0.25066695 0.85101455 -0.2239763
-0 0 -0
-0.17298497 0.80673969 -0.22421496
-0.19662519 0.77419227 -0.22553259
-0.22450446 0.76209474 -0.23322415
-0.39873448 2.2891715 0.71786439
-0 0 0
-0.59320271 2.3359442 0.69030786
-0.66627908 2.2657473 0.6518904
-0 0 0
-0.51285219 2.4006603 0.62846655
-0.57551539 2.2734449 0.57659048
-0.67526507 2.3064151 0.56606358
-0.40830719 2.3352082 0.53837758
-0.50649422 2.3692794 0.52480453
-0.57903326 2.2910388 0.48829472
-0.67437297 2.3094952 0.47302973
-0.4145408 2.3676929 0.45288205
-0.50115955 2.3473308 0.42746034
-0.58431023 2.3168535 0.4021208
-0.68259907 2.3410072 0.38691768
-0.41283876 2.3591835 0.36041906
-0.49836278 2.3400309 0.33607522
-0.59573966 2.3673995 0.31931049
-0.66517866 2.2888424 0.28903097
-0.41220555 2.3579888 0.27065951
-0.50241244 2.3592479 0.24931403
-0.5863167 2.3339121 0.22577985
-0.67932129 2.3417761 0.2059513
-0.41274422 2.3632586 0.18299493
-0.50219089 2.3618495 0.16084643
-0.5885731 2.345319 0.13836503
-0.67574507 2.3323383 0.11544818
-0.41510779 2.3812056 0.095433556
-0.49694458 2.3428032 0.071665518
-0.58385086 2.3314998 0.049422707
-0.68049157 2.3524072 0.026713917
-0.41235122 2.3673465 0.0068362537
-0 0 -0
-0.5868426 2.3474455 -0.038940806
-0.66030318 2.2857554 -0.06101387
-0 0 -0
-0 0 -0
