# .PCD v0.7 - Point Cloud Data file format
VERSION 0.7
FIELDS x y z
SIZE 4 4 4
TYPE F F F
COUNT 1 1 1
WIDTH 1488
HEIGHT 1
VIEWPOINT 0 0 0 1 0 0 0
POINTS 1488
DATA ascii
8.3480339 -2.2420423 1.3715284
8.5387745 -3.3399928 1.3797711
8.4610357 -2.9574187 1.2590301
8.3995838 -2.5943635 1.1498808
7.8560524 -2.117409 0.98662966
8.027236 -3.1415169 0.9746663
7.9428964 -2.7764668 0.86966896
7.9080009 -2.446007 0.77663785
7.8488889 -2.1195931 0.6867007
8.0219946 -3.140919 0.65713888
7.9779782 -2.7915428 0.56302899
7.9291601 -2.4546745 0.47496563
7.8585668 -2.1250029 0.38704348
8.0417671 -3.1515746 0.34102011
7.9765639 -2.795424 0.25292304
7.9325228 -2.4601161 0.17077972
7.8612576 -2.1292646 0.088846408
8.0512848 -3.1566012 0.024602549
7.9893022 -2.8031764 -0.05778037
7.9321837 -2.4635019 -0.13366994
7.8728333 -2.1354976 -0.20919041
8.0357466 -3.1553645 -0.29242152
1.5929921 -0.55958295 -0.073097937
7.9502034 -2.4744241 -0.44015566
7.8856235 -2.1410356 -0.50978768
1.5724714 -0.61866015 -0.11928821
1.5834585 -0.55716562 -0.13446906
8.0584688 -2.5095093 -0.75638378
7.8145862 -2.124238 -0.80430675
1.5643883 -0.6159845 -0.18092506
1.5896823 -0.56013525 -0.19740191
1.6025606 -0.49951795 -0.212474
0 -0 -0
1.5649424 -0.61768591 -0.24376129
1.5721657 -0.55495042 -0.25747606
2.9680398 -0.92638814 -0.51122165
0 -0 -0
1.6199614 -0.64084035 -0.31857446
3.9031661 -1.3798265 -0.79751545
3.7903476 -1.1855893 -0.80395764
1.5862626 -0.43241277 -0.35007352
1.6007999 -0.63503802 -0.38191971
1.6282595 -0.57644504 -0.40001407
1.7050405 -0.53351855 -0.43178588
2.8711517 -0.78159499 -0.75123858
1.5281857 -0.60789955 -0.43024042
1.4714681 -0.52217996 -0.42430386
1.4069669 -0.44065377 -0.41628426
1.3526354 -0.36816844 -0.41152233
5.7359228 -2.2895401 1.9080079
6.0084395 -2.1355884 1.8939451
6.3501997 -1.9890355 1.9059876
6.6336288 -1.8090091 1.8979324
6.6857629 -2.6638074 1.9215379
7.0635977 -2.5127079 1.9193776
7.4710317 -2.3462656 1.9253106
7.8236837 -2.1435194 1.9107225
7.9675431 -3.1743457 1.9477706
8.446084 -3.0031662 1.9417133
8.4153404 -2.6463745 1.822859
8.3412943 -2.2917516 1.7007463
8.5439062 -3.4017284 1.7326535
8.4507151 -3.0073051 1.5974531
8.398303 -2.6456885 1.4818559
8.340786 -2.2950568 1.3726254
8.5622177 -3.4098845 1.386914
8.4716473 -3.0195858 1.2633424
8.4260588 -2.6592827 1.1557171
7.8553529 -2.169008 0.98819464
8.0456562 -3.2057922 0.97927278
7.9781799 -2.8438542 0.87542629
7.9108815 -2.5001843 0.7784127
7.8626261 -2.1751523 0.68905735
8.0322113 -3.2018971 0.65957278
7.983254 -2.8484898 0.56462419
7.932035 -2.5090015 0.47605106
7.8569317 -2.1763821 0.38761336
8.0529041 -3.2130785 0.34232199
7.9837341 -2.8530602 0.2537007
7.9296689 -2.5126691 0.17104699
7.8721328 -2.1841438 0.089119107
8.0549822 -3.2152114 0.024673671
7.9964318 -2.8609035 -0.057957798
7.9302616 -2.5163603 -0.13389522
7.8807712 -2.1896515 -0.20975439
8.0450029 -3.2161124 -0.29347098
1.5791826 -0.56564111 -0.07262215
7.9500976 -2.5280008 -0.44100025
7.9040694 -2.1982055 -0.51184255
1.5510517 -0.62124997 -0.11795027
1.5922072 -0.5712471 -0.13550711
1.588842 -0.50550056 -0.14942017
7.801405 -2.1721473 -0.80430675
1.5642706 -0.62705153 -0.18135302
1.5796726 -0.56752807 -0.19658765
1.5966297 -0.50843865 -0.21209729
0 -0 -0
1.5647962 -0.62875259 -0.24433485
1.6208051 -0.58332807 -0.26602298
2.9472578 -0.9397859 -0.50862581
2.9283819 -0.81661695 -0.53020185
1.6013993 -0.64488888 -0.31569636
3.8863122 -1.4007534 -0.79581296
3.7839351 -1.2091224 -0.80415601
2.8534575 -0.79668957 -0.6307987
1.6013995 -0.64667618 -0.38300225
1.6256082 -0.58675575 -0.40023968
1.6165555 -0.51674235 -0.41017309
1.5335509 -0.42759269 -0.40193343
1.5172532 -0.61436003 -0.42821577
1.4791257 -0.53513861 -0.42745075
1.4134027 -0.45221108 -0.41900152
1.3651392 -0.38058391 -0.41602907
5.723537 -2.3254111 1.9085982
6.0186558 -2.1809063 1.9013478
6.3250575 -2.0238605 1.9021326
6.6354022 -1.8533086 1.9016575
6.6621299 -2.7018757 1.9194742
7.042583 -2.5540204 1.9178895
7.4472489 -2.3890965 1.9229233
7.8862944 -2.2127836 1.9292932
7.925324 -3.2140121 1.9422342
8.430254 -3.055933 1.9423482
8.4231863 -2.7057476 1.8281204
8.3582449 -2.3516595 1.7071126
8.5583916 -3.4684837 1.7398742
8.4635706 -3.0705171 1.6034145
8.3988075 -2.7026069 1.484843
8.3674231 -2.3577094 1.3793639
8.5594616 -3.4697869 1.3898902
8.4818125 -3.0819943 1.2676545
8.4397821 -2.7206693 1.1598674
7.8686438 -2.2247293 0.99156529
8.0553007 -3.2670498 0.98286808
7.9830174 -2.9009073 0.87789375
7.9181314 -2.5560179 0.78065461
7.85776 -2.2257996 0.68981481
8.0336637 -3.2597442 0.66132212
7.9759398 -2.9011722 0.56535524
7.9345412 -2.5634561 0.47713652
7.8741803 -2.2332716 0.38913301
8.0654411 -3.2755895 0.34370282
8.0102186 -2.9180741 0.25510651
7.9416866 -2.5702045 0.17164317
7.8912873 -2.2416954 0.089489989
8.0712347 -3.2792554 0.024784621
8.00879 -2.9208789 -0.058176175
7.9441586 -2.574528 -0.13439405
7.9123788 -2.2508214 -0.21095929
8.0399294 -3.2714417 -0.29401261
1.5897591 -0.58045995 -0.073270947
7.8556056 -2.5511336 -0.4366188
7.900032 -2.2493958 -0.51246524
1.5730745 -0.64129931 -0.11992197
1.5783744 -0.57723987 -0.13462876
1.5838159 -0.51462442 -0.14924166
7.8491769 -2.2374337 -0.81063211
1.5521084 -0.63325757 -0.18039009
1.5789585 -0.57823473 -0.19693662
1.610462 -0.52374864 -0.21435764
1.5739924 -0.44908759 -0.2235451
1.5654889 -0.64021522 -0.24505179
1.6060616 -0.58917773 -0.26419151
3.0071139 -0.97923964 -0.51998264
2.9289997 -0.83619243 -0.53123266
1.610155 -0.6599254 -0.31821471
3.8748789 -1.423557 -0.79524547
3.8183744 -1.2459997 -0.81308448
2.9246891 -0.83595556 -0.64766723
1.5946925 -0.65537667 -0.38235274
1.6201488 -0.59604651 -0.39978844
1.6115063 -0.52604836 -0.40970325
1.5560714 -0.44417998 -0.40854254
1.515244 -0.62439543 -0.42872196
1.4839629 -0.54720908 -0.42981088
1.4471928 -0.4728303 -0.42987055
1.3590876 -0.38789973 -0.41490236
5.6967993 -2.3553753 1.9044658
5.9916716 -2.2128134 1.8970768
6.3033819 -2.0596464 1.899379
6.6526365 -1.9022028 1.9099059
6.6230989 -2.7334878 1.9130251
7.0095143 -2.5908034 1.9131771
7.3899989 -2.420841 1.9119405
7.8641491 -2.2587132 1.9272298
7.9000459 -3.2603486 1.9409055
8.4287634 -3.1140378 1.9463706
8.417592 -2.7610431 1.8305488
8.3521452 -2.4053447 1.708849
8.5705624 -3.534795 1.7467248
8.5018225 -3.1435595 1.6142851
8.4279728 -2.7691734 1.4929751
8.3822165 -2.417491 1.3842219
8.5892029 -3.54336 1.3982236
8.4961729 -3.1463599 1.2726622
8.4361153 -2.7767439 1.1616832
7.8786845 -2.2798669 0.99457473
8.069088 -3.3304417 0.9870252
7.9921188 -2.9598536 0.88087529
7.9278302 -2.6129696 0.78317684
7.8525681 -2.276469 0.69057226
8.0752592 -3.3344738 0.66641796
7.9832487 -2.9594209 0.56714982
7.9376254 -2.6183484 0.47827911
7.8871884 -2.289341 0.39046273
8.0627356 -3.3322675 0.34445238
8.0137157 -2.9751704 0.25579444
7.9523482 -2.6276686 0.17221883
7.8975477 -2.2959352 0.089719057
8.0796089 -3.3405621 0.024872812
8.0178995 -2.9800682 -0.058374081
7.9794717 -2.6401844 -0.13526298
7.9195356 -2.3054757 -0.21152329
8.052947 -3.3344769 -0.29523131
1.5711861 -0.58462906 -0.0725789
1.6028422 -0.53142226 -0.089266397
7.9138699 -2.3059239 -0.51427102
1.5580534 -0.64635271 -0.11907696
1.5841432 -0.59039485 -0.13542727
1.5938634 -0.52872324 -0.15049128
7.8687358 -2.2953062 -0.81409127
1.5454388 -0.64162546 -0.18006912
1.5716587 -0.58652312 -0.19647133
1.5912116 -0.52830601 -0.21222286
1.5883269 -0.46373531 -0.22598082
1.552394 -0.64600658 -0.24361791
1.5764961 -0.58933169 -0.25991803
2.9944942 -0.99549353 -0.51884699
2.9606922 -0.86492217 -0.53793317
1.6051676 -0.6694141 -0.31803483
4.0086122 -1.5006678 -0.82456589
3.7344069 -1.244005 -0.79681492
2.9213822 -0.85443455 -0.64808375
1.5951446 -0.66703242 -0.38343528
1.6109877 -0.60392445 -0.39843476
1.6202363 -0.53992134 -0.41275722
1.5626236 -0.45643803 -0.41099042
1.5176296 -0.63629955 -0.43049353
1.4923209 -0.56071663 -0.43322
1.4205281 -0.47378454 -0.4228057
1.3704973 -0.40026656 -0.41912743
5.6575804 -2.3799129 1.8962009
5.9510655 -2.2394075 1.8885354
6.2742105 -2.092809 1.8944227
6.6380639 -1.9421748 1.9091076
6.6133285 -2.7770674 1.9150889
6.9952989 -2.6344471 1.9136733
7.3943458 -2.4726067 1.9169543
7.8351998 -2.3025331 1.9235615
7.88169 -3.309516 1.9413483
8.3948631 -3.160188 1.9429834
8.4255648 -2.8210351 1.8360124
8.357935 -2.4626482 1.7130929
8.5813332 -3.6010056 1.7533904
8.5109339 -3.2064264 1.6197205
8.4444809 -2.8321228 1.4989496
8.3757505 -2.4713933 1.3856323
8.5946531 -3.6074772 1.4026879
8.5128422 -3.2120664 1.2780874
8.4433575 -2.8366649 1.1650553
7.8902488 -2.3357751 0.99782503
8.0860624 -3.395664 0.99163163
7.9942808 -3.0165622 0.88313705
7.9286337 -2.6672788 0.78485823
7.8747544 -2.3353746 0.69377053
8.0803871 -3.3947737 0.66854751
8.0274792 -3.031971 0.571603
7.9497952 -2.6765602 0.47999296
7.8978891 -2.3450851 0.39169747
8.0854301 -3.3998811 0.34630665
8.0065279 -3.0285294 0.25615337
7.9502854 -2.681206 0.17252719
7.9178162 -2.3546114 0.090111747
8.1050472 -3.4094622 0.025015056
8.03687 -3.0433741 -0.058647048
7.9811206 -2.695174 -0.13556871
7.9234443 -2.3594465 -0.21201037
8.0553608 -3.3935263 -0.29607764
1.5685035 -0.59461284 -0.07262215
1.5834706 -0.53580582 -0.088368982
7.9340043 -2.3647017 -0.51651263
1.5678433 -0.66171873 -0.12013323
1.5665125 -0.5947963 -0.1342295
1.5877589 -0.53753483 -0.15022351
7.8659468 -2.3469589 -0.81527728
1.5469682 -0.65341723 -0.18071108
1.5689586 -0.59650856 -0.19658765
1.5898192 -0.53869635 -0.212474
1.6167809 -0.48282841 -0.23044631
1.5538691 -0.65783465 -0.24447823
1.5894748 -0.60532492 -0.26266527
2.9901984 -1.0144826 -0.51917142
2.9694879 -0.88730299 -0.54051036
1.6019354 -0.67963481 -0.31821471
1.6267056 -0.62038159 -0.3353878
3.8362033 -1.3041199 -0.82022732
3.5579605 -1.0643603 -0.79073709
1.5919201 -0.67718965 -0.38365179
1.6045214 -0.6127553 -0.39775792
1.6187334 -0.55047864 -0.41322708
1.5393555 -0.45991126 -0.40560517
1.5154765 -0.64635861 -0.4309997
1.487951 -0.56951779 -0.43295777
1.4494809 -0.49334475 -0.43231609
1.3680155 -0.40866825 -0.41912743
5.6551685 -2.4198444 1.9003333
5.9569049 -2.2834289 1.8947991
6.2758121 -2.136224 1.8988284
6.6260219 -1.9828686 1.9091076
6.589056 -2.8145578 1.9130251
6.9889517 -2.6811366 1.9164014
7.420392 -2.5320432 1.9276983
7.8209243 -2.3505657 1.9235615
7.8666153 -3.3601129 1.942677
8.3570633 -3.2046397 1.9387493
8.4368248 -2.8824956 1.8422855
8.3623962 -2.5198302 1.7171441
8.5997486 -3.6709533 1.7617222
8.521431 -3.2702284 1.6255065
8.4521351 -2.8925047 1.5034305
8.3698845 -2.5255926 1.3871994
8.6050959 -3.674124 1.4080452
8.5096111 -3.2706347 1.2805911
8.4454899 -2.8951714 1.1677788
7.8890705 -2.3881717 0.99951029
8.0924883 -3.4569256 0.99500221
8.0118322 -3.0794759 0.88714665
7.9375443 -2.7246053 0.7873804
7.9022341 -2.396373 0.69747382
8.0942469 -3.4591801 0.67143774
8.0403872 -3.0933511 0.57386285
7.9606047 -2.7346954 0.4816497
7.9301848 -2.4077208 0.39402446
8.1002455 -3.4647539 0.34784526
8.0493546 -3.1013174 0.25812745
7.9828444 -2.7468534 0.17359623
7.9213967 -2.4086771 0.090319008
8.1133947 -3.4717185 0.025106093
8.0516319 -3.1055849 -0.058892712
7.980504 -2.7496316 -0.13584226
7.9231634 -2.4123871 -0.21239492
8.1023664 -3.4720197 -0.29858276
1.5722814 -0.60710472 -0.072968177
1.5999758 -0.55235505 -0.089477554
7.9346218 -2.4179945 -0.51750892
1.56742 -0.67290038 -0.1204149
1.5749195 -0.6090712 -0.13526757
1.6004351 -0.55279499 -0.15174091
7.8523493 -2.3954694 -0.81537604
1.5383623 -0.66093457 -0.18017611
1.5708262 -0.60827619 -0.19728559
1.5986732 -0.55265492 -0.21410649
7.7401171 -2.3632987 -1.1052762
1.5616201 -0.672445 -0.24634229
1.5820451 -0.61363685 -0.26205477
3.0053642 -1.0402344 -0.52290297
2.9875414 -0.9127025 -0.54480559
1.5859936 -0.68438464 -0.31587622
1.6237837 -0.63070667 -0.33557695
3.6910796 -1.2801037 -0.79086262
3.5878396 -1.0973278 -0.798859
1.582359 -0.68461871 -0.38235274
1.5934677 -0.61976379 -0.395953
1.6189986 -0.56167501 -0.41416678
1.5439228 -0.47161394 -0.40756342
1.5221324 -0.66026515 -0.43403667
1.4871259 -0.57968843 -0.43374449
1.4536996 -0.50475466 -0.43448991
1.3856709 -0.42322069 -0.42532423
5.647223 -2.4575484 1.9026947
5.9624276 -2.327606 1.9010631
6.2989125 -2.1873057 1.9098425
6.6082001 -2.0217957 1.9075111
6.5849543 -2.860709 1.9168946
6.9750762 -2.7250273 1.9171455
7.3689494 -2.5650761 1.9183869
7.8063545 -2.3985097 1.9235615
7.84585 -3.4083183 1.942677
8.3654642 -3.2668786 1.945312
8.4568949 -2.9474232 1.8505824
8.3777227 -2.5806255 1.7235104
8.6059074 -3.7361746 1.7676473
8.5277967 -3.3328459 1.630591
8.4612284 -2.953737 1.5082433
8.3910379 -2.5882552 1.3933111
8.6232071 -3.7445791 1.4147416
8.5281134 -3.3379464 1.2864335
8.4678144 -2.9610109 1.1733558
7.902719 -2.4453366 1.0031216
8.1084919 -3.5227492 0.99960876
8.0094585 -3.1351035 0.8889972
7.9563847 -2.7857602 0.79093003
7.912128 -2.4524856 0.69966215
8.1048765 -3.5226917 0.6740998
8.0370483 -3.1488152 0.57499272
7.9907842 -2.7999966 0.48450607
7.9257565 -2.4595912 0.3945469
8.1246481 -3.5343206 0.34981784
8.0543661 -3.1601412 0.25890514
7.9837637 -2.8020744 0.17398685
7.9217463 -2.4619849 0.09049353
8.1084452 -3.5286183 0.025157301
8.0612783 -3.1662631 -0.059104264
7.9870648 -2.8068347 -0.13624454
7.9463925 -2.4728389 -0.21342036
8.0937366 -3.5272593 -0.29905671
1.5573694 -0.61235362 -0.07244914
1.580544 -0.55652374 -0.088580139
7.940599 -2.4731643 -0.51887882
1.5532056 -0.67811483 -0.11964031
1.5526029 -0.61141831 -0.13367054
1.5904372 -0.56028807 -0.1511161
7.837503 -2.4436054 -0.81537604
1.5206114 -0.66439015 -0.17857121
1.5670643 -0.61790317 -0.19728559
1.5840245 -0.55849516 -0.21259959
1.6097883 -0.50233728 -0.23031098
1.5583713 -0.68241125 -0.24648568
1.5782501 -0.6233325 -0.26205477
2.995203 -1.0573416 -0.52225405
2.9988112 -0.93630135 -0.54789811
1.5844669 -0.69528908 -0.31641588
1.6144044 -0.63849133 -0.33444196
3.7441409 -1.324298 -0.80395764
3.5959756 -1.1239904 -0.80219108
1.5781283 -0.69431502 -0.38235274
1.5914465 -0.63024682 -0.39640424
1.6146054 -0.57127422 -0.41393185
1.5558084 -0.48570138 -0.41147995
1.5118564 -0.66685933 -0.4322651
1.4934074 -0.59271818 -0.43662915
1.455111 -0.51527113 -0.43584853
1.3848798 -0.43228683 -0.42588758
5.6320372 -2.4921527 1.9026947
5.9275446 -2.3560033 1.8945144
6.2636237 -2.2182117 1.903234
6.5938301 -2.0617294 1.906979
6.5725799 -2.9034021 1.9184422
6.9456224 -2.7627614 1.9136733
7.3512406 -2.6095929 1.9179093
7.7942767 -2.4472382 1.9242494
7.822113 -3.4552133 1.9420125
8.341629 -3.3167024 1.9444653
8.4423418 -3.0005701 1.8513918
8.4085283 -2.6467121 1.7331562
8.632266 -3.8107367 1.7778305
8.5373726 -3.3971205 1.636377
8.4568815 -3.0105596 1.5107329
8.4060831 -2.6494904 1.3984826
8.62992 -3.810601 1.4196523
8.5497885 -3.4070742 1.2928324
8.4952497 -3.0292311 1.1797109
7.9159632 -2.502759 1.0067332
8.1167183 -3.5856862 1.0033164
8.0316525 -3.2007606 0.89362365
7.9822745 -2.8499269 0.79522711
7.8969307 -2.5009873 0.69966215
8.1159401 -3.5868661 0.67683786
8.0342588 -3.2047246 0.57618916
7.9941373 -2.8563647 0.48576289
7.9390802 -2.5172331 0.39597157
8.1265678 -3.5946152 0.35084358
8.06917 -3.2232215 0.26001185
8.0144272 -2.8681898 0.17503533
7.9446125 -2.5226502 0.090929858
8.152482 -3.6074388 0.02536213
8.0825529 -3.2320032 -0.05940453
7.9998131 -2.8665829 -0.13675947
7.9691772 -2.5336659 -0.21444581
0 -0 -0
1.5656404 -0.62672466 -0.073011428
1.5817988 -0.56789845 -0.088844083
7.9252748 -2.5218403 -0.51887882
1.5335163 -0.68075198 -0.11844319
1.5673267 -0.62835199 -0.13526757
1.5879068 -0.570373 -0.15120536
1.6033472 -0.51071262 -0.1671274
1.5155976 -0.67330432 -0.17846422
1.5623217 -0.62713683 -0.19716927
1.5833687 -0.56921095 -0.21297631
1.6047877 -0.51160342 -0.23004036
1.5523466 -0.69115531 -0.24619891
1.5716448 -0.6318987 -0.26159692
2.9115982 -1.0479636 -0.50878805
2.9601607 -0.94420618 -0.54188478
1.5792726 -0.70459735 -0.31623599
1.6068127 -0.64691818 -0.33368531
3.7672925 -1.3585514 -0.81070358
3.5489471 -1.1332406 -0.7932362
1.5684913 -0.7015934 -0.38105372
1.5884531 -0.64036417 -0.39662987
1.6083267 -0.58018094 -0.41322708
1.5481802 -0.49376544 -0.41025606
1.5103844 -0.67731094 -0.43302435
1.4933213 -0.60331631 -0.43767807
1.4645946 -0.52876502 -0.43965268
1.392257 -0.44398287 -0.42898598
5.5974703 -2.5180399 1.8962009
5.9138651 -2.3926892 1.8947991
6.2381406 -2.2523587 1.8996544
6.586565 -2.1039095 1.9085754
6.5519977 -2.9424887 1.9176685
6.9393144 -2.8096898 1.9166493
7.3588309 -2.6632423 1.9241168
7.7550159 -2.487288 1.9182884
7.800765 -3.5031438 1.9420125
8.3030014 -3.3604896 1.9402312
8.4504728 -3.0619898 1.8572602
8.4126806 -2.7048635 1.7374004
8.6401005 -3.8777146 1.7843107
8.5446558 -3.4608984 1.6418123
8.4799633 -3.0775321 1.518201
8.4178715 -2.7100992 1.4031838
8.6442661 -3.8804905 1.4259024
8.5626745 -3.473243 1.2979791
8.4932766 -3.0873973 1.1820453
7.9155722 -2.5561643 1.0086591
8.1262894 -3.6496704 1.0072488
8.049654 -3.265312 0.89783889
7.9805427 -2.9046404 0.79681516
7.9212556 -2.5622752 0.70319706
8.1156073 -3.6464047 0.67866325
8.0421782 -3.2652221 0.57818311
7.9858413 -2.9087791 0.4863342
7.9386897 -2.5708227 0.39673141
8.1481018 -3.6640818 0.35273722
8.0649805 -3.279072 0.26052031
8.0164022 -2.9245074 0.17546707
7.9508615 -2.5784445 0.091180742
8.1493464 -3.6660094 0.025421875
8.0773888 -3.2875674 -0.059513718
8.0093098 -2.9255636 -0.13722612
7.962038 -2.5852947 -0.21467653
1.588281 -0.71549344 -0.059005637
1.5543636 -0.6333037 -0.072665401
1.57172 -0.5751912 -0.088474564
1.5974972 -0.5191431 -0.10479696
1.5365841 -0.69343114 -0.11900654
1.5597498 -0.63645071 -0.13494816
1.5890536 -0.58181769 -0.15165167
1.6049149 -0.52208012 -0.16762157
1.5087193 -0.68136346 -0.17814323
1.5602831 -0.63746256 -0.19740191
1.5789146 -0.57857424 -0.21285073
1.5931393 -0.51868004 -0.2288225
1.5480765 -0.70066732 -0.24619891
1.5759699 -0.64489883 -0.26297051
1.6211569 -0.59475958 -0.2839219
2.9664884 -0.96631819 -0.54411829
1.5641692 -0.70939869 -0.31407738
1.6037217 -0.65713757 -0.33387446
3.7754447 -1.3877281 -0.81427497
3.610738 -1.177434 -0.80864686
1.5694892 -0.71362883 -0.38235274
1.5844939 -0.65009868 -0.39662987
1.6029118 -0.58936769 -0.41275722
1.5441995 -0.50295532 -0.41001126
1.5053197 -0.68616444 -0.43277127
1.4815588 -0.60916513 -0.43531793
1.4712574 -0.54139751 -0.44264168
1.3922435 -0.45340857 -0.42983097
5.598424 -2.5598869 1.9018092
5.8848901 -2.4230914 1.8902438
6.2088661 -2.2849483 1.8949735
6.5891113 -2.1493664 1.9130988
6.5285459 -2.9802282 1.9161208
6.9309011 -2.8559065 1.9191296
7.3523736 -2.7120421 1.9267433
7.7710581 -2.5451252 1.9260833
7.7764626 -3.5497279 1.9413483
8.276804 -3.4091396 1.9389611
8.4535742 -3.1219258 1.8621169
8.4192314 -2.7640834 1.7422233
8.6429672 -3.9428926 1.7898655
8.5742311 -3.5342727 1.6516309
8.4997654 -3.1438742 1.5251713
8.4479971 -2.7771211 1.4110194
8.6625757 -3.9527514 1.4328965
8.5833092 -3.5430984 1.304378
8.5085754 -3.1521981 1.186844
7.9176521 -2.6105917 1.0109464
8.1362848 -3.7143195 1.0112935
8.0754375 -3.3336196 0.90297931
7.9952416 -2.9656725 0.80008459
7.9186316 -2.6152055 0.70437533
8.1293602 -3.7127016 0.68170553
8.0727119 -3.3354628 0.58183873
8.0155764 -2.9754436 0.48924774
7.9436307 -2.6263838 0.39777622
8.146369 -3.723563 0.35364464
8.0733414 -3.3403428 0.26144752
8.0236092 -2.9830468 0.17602214
7.9662161 -2.6375532 0.091540709
8.1567097 -3.7296665 0.025515756
8.0810852 -3.3470163 -0.059691146
8.0183821 -2.9847679 -0.13769275
7.960258 -2.6388183 -0.21506105
1.6083958 -0.73645961 -0.05991967
1.5439883 -0.64015073 -0.072362632
1.5840672 -0.59075624 -0.089371972
1.6056491 -0.53270674 -0.10554417
1.5214202 -0.69785583 -0.11816152
1.5668625 -0.6505962 -0.13590637
1.5835873 -0.59086061 -0.15147313
1.6054587 -0.53317237 -0.1680169
1.5216788 -0.69848883 -0.18017611
1.5471711 -0.64321148 -0.19623867
1.5809114 -0.5903337 -0.2136042
1.5861657 -0.52719551 -0.22828121
1.5203717 -0.69939929 -0.24247079
1.5747203 -0.65569633 -0.26342839
1.6137799 -0.60331339 -0.28327292
3.0016346 -0.99818003 -0.55167794
1.5633603 -0.72063011 -0.31479692
1.60691 -0.66998851 -0.3353878
1.6447883 -0.61605138 -0.35555086
3.5403414 -1.1785599 -0.79448569
1.5491288 -0.7158739 -0.37845558
1.5849702 -0.66168529 -0.39775792
1.6029062 -0.60055596 -0.41369691
1.5769663 -0.52435189 -0.41955781
1.5107373 -0.69986129 -0.43555519
1.4875858 -0.62234116 -0.43820259
1.4814243 -0.55548304 -0.44671756
1.4167506 -0.47102416 -0.43828115
5.5938754 -2.5994244 1.9056466
5.8761005 -2.4617476 1.8922367
6.210031 -2.3287406 1.8996544
6.5565925 -2.1833601 1.9075111
6.5118895 -3.0210435 1.9166366
6.8953791 -2.8908887 1.9141693
7.2946897 -2.7417302 1.9159993
7.7663727 -2.5964632 1.9288346
7.7757654 -3.6072254 1.9466633
8.2683496 -3.4651494 1.9419249
8.471838 -3.1878777 1.8704135
8.4309549 -2.825356 1.7482036
8.6649723 -4.017345 1.7994933
8.5750818 -3.5963361 1.6560142
8.5199947 -3.2109227 1.5323076
8.4626331 -2.8395867 1.4163475
8.6632776 -4.017478 1.4370631
8.5942755 -3.6095021 1.3093857
8.5169039 -3.2148516 1.190735
7.9475875 -2.6746395 1.016845
8.153903 -3.7829916 1.0163494
8.0814276 -3.3942773 0.90596086
8.0011091 -3.0238259 0.80251336
7.918488 -2.6691551 0.70580614
8.1634054 -3.7889588 0.68649715
8.0953255 -3.4031069 0.58496261
8.0223818 -3.034106 0.49079022
7.9614377 -2.686573 0.39948586
8.1478357 -3.7848437 0.35470983
8.0987558 -3.4092073 0.26294306
8.0257235 -3.040014 0.17647444
7.9584084 -2.6892643 0.091638878
8.1799212 -3.8011367 0.025660845
8.1027851 -3.4143999 -0.060005054
8.0223551 -3.0424209 -0.13807894
7.9675908 -2.6956215 -0.21570197
1.5857242 -0.73788178 -0.05924261
1.5437135 -0.65116554 -0.072535641
1.5561416 -0.59124321 -0.087999456
1.5966784 -0.54062825 -0.10517057
1.5080684 -0.70296353 -0.11745735
1.5738599 -0.6648528 -0.13686459
1.5808631 -0.60092008 -0.15156239
1.6040419 -0.54365212 -0.16821456
1.5002444 -0.69982648 -0.17814323
1.5377069 -0.65037131 -0.19554074
1.5661323 -0.59578991 -0.21209729
1.6007286 -0.54296523 -0.23085226
1.5241205 -0.71248692 -0.24376129
1.5670274 -0.66380441 -0.26281789
1.6165026 -0.61566246 -0.28440863
3.0159764 -1.023544 -0.55545765
1.5624723 -0.73187816 -0.31551644
1.6036727 -0.68021911 -0.33557695
1.6400616 -0.62578261 -0.35535246
3.5302649 -1.199317 -0.79386091
1.5385213 -0.72246093 -0.37694004
1.5781902 -0.67025554 -0.39708108
1.5955588 -0.60899347 -0.41275722
1.6086092 -0.54585749 -0.42885953
1.5064145 -0.70911783 -0.43555519
1.4926184 -0.63523602 -0.44082499
1.4654019 -0.55975473 -0.44291341
1.4301891 -0.48525763 -0.44335124
5.5657248 -2.6279876 1.9015141
5.8767591 -2.5045214 1.8973618
6.1947269 -2.3664577 1.899379
6.5448976 -2.22417 1.9080434
6.4975996 -3.0630028 1.9179264
6.8784018 -2.9335234 1.9144173
7.3058429 -2.7972016 1.9234008
7.7447681 -2.6421824 1.9274591
7.7296696 -3.6436422 1.9406838
8.2406387 -3.513135 1.940443
8.5133858 -3.2632844 1.8839718
8.4264584 -2.881479 1.7509044
8.6774969 -4.0880265 1.8072697
8.5908861 -3.6651099 1.6633782
8.5286722 -3.274096 1.5374525
8.4674759 -2.8991373 1.4201086
8.6652994 -4.0832043 1.4415274
8.5929117 -3.6711161 1.3125851
8.5257082 -3.2780812 1.1947556
7.9591937 -2.7330265 1.0204563
8.1655903 -3.8494766 1.0207312
8.0824013 -3.4531796 0.90842831
8.0558071 -3.1011198 0.80989295
7.9490757 -2.7338955 0.7100144
8.1661568 -3.8513117 0.68870288
8.0862179 -3.4578147 0.58582658
8.0119991 -3.0865033 0.49130437
7.9684148 -2.7435021 0.40067309
8.1768694 -3.8595045 0.35699803
8.1024952 -3.4694595 0.26375064
8.0227766 -3.0953195 0.17682393
7.9691725 -2.7474973 0.091955215
8.1700077 -3.857661 0.02570352
8.0927114 -3.468781 -0.060086947
8.0501709 -3.109602 -0.13888352
7.9660201 -2.7496777 -0.21611214
0 -0 -0
1.5369345 -0.65944356 -0.072405882
1.5729733 -0.6087091 -0.089160822
1.5989912 -0.55237043 -0.10554417
1.5028251 -0.71177661 -0.11738692
1.5560132 -0.66859448 -0.13566682
1.5697155 -0.60773194 -0.15084833
1.6063187 -0.55543524 -0.16880757
1.5013129 -0.71157366 -0.1787852
1.5418985 -0.66332674 -0.19658765
1.574473 -0.61004788 -0.21372975
1.5880038 -0.54953671 -0.22949909
1.5125684 -0.71842849 -0.24261416
1.5484029 -0.66715002 -0.26037592
1.6090147 -0.62414211 -0.28375965
3.0087085 -1.041708 -0.55528587
1.5348583 -0.73046076 -0.31083947
1.5922558 -0.68693447 -0.33406362
1.6352774 -0.63547903 -0.35515407
3.5745916 -1.2388921 -0.8055231
1.5463953 -0.73777288 -0.37997118
1.5758367 -0.68069917 -0.39753231
1.5827323 -0.61525047 -0.41040802
1.586905 -0.54937363 -0.42396387
1.4994168 -0.71709543 -0.43479592
1.4807222 -0.64093256 -0.43846479
1.4700117 -0.57187599 -0.44535893
1.436252 -0.49716264 -0.44616795
5.5529408 -2.6637416 1.9026947
5.8665581 -2.5428207 1.89907
6.1585884 -2.3960578 1.8927706
6.5238409 -2.2617607 1.9059147
6.4560275 -3.0919633 1.9112195
6.8567176 -2.9741313 1.9134252
7.2776852 -2.8377435 1.9205357
7.7182984 -2.6861343 1.9249372
7.7036495 -3.6893175 1.9397981
8.2198248 -3.5640213 1.9406548
8.5187454 -3.3254316 1.8896378
8.4595747 -2.9509032 1.7615149
8.7010021 -4.1645279 1.8174531
8.6061678 -3.7342124 1.6707422
8.5469961 -3.3414459 1.5444227
8.4830942 -2.9627614 1.4257501
8.6909218 -4.1606355 1.4500097
8.6174536 -3.7442932 1.3198186
8.5340557 -3.3415391 1.198776
7.9563289 -2.7867343 1.022262
8.1848335 -3.9201102 1.0261241
8.0875177 -3.5142033 0.9114098
8.0431166 -3.1530344 0.81054682
7.9923277 -2.8037288 0.71540087
8.1711473 -3.9151332 0.69113678
8.0776587 -3.5129368 0.58675712
8.0031328 -3.1396165 0.49193278
7.9947839 -2.8075683 0.40285766
8.1782618 -3.9217014 0.35810268
8.1259584 -3.5386653 0.26521626
8.0399237 -3.1587462 0.1776257
7.9766903 -2.8049681 0.092238829
8.1921663 -3.9297764 0.025848607
8.1024418 -3.5319576 -0.060318969
8.0616455 -3.1710165 -0.13941452
7.9923739 -2.8137753 -0.21729141
1.5603338 -0.74949628 -0.058633257
1.545679 -0.6744554 -0.073011428
1.5645634 -0.61651874 -0.088896878
1.5946305 -0.56183958 -0.10548191
1.4678677 -0.70627928 -0.11499272
1.5509682 -0.67773026 -0.13558696
1.5668837 -0.61771739 -0.15093759
1.6047573 -0.56594288 -0.16900523
1.4924393 -0.71861547 -0.17825024
1.5314299 -0.66998851 -0.19577338
1.5734688 -0.62078947 -0.21410649
1.5920765 -0.56190825 -0.23058163
1.495653 -0.72167486 -0.24060673
1.5515219 -0.67981124 -0.26159692
1.604237 -0.63364059 -0.28359741
2.9966865 -1.0581814 -0.55425501
1.5489454 -0.74885619 -0.31461704
1.579918 -0.69314092 -0.33236116
1.6295247 -0.64477974 -0.35475725
3.5825994 -1.2663432 -0.80906337
1.5594101 -0.75576311 -0.3843013
1.5627106 -0.68643749 -0.39527616
1.5825425 -0.62638122 -0.41134769
1.5862471 -0.56006879 -0.42469823
1.492378 -0.72501391 -0.43403667
1.4838275 -0.65311611 -0.44056273
1.477212 -0.58513802 -0.44861963
1.4440318 -0.509799 -0.44954801
5.5425043 -2.7006934 1.904761
5.8315468 -2.5702634 1.8928062
6.1687961 -2.4437146 1.9004805
6.5207458 -2.3056037 1.9091076
6.4299836 -3.1281371 1.9091558
6.8489761 -3.0208387 1.9164014
7.259233 -2.8819866 1.9202968
7.696167 -2.7314889 1.9235615
7.6817436 -3.736943 1.9400194
8.2049551 -3.6175442 1.9423482
8.5300331 -3.3902986 1.8967204
8.4468555 -3.0047276 1.7626723
8.6938448 -4.2268615 1.8213413
8.6380377 -3.8111906 1.6814374
8.5584002 -3.4065905 1.5502312
8.4777813 -3.0193961 1.4279441
8.6892405 -4.2255602 1.4540275
8.6405125 -3.8175085 1.3269128
8.5585241 -3.4118323 1.2051312
7.957777 -2.8421788 1.0246695
8.2017288 -3.9902546 1.0312924
8.1067457 -3.5818515 0.91603625
8.0347147 -3.2067554 0.8116678
7.9834189 -2.855737 0.71615845
8.2016602 -3.9918146 0.69577628
8.1271305 -3.5939102 0.59194142
8.0300751 -3.2071788 0.49478918
7.9990354 -2.8643155 0.40394992
8.2286053 -4.0081267 0.36137718
8.1324263 -3.6010044 0.2661435
8.0630922 -3.2250988 0.1785714
7.9950972 -2.8666842 0.092653334
8.2236347 -4.0071268 0.02602499
8.1446114 -3.609971 -0.060796663
8.0624571 -3.2285995 -0.13976854
8.0116529 -2.8759346 -0.21829121
0 -0 -0
1.5634288 -0.6936509 -0.07404951
1.560751 -0.6261071 -0.088896878
1.591153 -0.57161349 -0.10548191
1.478742 -0.72271883 -0.11618982
1.5340273 -0.68156785 -0.13446906
1.5612153 -0.62657803 -0.15075907
1.6040637 -0.57678902 -0.16930173
1.4817497 -0.72470152 -0.17750128
1.5291049 -0.68017995 -0.19600603
1.56963 -0.63043243 -0.21410649
1.5848696 -0.57032454 -0.23004036
1.5027496 -0.73650044 -0.24247079
1.5482241 -0.68972057 -0.26174951
1.5994034 -0.64310396 -0.28343517
2.983649 -1.0742128 -0.55305237
1.5231299 -0.74794006 -0.31029981
1.5747385 -0.70242202 -0.33217198
1.6273561 -0.65549856 -0.35515407
3.576602 -1.288965 -0.80947989
1.5310938 -0.75367582 -0.37845558
1.5691438 -0.70078039 -0.39798352
1.5840789 -0.63825935 -0.41275722
1.5919033 -0.57307535 -0.42714608
1.4748876 -0.72773612 -0.43024042
1.4859579 -0.6649676 -0.4423984
1.4655609 -0.59095192 -0.44617411
1.4562242 -0.52417427 -0.4543364
5.4950013 -2.7193947 1.8941346
5.8375363 -2.6157968 1.8999242
6.1429863 -2.4772053 1.8971763
6.504663 -2.3449171 1.9085754
6.4106688 -3.167532 1.9091558
6.8223562 -3.0592389 1.9141693
7.2558184 -2.9322958 1.9241168
7.6838384 -2.7803164 1.9247079
7.6717839 -3.7904866 1.9433415
8.17101 -3.6626239 1.9395963
8.549015 -3.458735 1.9056244
8.4688473 -3.071219 1.7711607
8.7188511 -4.3053622 1.83208
8.6405401 -3.8758061 1.686522
8.5629272 -3.4694083 1.5548781
8.4655933 -3.0737174 1.429041
8.7030478 -4.2985029 1.4607241
8.6422195 -3.8818147 1.3308077
8.5613174 -3.4739757 1.2085032
7.9663072 -2.9004631 1.0280402
8.2091608 -4.0563512 1.0353371
8.1317987 -3.6527202 0.92138237
8.063776 -3.2758558 0.81661874
7.9741716 -2.9077408 0.71691591
8.2065096 -4.0566449 0.69828618
8.144969 -3.6617117 0.59486592
8.0759106 -3.2830849 0.49884531
8.0085211 -2.9232755 0.40532714
8.2190819 -4.0660729 0.36204782
8.1603069 -3.6734023 0.26778856
8.0811167 -3.2899685 0.1794143
8.0299511 -2.9349101 0.093264185
8.2239876 -4.0699296 0.026104646
8.1624222 -3.677953 -0.061096925
8.0721245 -3.2900856 -0.14028345
8.0276527 -2.9374058 -0.21921411
0 -0 -0
1.5327324 -0.69131869 -0.07279516
1.5531818 -0.63416195 -0.088685714
1.5744948 -0.57656115 -0.10461015
1.457303 -0.72335207 -0.11485187
1.5334501 -0.69260889 -0.13478845
1.5674838 -0.64028871 -0.15174091
1.6014289 -0.58696294 -0.16940056
1.4719324 -0.73112595 -0.17685932
1.5104229 -0.68300188 -0.19414485
1.5583857 -0.63704842 -0.21310188
1.5804101 -0.57969719 -0.22990504
1.4795965 -0.73644656 -0.23945962
1.5511651 -0.70246893 -0.26297051
1.5908611 -0.65103698 -0.28262398
2.9862499 -1.0958939 -0.55477047
1.509709 -0.75288177 -0.30850098
1.5721875 -0.71288228 -0.33255032
1.6205827 -0.66435617 -0.35455883
3.5089498 -1.2889652 -0.79594344
1.5185813 -0.75912744 -0.37650704
1.5586047 -0.70757627 -0.39640424
1.5774348 -0.64686066 -0.41205245
1.5810752 -0.58016032 -0.4251878
1.4677997 -0.73547196 -0.42948118
1.4853634 -0.67567104 -0.44344738
1.4672493 -0.60212553 -0.44780448
1.4493774 -0.53177762 -0.45320973
5.5063844 -2.7672179 1.9038755
5.7917151 -2.6380558 1.8902438
6.1116624 -2.5082812 1.8922199
6.4693418 -2.3771381 1.9024557
6.3988843 -3.2107069 1.9114774
6.816679 -3.1070695 1.9178895
7.2502627 -2.9819326 1.9274594
7.6575017 -2.824043 1.9224151
7.6422806 -3.8344271 1.9417912
8.140379 -3.7090445 1.937691
8.5502701 -3.5204468 1.9106833
8.4995432 -3.1414943 1.7815782
8.7212591 -4.3733158 1.8381901
8.6425743 -3.9405951 1.6916068
8.5715637 -3.5342891 1.5603548
8.4882555 -3.1410275 1.436093
8.7260075 -4.3766499 1.4690574
8.668685 -3.9578013 1.3385975
8.5884132 -3.5464993 1.2153771
7.9958277 -2.9669018 1.0341796
8.2178659 -4.1235795 1.0396066
8.1390924 -3.7161808 0.92477512
8.0738869 -3.3378251 0.81970137
7.9935412 -2.9704986 0.7202825
8.2135439 -4.1230264 0.70102417
8.1287003 -3.7145221 0.59533119
8.0915937 -3.3474605 0.50107336
8.0241356 -2.9848967 0.40703675
8.2448721 -4.1419959 0.36429659
8.1766977 -3.741287 0.26907471
8.0820217 -3.3482926 0.17988715
8.0295954 -2.990757 0.093471438
8.256938 -4.1495013 0.026289564
8.161521 -3.7379608 -0.061260704
8.0859566 -3.3537264 -0.14087881
8.0244646 -2.9921954 -0.2196243
8.2366753 -4.1447215 -0.31232706
1.5475334 -0.70945358 -0.073703483
1.5640163 -0.64981043 -0.089530341
1.5793433 -0.58935165 -0.10517057
1.4590726 -0.73542315 -0.11534481
1.5137711 -0.69493496 -0.13343099
1.5598466 -0.64836538 -0.15138388
1.5987293 -0.59712625 -0.1694994
1.4700818 -0.74148709 -0.17718031
1.5007889 -0.6897682 -0.1934469
1.5535315 -0.64621753 -0.21297631
1.5768235 -0.58938348 -0.22990504
1.4803495 -0.74818987 -0.24031995
1.5423368 -0.70990741 -0.26220739
1.5913911 -0.66268271 -0.28343517
1.6267589 -0.60833961 -0.30289885
1.4927748 -0.75590956 -0.30598262
1.5597575 -0.7188167 -0.33084783
1.6092391 -0.6712687 -0.35297152
1.6414826 -0.61443347 -0.3731896
1.5104127 -0.76666349 -0.37564102
1.5480417 -0.71426928 -0.39482495
1.5779213 -0.65839893 -0.41322708
1.5556896 -0.58170074 -0.41931301
1.4615347 -0.74358702 -0.42897502
1.475934 -0.68234265 -0.44187391
1.4670793 -0.61260033 -0.44889137
1.4523784 -0.54301298 -0.45518142
5.4969606 -2.8048606 1.9065319
5.8163056 -2.6924706 1.9036255
6.1227698 -2.556848 1.9004805
6.4501204 -2.4150984 1.9011253
6.4031677 -3.2621896 1.9187002
6.8010025 -3.1504662 1.9188815
7.2327256 -3.0267384 1.9276983
7.6564307 -2.8771386 1.926542
7.6125264 -3.8781486 1.940241
8.1458464 -3.7720644 1.9444653
8.5745735 -3.5921421 1.9210036
8.5168371 -3.2074199 1.7892947
8.7345448 -4.447257 1.8467072
8.6602163 -4.0130053 1.6998473
8.5697222 -3.5952098 1.564006
8.5048637 -3.2066402 1.4422047
8.7333536 -4.4476104 1.474861
8.6666946 -4.021337 1.3420752
8.6158552 -3.6198699 1.2223806
8.0053301 -3.026439 1.0377909
8.2269402 -4.1915188 1.0439885
8.1549358 -3.7840543 0.92919588
8.0807867 -3.3988831 0.82250375
8.0152359 -3.0346618 0.72390163
8.2076359 -4.1833076 0.70269752
8.1410484 -3.7807193 0.59792334
8.095746 -3.4075036 0.50261581
8.0308895 -3.0436337 0.408319
8.2549067 -4.2106686 0.36587465
8.1798725 -3.8036101 0.2699421
8.1000204 -3.4141297 0.18075061
8.0494242 -3.0545149 0.093918674
8.2482462 -4.2087226 0.026343616
8.175602 -3.8052692 -0.061540499
8.1251059 -3.428545 -0.14192475
8.0358572 -3.0527365 -0.22044463
8.2297792 -4.2047319 -0.31303796
1.5368118 -0.71598232 -0.073400706
1.5425233 -0.65200776 -0.088527344
1.579429 -0.60044986 -0.10541964
1.4643005 -0.74936074 -0.1161194
1.5112852 -0.70505303 -0.1335907
1.5558389 -0.65792423 -0.15138388
1.5931752 -0.60621685 -0.16930173
1.4548848 -0.74505496 -0.17589638
1.5010278 -0.70106536 -0.19402853
1.5504508 -0.65612423 -0.21310188
1.5778071 -0.60081053 -0.23058163
1.4924604 -0.76584369 -0.24304433
1.5289999 -0.71517044 -0.26068115
1.5882034 -0.67281967 -0.28359741
1.6193132 -0.61690688 -0.30221158
1.5012312 -0.77180129 -0.30868086
1.5588747 -0.73003948 -0.33160451
1.6123079 -0.68419319 -0.35455883
1.6358539 -0.62379688 -0.37277308
1.4970016 -0.77144462 -0.37347591
1.5462761 -0.7249952 -0.39550179
1.5738517 -0.66806853 -0.41322708
1.5747427 -0.59986395 -0.42543256
1.4569447 -0.75254083 -0.42897502
1.4673523 -0.68933433 -0.44056273
1.4597498 -0.6200856 -0.44780448
1.4633659 -0.55737889 -0.45968819
5.4618311 -2.8293078 1.9003333
5.7823272 -2.7199473 1.8979311
6.1175838 -2.5988791 1.9037848
6.4396834 -2.4563479 1.9024557
6.3881798 -3.3040805 1.920248
6.7736545 -3.1884236 1.9166493
7.1934676 -3.0623121 1.922207
7.6522679 -2.9292829 1.929981
7.5868554 -3.9238892 1.9397981
8.1225481 -3.8219755 1.9444653
8.5839033 -3.6581252 1.9280863
8.5464668 -3.2785957 1.7997122
8.7568512 -4.5264883 1.8572607
8.6844187 -4.0891347 1.7094905
8.587409 -3.6647558 1.5713081
8.5209866 -3.2725747 1.4483165
8.7463064 -4.5220046 1.4817064
8.6714153 -4.0883756 1.3466656
8.6199236 -3.6839683 1.2261418
8.0181074 -3.0876312 1.0418839
8.2451954 -4.2647448 1.049606
8.1684523 -3.8514137 0.93341112
8.0735102 -3.4542766 0.82390499
8.0094805 -3.0888047 0.72507989
8.2526588 -4.2702484 0.70878208
8.1601086 -3.8506138 0.60104722
8.0985479 -3.4673307 0.50410116
8.0325642 -3.1007669 0.40936378
8.2466621 -4.2704301 0.36666369
8.1898184 -3.8695283 0.27104878
8.1202688 -3.4814947 0.18167575
8.0501175 -3.111418 0.094147742
8.2595596 -4.2785721 0.026463101
8.1855469 -3.8711803 -0.061792992
8.1112661 -3.4814899 -0.14205348
8.0533361 -3.116055 -0.22144446
8.1976137 -4.2519283 -0.31280097
1.5224569 -0.72069651 -0.072924927
1.5412458 -0.66264349 -0.088685714
1.5691999 -0.60760713 -0.10498376
1.4543638 -0.7555722 -0.11569689
1.4997247 -0.71089715 -0.13295189
1.5417081 -0.66312927 -0.15040202
1.5801469 -0.61238509 -0.1683134
1.4423463 -0.74984044 -0.17493345
1.4949033 -0.70941067 -0.19379587
1.5327269 -0.65974176 -0.21121825
1.581481 -0.61334658 -0.23166418
1.4552577 -0.75806969 -0.23773895
1.5076233 -0.71647894 -0.25778133
1.5804205 -0.68099016 -0.28294843
1.6145791 -0.62647486 -0.3020398
1.4851304 -0.77508152 -0.30634236
1.5552526 -0.74001271 -0.33179367
1.6071796 -0.69368488 -0.35436043
1.6347307 -0.63488483 -0.37339786
1.491375 -0.78016299 -0.37325943
1.5347624 -0.73111749 -0.39369687
1.5715076 -0.67848343 -0.41369691
1.5827835 -0.61407417 -0.42861474
1.4531566 -0.76191556 -0.42922813
1.4691912 -0.70123458 -0.4423984
1.4735864 -0.63666463 -0.45323899
1.4527619 -0.56357121 -0.4574348
5.4325285 -2.8565423 1.8962009
5.7456355 -2.7458687 1.8913825
6.0582805 -2.6176827 1.8902924
6.4262877 -2.4965129 1.9029878
6.3703523 -3.344563 1.9210219
6.7434759 -3.2249107 1.9136733
7.17276 -3.1056213 1.9217294
7.63415 -2.9761813 1.929981
7.5686798 -3.9735403 1.9413483
8.095417 -3.8700566 1.9436187
8.5810633 -3.7192938 1.9325382
8.5453815 -3.3384721 1.8037634
8.7637205 -4.5983982 1.8646668
8.6911373 -4.157639 1.7158026
8.6226549 -3.7425063 1.5819296
8.550415 -3.3442233 1.4567788
8.7735586 -4.6045365 1.4910814
8.6881428 -4.161612 1.3532035
8.6298943 -3.7510192 1.2308109
8.0313587 -3.149456 1.0460972
8.2408667 -4.3268042 1.0524149
8.2002859 -3.9281049 0.93978536
8.0804644 -3.5160646 0.82680082
8.0274773 -3.1524613 0.72844648
8.2686739 -4.343061 0.71243292
8.1858139 -3.9243345 0.60470283
8.108243 -3.5305085 0.50604349
8.0394163 -3.1602273 0.4106935
8.2786789 -4.351635 0.36926749
8.2136812 -3.9426322 0.27263406
8.1326628 -3.5460393 0.18243641
8.0569277 -3.1710079 0.094453171
8.2729807 -4.3501143 0.02659112
8.1958904 -3.9377892 -0.062052313
8.0860863 -3.5295942 -0.14198911
8.0498762 -3.1716406 -0.22188027
8.1634111 -4.2979579 -0.3124963
1.4855931 -0.71443683 -0.071367808
1.5362359 -0.6716879 -0.088632934
1.5821551 -0.62381369 -0.10610458
1.4329357 -0.7556411 -0.11435895
1.4935384 -0.71922094 -0.13279219
1.5458231 -0.67616892 -0.15120536
1.5763596 -0.62206912 -0.1683134
1.4385976 -0.75914037 -0.17504044
1.4905224 -0.71856987 -0.19379587
1.5286499 -0.66913396 -0.21121825
1.5675508 -0.61903566 -0.23017567
1.4846997 -0.78502595 -0.2433311
1.5067587 -0.72743469 -0.2583918
1.5735009 -0.68948656 -0.2824617
1.6116209 -0.63673186 -0.30221158
1.481216 -0.78464001 -0.30652225
1.5497986 -0.74911433 -0.33160451
1.5984057 -0.70156372 -0.35336837
1.6262567 -0.64310503 -0.37235659
1.4848354 -0.7883836 -0.3728264
1.5328782 -0.74179387 -0.39437369
1.569095 -0.68889481 -0.41416678
1.5645577 -0.6180746 -0.42469823
1.4416219 -0.76718169 -0.42720345
1.457046 -0.70644712 -0.44003826
1.4537926 -0.63872647 -0.44834793
1.4590931 -0.57635224 -0.4605332
5.392983 -2.8781259 1.8885263
5.7442017 -2.7886074 1.8965075
6.0693884 -2.6667948 1.8988284
6.4287758 -2.5429883 1.9083095
6.3258362 -3.3708656 1.913799
6.7131047 -3.2611475 1.9106971
7.1375713 -3.1425304 1.9174317
7.5849857 -3.0107582 1.922186
7.5355496 -4.0153203 1.9391336
8.077673 -3.9226449 1.9451005
8.5876532 -3.78491 1.939216
8.5302076 -3.393019 1.804921
8.7865152 -4.6793385 1.8755908
8.6858282 -4.2207851 1.7198352
8.6356163 -3.81127 1.588568
8.5600138 -3.4086823 1.4619502
8.7756872 -4.6745548 1.4962897
8.6953907 -4.2308736 1.3583503
8.6420851 -3.8195329 1.2358689
8.03862 -3.2093511 1.0495882
8.2536249 -4.3983169 1.0574708
8.2082281 -3.9940145 0.94348645
8.1079044 -3.5873327 0.8318451
8.0459175 -3.2168241 0.73189723
8.2867432 -4.4176369 0.71631181
8.2019491 -3.9941463 0.60769379
8.1302462 -3.5995934 0.50878567
8.0736609 -3.2310219 0.41344789
8.2809153 -4.417871 0.37056941
8.2171869 -4.006536 0.2735613
8.1381712 -3.6080298 0.18305315
8.0772314 -3.2363768 0.094922222
8.2823048 -4.4200983 0.026707761
8.2210016 -4.012126 -0.062427644
8.1428728 -3.6140261 -0.14337297
8.0590258 -3.2325108 -0.222675
8.2981949 -4.4341626 -0.3186914
1.5072144 -0.73625559 -0.07262215
1.527523 -0.6790731 -0.088368982
1.5894125 -0.63797116 -0.1068518
1.4502591 -0.77618676 -0.1161194
1.4667115 -0.71742189 -0.13079591
1.5425551 -0.68604589 -0.15129462
1.5697429 -0.6306169 -0.1680169
1.4330361 -0.76748377 -0.17493345
1.472705 -0.72115004 -0.19205101
1.5154518 -0.67446709 -0.20996249
1.5821089 -0.63603371 -0.23288202
1.4659023 -0.78663385 -0.24103691
1.4880694 -0.72970432 -0.25594983
1.5665365 -0.69792366 -0.281975
1.6104256 -0.6477114 -0.30272701
1.4616444 -0.78579527 -0.30346423
1.5345955 -0.7534166 -0.32933453
1.5904906 -0.70976043 -0.35257471
1.6204655 -0.65234095 -0.37194011
1.4670783 -0.79053283 -0.36957881
1.5230519 -0.7486071 -0.39302003
1.5595129 -0.69613236 -0.41275722
1.5715305 -0.63200408 -0.42763564
1.435185 -0.77509344 -0.42669728
1.4648039 -0.72134262 -0.44370958
1.4770856 -0.65980244 -0.45677143
1.454639 -0.5849362 -0.46025151
5.3861437 -2.9170775 1.8923637
5.7347212 -2.827616 1.89907
6.0537887 -2.7043777 1.8991038
6.4130511 -2.5823865 1.9083095
6.3169317 -3.4160511 1.9174105
6.6877556 -3.299705 1.909209
7.1296773 -3.1914244 1.9205357
7.5654664 -3.0568771 1.9219567
7.5064812 -4.0591626 1.9380263
8.048192 -3.9695404 1.9438301
8.588398 -3.8483438 1.9446799
8.5619774 -3.4666536 1.81611
8.7878971 -4.7495174 1.8820713
8.6986122 -4.2931733 1.7275499
8.6372595 -3.875489 1.5932149
8.5554123 -3.4678195 1.4647709
8.7877245 -4.7504148 1.5032837
8.7260857 -4.3122263 1.3672529
8.6664228 -3.8940268 1.2427429
8.0601625 -3.2754328 1.0550053
8.2832947 -4.4796014 1.0647738
8.2058611 -4.0553217 0.94605672
8.1220608 -3.6533513 0.83558166
8.0343351 -3.2695129 0.73265475
8.2963142 -4.488327 0.7195062
8.2050123 -4.0581102 0.6097542
8.1380491 -3.6629343 0.5106709
8.079586 -3.2910507 0.41477761
8.2887993 -4.4876285 0.37214747
8.2175293 -4.0693002 0.27439877
8.168746 -3.6817243 0.18424557
8.0979614 -3.3024912 0.095402174
8.3042688 -4.4975033 0.026867075
8.2401304 -4.0842538 -0.062762029
8.1752272 -3.6885946 -0.14433844
8.0779114 -3.2977681 -0.22375171
0 -0 -0
1.4946135 -0.7414937 -0.072232872
1.5451674 -0.69830304 -0.089635924
1.5632936 -0.63865268 -0.10535736
1.4437162 -0.78411859 -0.11597856
1.481029 -0.73572087 -0.13247277
1.5355939 -0.69426697 -0.15102684
1.5584753 -0.63722396 -0.16722623
1.407334 -0.76486754 -0.17236562
1.4718097 -0.73194188 -0.19251631
1.5121887 -0.68416202 -0.21008807
1.5708402 -0.64272773 -0.23179948
1.443665 -0.78614771 -0.23816912
1.4800254 -0.73705894 -0.25533932
1.5640225 -0.70833683 -0.28229949
1.6073327 -0.6579538 -0.30289885
1.4827017 -0.80888206 -0.30886075
1.5343376 -0.76500922 -0.33028033
1.5878909 -0.72031593 -0.35297152
1.6164323 -0.66227168 -0.37194011
1.4639132 -0.80045652 -0.37001181
1.5158149 -0.75663298 -0.39234316
1.5578676 -0.70689321 -0.41346201
1.5721096 -0.6434713 -0.42885953
1.4244633 -0.78063041 -0.42492571
1.4603504 -0.73031694 -0.44370958
1.4651228 -0.66527224 -0.45432588
1.4563506 -0.59603131 -0.46194154
5.4058232 -2.9707785 1.9056466
5.7198348 -2.864038 1.8999242
6.0169492 -2.7323298 1.8927706
6.3792462 -2.6143768 1.9029878
6.2839942 -3.4482396 1.913799
6.6725802 -3.3432822 1.9106971
7.0887475 -3.2254589 1.9148055
7.550168 -3.1047211 1.9228736
7.4814334 -4.105145 1.9380263
8.0254316 -4.0197239 1.9442536
8.5681877 -3.9025924 1.9454892
8.5641336 -3.5288427 1.8211259
8.7982244 -4.8250856 1.8905882
8.7205143 -4.3707285 1.7371932
8.6465149 -3.9435539 1.5993553
8.5860157 -3.5417166 1.4737035
8.8199682 -4.8380117 1.5138494
8.7428312 -4.3874516 1.374069
8.6856585 -3.966902 1.2489682
8.0821123 -3.3422782 1.0605427
8.284399 -4.5461173 1.0684814
8.2261639 -4.1283498 0.95130002
8.1447649 -3.7238181 0.84025234
8.0656776 -3.3400989 0.73736799
8.2913437 -4.5516233 0.72148371
8.2191896 -4.1280832 0.61267865
8.1308546 -3.7198606 0.5116421
8.0943041 -3.3550985 0.41658223
8.3267899 -4.5744867 0.37510633
8.2397346 -4.1434455 0.27598402
8.1696348 -3.742604 0.18478009
8.103405 -3.3628488 0.095707595
8.3212128 -4.5729351 0.027012166
8.2426043 -4.1486745 -0.062973581
8.1751623 -3.7491076 -0.14474073
8.0898361 -3.3606939 -0.22464897
8.4419241 -4.6450291 -0.32637602
1.468622 -0.73986274 -0.07119479
1.51726 -0.69693339 -0.0882634
1.569483 -0.65244716 -0.10604232
1.4135423 -0.77899998 -0.11393644
1.4773768 -0.74524337 -0.13255262
1.5222547 -0.69951725 -0.15013425
1.5490235 -0.64448106 -0.16663323
1.3817189 -0.76196533 -0.16979779
1.4664043 -0.74051124 -0.19239998
1.4926393 -0.68638158 -0.20795329
1.5659524 -0.65197337 -0.23166418
1.4344829 -0.79259801 -0.23745218
1.4878221 -0.75237006 -0.25747606
1.5533723 -0.71503192 -0.28116378
1.6050841 -0.6685614 -0.30324244
3.830687 -2.1204193 -0.80066347
1.5112172 -0.76509511 -0.32630789
1.5692 -0.72347963 -0.34979698
1.616852 -0.67405921 -0.37298137
1.4401927 -0.79900408 -0.36524862
1.5311301 -0.77604961 -0.39753231
1.5517355 -0.71562469 -0.41299215
1.5600762 -0.64975047 -0.42665648
1.4399394 -0.80063927 -0.4309997
1.4334707 -0.7279039 -0.43689138
1.4452846 -0.66699088 -0.44943482
1.4508945 -0.60421836 -0.46137822
5.4200387 -3.0220382 1.9171584
5.6927538 -2.8943012 1.8967922
6.0280018 -2.782089 1.9015819
6.3568568 -2.6508729 1.9011253
6.2812891 -3.497072 1.9194742
6.6597114 -3.3881147 1.9129292
7.0635343 -3.2664483 1.9133729
7.5282822 -3.1498628 1.922186
7.4526958 -4.149076 1.9371405
7.9779663 -4.0573721 1.9387493
8.5467472 -3.9563267 1.9460963
8.5812311 -3.5976381 1.8294213
8.8174 -4.9062157 1.9011419
8.7365255 -4.446034 1.7457844
8.6713629 -4.0193429 1.6084832
8.5723181 -3.5977726 1.4751139
8.8601065 -4.9309907 1.525903
8.7492743 -4.4580984 1.379355
8.6935329 -4.0351501 1.2536373
8.0742626 -3.3971963 1.062228
8.3110447 -4.627317 1.0755597
8.2352428 -4.1963601 0.95530963
8.1470442 -3.7854702 0.84286791
8.0863543 -3.4069362 0.74115539
8.3033304 -4.6247306 0.72498244
8.2274837 -4.1956625 0.61520433
8.1576691 -3.7928307 0.51478416
8.0947342 -3.4136279 0.41767448
8.342205 -4.649817 0.37707892
8.2417526 -4.2080159 0.27691126
8.1709881 -3.8040545 0.18533516
8.109333 -3.4237862 0.096023932
8.3270588 -4.642899 0.027123114
8.2276793 -4.2046323 -0.063055471
8.1828175 -3.8135591 -0.14528783
8.0976086 -3.4223332 -0.22544369
0 -0 -0
1.4471549 -0.74021596 -0.070372984
1.5165746 -0.7079196 -0.088474564
1.5691271 -0.66362011 -0.10629139
1.3878398 -0.77597529 -0.11224641
1.467453 -0.75156802 -0.13207352
1.5143241 -0.7071588 -0.14977722
1.5496218 -0.655913 -0.1671274
1.3978419 -0.78208011 -0.17236562
1.4485757 -0.74269789 -0.19065513
1.49559 -0.69888729 -0.20895788
1.5610101 -0.66118312 -0.23152885
1.4209597 -0.79654557 -0.23601827
1.4699899 -0.75471425 -0.25518671
1.534655 -0.7178604 -0.27856794
1.6018586 -0.67878175 -0.30341426
3.7309771 -2.0952361 -0.7824952
1.5082411 -0.77525121 -0.32668623
1.569169 -0.73517352 -0.35078904
1.6117852 -0.68358546 -0.37277308
3.1002364 -1.7449424 -0.78895438
1.5055493 -0.77473158 -0.39211756
1.5332328 -0.71853286 -0.40923342
1.5569528 -0.65968895 -0.42690128
1.4063501 -0.79329878 -0.42239487
1.4384123 -0.74154985 -0.439776
1.45772 -0.68361008 -0.45459762
1.4436257 -0.61161226 -0.46025151
5.3431797 -3.0223103 1.8964961
5.6765914 -2.9300563 1.8973618
6.0195217 -2.8231058 1.9043355
6.3271604 -2.6841807 1.8971341
6.231111 -3.5193927 1.9107035
6.6370754 -3.428025 1.9124331
7.0767565 -3.3254216 1.9224455
7.5249343 -3.2028577 1.9263127
7.4220023 -4.1918488 1.9358116
7.9511838 -4.105351 1.938326
8.5187664 -4.0070267 1.945287
8.6068296 -3.6706247 1.8396457
8.8230724 -4.980515 1.9089181
8.7536888 -4.522603 1.7547263
8.688468 -4.0922222 1.6162833
8.6045818 -3.6735713 1.4845165
8.8477659 -4.9954724 1.5290281
8.756938 -4.5298986 1.3849192
8.7017918 -4.1040664 1.258436
8.0943346 -3.4642522 1.0676451
8.3153715 -4.696795 1.0798291
8.2490959 -4.2673783 0.95993608
8.174983 -3.8596172 0.84819245
8.0946054 -3.4690492 0.74384862
8.3338289 -4.7089472 0.73015434
8.2512045 -4.2717557 0.61892641
8.1721563 -3.8607252 0.51718354
8.1039295 -3.4762266 0.41924167
8.3483095 -4.7205896 0.37865698
8.2468376 -4.2746062 0.27795812
8.1700869 -3.8648069 0.18584912
