# .PCD v0.7 - Point Cloud Data file format
VERSION 0.7
FIELDS x y z
SIZE 4 4 4
TYPE F F F
COUNT 1 1 1
WIDTH 1621
HEIGHT 1
VIEWPOINT 0 0 0 1 0 0 0
POINTS 1621
DATA ascii
2.1344831 1.3256801 -0.60727227
1.9406301 1.3085034 -0.59090579
1.5459849 0.8056978 -0.45605487
1.5728281 0.89641601 -0.49196169
2.136553 1.3261908 -0.71002007
1.900547 1.2815733 -0.67291367
5.4462967 2.8302035 1.8962009
5.554132 3.161849 1.8982158
5.5918164 3.4707139 1.8850608
5.0982957 3.4343064 1.6967776
6.3557353 3.3078728 1.9130251
6.425457 3.6556487 1.8925921
5.7014341 3.5328267 1.6490726
0 0 0
7.0152893 3.6512964 1.7960683
7.0263085 3.9987915 1.7511832
5.8885159 3.6456211 1.4310901
6.8495569 4.5950689 1.6216508
0 0 0
5.9955363 3.4100838 1.2283787
0 0 0
0 0 0
0 0 0
0 0 0
0 0 0
0 0 0
1.2375461 0.6440593 0.15774426
6.4581194 3.6687131 0.76768154
0 0 0
0 0 0
1.2551943 0.65299344 0.10792594
1.1939932 0.67778474 0.09145648
0 0 0
0 0 0
1.2305819 0.63969815 0.054758895
1.1599165 0.65769142 0.039900586
1.1261495 0.69381303 0.027198937
4.9749303 3.3193638 0.0652413
1.1828215 0.61466092 0.0037922291
1.1475989 0.65015137 -0.0090010995
1.113748 0.68555582 -0.021047344
1.1253827 0.75027984 -0.034685615
1.1709379 0.60770702 -0.044685856
1.1094037 0.62797558 -0.055191103
1.0999961 0.67616487 -0.068256333
1.0398643 0.69289875 -0.07795947
1.1682173 0.60531193 -0.092881434
1.1532148 0.65197772 -0.10612196
1.1014841 0.67684108 -0.11585866
1.0775751 0.71756518 -0.12858234
1.1848775 0.61352479 -0.14358452
1.2358199 0.69796765 -0.16622707
1.11761 0.68634713 -0.16601101
1.0310254 0.68620384 -0.16914731
1.2071598 0.62380719 -0.19687308
2.060745 1.1623522 -0.36538097
2.1270082 1.3051149 -0.41030768
1.0047258 0.66847229 -0.21046571
1.2790254 0.65970027 -0.26317021
1.8615721 1.0488536 -0.41162089
2.1285467 1.3042697 -0.50535047
1.9620836 1.3045402 -0.5016818
1.411522 0.72632521 -0.35204166
1.5273244 0.85961783 -0.40588003
2.1342885 1.3074807 -0.60492307
1.9841402 1.320204 -0.60167623
1.4295472 0.73389715 -0.42037025
1.5749336 0.88485771 -0.49091277
2.1331596 1.3060211 -0.70621592
1.9602981 1.3044387 -0.69122231
5.5001316 2.8154528 1.9088935
5.5633965 3.1220803 1.8947991
5.6490827 3.4584234 1.8971763
5.2099853 3.4632592 1.7268443
6.3647356 3.2630823 1.9096717
6.5162067 3.6545379 1.9126812
5.8315477 3.5641162 1.6803492
0 0 0
0 0 0
7.0294042 3.9436488 1.7458907
5.9007444 3.6032965 1.4286617
6.8768048 4.552413 1.6214581
0 0 0
5.9965963 3.3621576 1.2243459
5.9125314 3.6063871 1.1655363
0 0 0
0 0 0
1.2614673 0.70643759 0.2030918
5.8741112 3.5787337 0.89969808
0 0 0
1.2237899 0.62738746 0.15549719
1.1603642 0.64979196 0.13745683
5.9209471 3.6040099 0.65034312
5.1516681 3.3973348 0.52123272
1.2662764 0.64891738 0.1085344
1.1946466 0.66849685 0.091190621
5.7700934 3.5102549 0.38647375
5.1294436 3.3802381 0.29206347
1.2407097 0.63532341 0.055035058
1.1613126 0.64909887 0.039810855
1.1329488 0.68844765 0.027260613
5.187295 3.415246 0.067750163
1.2043737 0.61650479 0.0038491266
1.1533127 0.64407277 -0.009014748
1.1153693 0.6771524 -0.02099907
1.118273 0.73566866 -0.03432671
1.1764244 0.6014207 -0.044753559
1.1193432 0.62456423 -0.05549388
1.1041243 0.66940266 -0.068256333
1.1183172 0.73530632 -0.083501317
1.1701324 0.59722555 -0.092740595
1.1580642 0.64537466 -0.10620181
1.1209484 0.679362 -0.11746532
0.99796247 0.65574765 -0.11860016
1.1868484 0.60533947 -0.14337052
1.2496251 0.69568592 -0.16750664
1.1294373 0.68410254 -0.1671412
1.0650308 0.69944477 -0.17401876
1.2215486 0.62177575 -0.19859377
1.3189596 0.73332089 -0.23305628
2.1408856 1.2956154 -0.41144335
1.676681 1.1007611 -0.34980261
1.2541083 0.63713676 -0.25723407
1.5134356 0.84051317 -0.33349615
2.1339929 1.2896638 -0.50475526
2.0305674 1.332179 -0.51709247
1.3114538 0.66468745 -0.32606071
1.5146803 0.84030527 -0.40114215
2.1381114 1.291847 -0.6037485
2.0011187 1.3138583 -0.60436881
1.4227998 0.71943665 -0.41708016
1.5761124 0.87283993 -0.48960155
2.1394854 1.2919128 -0.70567244
2.0115764 1.3208247 -0.70643258
5.5130372 2.779501 1.9074175
5.5732212 3.0827813 1.8916674
5.6636133 3.4197211 1.8949735
5.318995 3.4888539 1.7558469
6.3958497 3.229629 1.9130251
6.5232468 3.6060503 1.908217
5.8765941 3.5423045 1.6870344
0 0 0
0 0 0
7.0295219 3.8872004 1.7399632
5.9109979 3.5599492 1.4258287
6.9374681 4.5315962 1.6291746
0 0 0
0 0 0
5.9151134 3.5583491 1.1617192
0 0 0
1.387512 0.70090747 0.23393013
1.2475718 0.68863446 0.20017061
5.898509 3.5441556 0.90008724
0 0 0
1.2435826 0.6279285 0.15751956
1.2705735 0.70130199 0.14999965
5.9309988 3.5604377 0.64903533
5.1515369 3.3520741 0.51912856
1.2657834 0.63888896 0.10815411
1.1995996 0.66163588 0.09125708
5.9070969 3.5441258 0.39418605
5.1634865 3.3574131 0.29282331
1.2454767 0.62814856 0.055074509
1.1600206 0.63906705 0.039631389
1.146585 0.68713629 0.027486755
1.8313646 1.1897026 0.023823272
1.1804531 0.59514749 0.0037609353
1.1493586 0.63264424 -0.0089533301
1.1143562 0.66721404 -0.020902522
1.1152194 0.72389466 -0.034095984
1.1863412 0.59733725 -0.044990532
1.1406627 0.62731308 -0.056358941
1.1013541 0.65851557 -0.06783402
1.1027129 0.71539378 -0.082006887
1.1728837 0.5895865 -0.092670187
1.1707393 0.64305568 -0.10700031
1.1242409 0.67196018 -0.11737606
0.96105361 0.62308609 -0.11375732
1.1949826 0.60027725 -0.14390549
1.2129452 0.66554952 -0.1620394
1.1378722 0.67970335 -0.16776907
1.0726285 0.69505197 -0.17456004
1.2253406 0.61426872 -0.19859377
1.2861667 0.70479226 -0.22649346
2.1411693 1.2779036 -0.40998322
2.0430701 1.3234322 -0.42453945
1.2553549 0.62810916 -0.25669441
1.4117566 0.77274805 -0.31003979
2.1393402 1.2750403 -0.50416005
2.0567667 1.3313874 -0.5216741
1.2945434 0.64616388 -0.32086453
1.4847616 0.81183314 -0.39189196
2.1434927 1.2772108 -0.60304374
2.0490165 1.3273857 -0.61636317
1.5189847 0.756405 -0.4439069
1.5839795 0.86453962 -0.49038827
2.1465452 1.2782685 -0.70540076
2.0639334 1.3371514 -0.72192454
5.5017481 2.7316 1.8976768
5.6147571 3.0609152 1.8993547
5.6952276 3.3912995 1.8985531
5.3791461 3.4812911 1.7686186
6.4129505 3.1890335 1.9122514
6.5452504 3.5659564 1.908217
6.4032316 3.8063834 1.8314805
0 0 0
0 0 0
7.022347 3.8271577 1.7323419
5.939466 3.5276134 1.4274476
6.8702941 4.4278145 1.6069891
0 0 0
0 0 0
6.8070059 4.0382099 1.3319939
0 0 0
0 0 0
1.2778705 0.69516325 0.20434374
6.1146393 3.6231413 0.92965776
0 0 0
1.2367352 0.61497706 0.15617132
1.2617459 0.68636292 0.14845751
5.967298 3.5326009 0.65062332
5.4327884 3.4878216 0.54530382
1.267894 0.63022262 0.108002
1.2211697 0.66379321 0.092586391
1.1539546 0.68275273 0.076723464
0 0 0
1.2636262 0.62760633 0.055705737
1.1814886 0.64147592 0.0402296
1.1490582 0.67907077 0.027445639
1.8361044 1.1768245 0.023790548
1.2181182 0.60479176 0.0038690406
1.1628876 0.63082498 -0.0090283966
1.1158462 0.65883881 -0.02085425
1.1246911 0.72027296 -0.034249801
1.1872978 0.58871484 -0.044888973
1.1436119 0.6198262 -0.056315687
1.1027933 0.65022379 -0.06767565
1.1054004 0.70753813 -0.08188235
1.1746912 0.58149362 -0.092529342
1.1737864 0.63538557 -0.10692047
1.1180462 0.65898043 -0.11630496
1.0822177 0.69224679 -0.12759399
1.1843845 0.58588022 -0.14219362
1.2432159 0.67226744 -0.16552913
1.1958741 0.7044307 -0.17568034
1.08856 0.69592893 -0.17645448
1.2246495 0.60454828 -0.19787681
1.2730753 0.68749523 -0.223441
2.1447179 1.2622391 -0.409172
2.1142387 1.3511895 -0.43759692
1.2380078 0.60996056 -0.25237718
1.301529 0.70206904 -0.284881
2.1496584 1.2633793 -0.50475526
2.0822077 1.3297975 -0.52604735
1.2695702 0.62399739 -0.31371978
1.4785657 0.79669988 -0.38895896
2.1496129 1.2630497 -0.60257387
2.0816314 1.3304528 -0.6237067
1.638258 0.80329239 -0.47731379
1.5816056 0.85069019 -0.48802811
1.8547643 1.0891522 -0.60730767
2.0834177 1.3316969 -0.72586793
5.5201216 2.6986296 1.8982671
5.6401882 3.0300355 1.9016324
5.7084675 3.3519092 1.8960748
5.4540281 3.4824581 1.7861797
6.4271913 3.1470752 1.9107035
6.5618863 3.5229788 1.9067289
6.5806146 3.8573797 1.8754112
5.5738459 3.5496578 1.5565029
0 0 0
7.0706673 3.7974076 1.7384813
5.9669147 3.4945676 1.4288641
6.7855525 4.3145018 1.5809456
0 0 0
0 0 0
6.8852811 4.0277367 1.3424495
0 0 0
0 0 0
1.2559284 0.67327297 0.20017061
6.1333308 3.5835536 0.92913902
0 0 0
1.2288837 0.60169649 0.15471072
1.2659336 0.67860806 0.14845751
0 0 0
5.5584712 3.5205343 0.55574024
1.274424 0.6237461 0.10823017
1.2252196 0.65628779 0.092586391
1.1658833 0.68018728 0.077237621
0 0 0
1.2746345 0.62335289 0.056021351
1.1845211 0.63374287 0.04019969
1.1488842 0.66949058 0.027342847
1.4578984 0.9218477 0.018816458
1.2370789 0.60477251 0.003917404
1.1605632 0.6203779 -0.0089806272
1.1276445 0.65650737 -0.02099907
1.1113417 0.70214546 -0.033711445
1.1935821 0.58273405 -0.044990532
1.1614937 0.62032801 -0.057007741
1.1084889 0.64444876 -0.067781225
1.1156282 0.70447236 -0.082318224
1.1827205 0.57646012 -0.092881434
1.1697474 0.62394917 -0.10620181
1.1565142 0.67212647 -0.11987533
1.0999098 0.69409037 -0.12917534
1.1861693 0.57773119 -0.14197962
1.2315397 0.65621948 -0.1634353
1.1933109 0.69309354 -0.17467573
1.0861052 0.68500811 -0.17537193
1.2265557 0.59615725 -0.19759002
1.2755247 0.67874229 -0.22313574
2.1430347 1.2436076 -0.40738735
2.133323 1.3450215 -0.43983042
1.2434971 0.60321146 -0.25273696
1.2850027 0.68300897 -0.28034106
2.156522 1.2496741 -0.50455689
2.1283941 1.3409796 -0.53562701
1.2654659 0.6123684 -0.31177121
1.4748218 0.7830441 -0.38670284
1.945375 1.1270453 -0.54337364
2.1242025 1.3393747 -0.63398755
1.6152765 0.77976638 -0.46921515
1.5816796 0.83825827 -0.4864547
1.5849072 0.91765559 -0.51709461
2.1475515 1.3542018 -0.74530327
5.5727353 2.682111 1.9106646
5.6586742 2.9953709 1.9016324
5.7255993 3.314893 1.8949735
5.5902963 3.5213685 1.8236966
6.4472504 3.1079988 1.9109615
6.5919428 3.4871798 1.909209
6.6092038 3.8198447 1.8768437
5.6087084 3.5236754 1.5601711
0 0 0
0 0 0
5.9899406 3.4588687 1.4292688
6.7420745 4.2289882 1.5647407
0 0 0
0 0 0
6.9337835 3.9992092 1.3470964
0 0 0
0 0 0
1.240772 0.65537888 0.19711033
0 0 0
0 0 0
1.2486644 0.60191149 0.15673308
1.2603985 0.66571748 0.14732659
1.1752896 0.67642552 0.12722887
5.5740528 3.4826658 0.5551511
1.2818202 0.61764592 0.1085344
1.2354006 0.65201777 0.093051657
1.1778235 0.67750084 0.077751771
0 0 0
1.2811363 0.61682051 0.056139708
1.203419 0.63438684 0.040708169
1.1521037 0.66193056 0.027322289
1.1360366 0.70861036 0.014605936
1.2479749 0.60063994 0.0039401632
1.159924 0.61091518 -0.0089465063
1.1273158 0.64708716 -0.020918615
1.1046001 0.68843931 -0.033378173
1.2052422 0.57929599 -0.045295205
1.1643939 0.6127243 -0.056964483
1.1193533 0.64160788 -0.068203539
1.1156942 0.69497526 -0.082006887
1.1844367 0.56832916 -0.092740595
1.1797303 0.62000608 -0.10676076
1.1606165 0.66501755 -0.11987533
1.1049927 0.68785423 -0.12927417
1.1941744 0.57259148 -0.14251459
1.1889354 0.62418187 -0.15727013
1.2113159 0.69364643 -0.17668495
1.1096371 0.69036925 -0.17848425
1.2301905 0.58862007 -0.19759002
1.2455294 0.6530062 -0.21718343
2.1394906 1.2240646 -0.40527821
2.1273148 1.3230617 -0.43690968
1.2125559 0.57903832 -0.24572147
1.2926489 0.67693359 -0.28109771
2.150533 1.2286391 -0.50138229
2.1299365 1.3237646 -0.533961
1.3212014 0.6293636 -0.32454517
1.4649235 0.76630342 -0.38286737
1.52686 0.8721112 -0.42497316
2.128264 1.3237551 -0.63276362
1.5876998 0.7544769 -0.45985109
1.544878 0.80665159 -0.47360495
1.570449 0.89646316 -0.51057321
2.128119 1.3237679 -0.73572642
5.551959 2.6302772 1.897972
5.6752472 2.959707 1.9010631
5.7466664 3.2801757 1.8952488
5.6641989 3.5195611 1.8407257
6.4574709 3.0642388 1.9083819
6.6415653 3.4614418 1.9173934
6.7396703 3.8402753 1.9071654
5.7038593 3.5348287 1.5805761
0 0 0
0 0 0
6.007647 3.4201124 1.4284594
6.0219345 3.7259865 1.3922739
1.1211901 0.53236967 0.2338471
0 0 0
6.9487615 3.9512267 1.3452708
0 0 0
1.2247385 0.58140612 0.20401922
1.254433 0.65278172 0.19864048
1.2889982 0.73206133 0.19389488
0 0 0
1.2469476 0.59168261 0.15605897
1.253871 0.65246141 0.14609288
6.5093126 3.693382 0.70218748
0 0 0
1.2864867 0.61019653 0.10861046
1.239378 0.64442521 0.093051657
1.1949852 0.67764825 0.078608699
1.191583 0.73382849 0.066533484
1.2876058 0.61023182 0.056258064
1.2197077 0.63344049 0.041126914
1.1526637 0.65287793 0.027240053
1.1275884 0.69376653 0.014442314
1.269711 0.60153395 0.0039970605
1.149449 0.59641761 -0.008837319
1.1382266 0.64409733 -0.021047344
1.1071002 0.6806016 -0.033326901
1.2214218 0.57787377 -0.045769148
1.1690185 0.60602802 -0.057007741
1.131963 0.63964033 -0.068731427
1.1148353 0.68498152 -0.081633285
1.1860976 0.5601989 -0.092599764
1.1852829 0.61367238 -0.10692047
1.1716129 0.66180253 -0.1205894
1.1058004 0.67897838 -0.12887883
1.1940688 0.56355596 -0.14208663
1.1839207 0.6123122 -0.15610687
1.2172771 0.68717629 -0.17693609
1.1037188 0.67732888 -0.17686044
1.2158723 0.57262725 -0.19472225
1.2416099 0.6412698 -0.21580981
2.1409447 1.2075206 -0.40414253
2.1353929 1.3099838 -0.43690968
1.212525 0.56991357 -0.24500196
1.2967782 0.6689893 -0.28109771
1.7754438 0.99994427 -0.41249454
2.1330156 1.3076035 -0.53271151
1.2755371 0.59803641 -0.31242073
1.4600719 0.75239158 -0.38038564
1.5084671 0.84937274 -0.41839537
2.129735 1.3066152 -0.63080537
1.4003822 0.65496081 -0.40442601
1.5918472 0.81878555 -0.4864547
1.5784361 0.88822609 -0.51138836
2.1394727 1.3126923 -0.73685312
5.5931058 2.6078703 1.9065319
5.6864791 2.9213243 1.8987852
5.7717118 3.2476816 1.8969009
5.8180089 3.5658391 1.8835642
6.4595184 3.0167909 1.9034806
6.664403 3.4215097 1.9178895
6.6420345 3.7308428 1.8730236
5.8300834 3.5637281 1.6094639
0 0 0
0 0 0
5.9644675 3.34724 1.4132824
5.8939219 3.5969594 1.357549
0 0 0
1.2288626 0.63070935 0.24599132
0 0 0
5.9120064 3.6048813 1.0986958
1.2874124 0.60150695 0.21384071
1.2637022 0.64778274 0.19947509
1.2519363 0.70088845 0.18766947
5.9270015 3.606791 0.84133172
1.2370498 0.57771343 0.15437366
1.2543099 0.64294058 0.14568163
6.6439466 3.716068 0.71423781
5.9407849 3.611202 0.58721793
1.2829785 0.59891713 0.108002
1.2530776 0.64181185 0.093782768
1.1982493 0.66981614 0.078551576
1.1806962 0.71716917 0.065678664
1.2940423 0.60358685 0.056376413
1.2378094 0.63322824 0.04160548
1.1645045 0.65017956 0.027425081
1.1446469 0.69461608 0.014605936
1.2652211 0.58992857 0.0039714566
1.1521965 0.58889842 -0.0088304952
1.1500162 0.64148486 -0.021192165
1.1112555 0.67379576 -0.033326901
1.2330989 0.57416523 -0.046073824
1.169156 0.59702617 -0.056834724
1.1463354 0.6385138 -0.069364898
1.1113352 0.6734727 -0.081072867
1.1985583 0.55711526 -0.093303941
1.1801461 0.60185939 -0.10612196
1.1765219 0.65508574 -0.12067866
1.1150529 0.67527342 -0.12947184
1.2065216 0.56040704 -0.14315654
1.1947355 0.60864305 -0.15703747
1.8144344 1.0096524 -0.26282987
1.1256542 0.68131775 -0.17970212
1.2040985 0.55808121 -0.19228464
1.2208575 0.62109208 -0.21153635
1.673977 0.93065244 -0.31490993
2.140862 1.2953267 -0.43639424
1.2347479 0.57113522 -0.24877951
1.2553372 0.63788855 -0.27126119
1.4961901 0.83061522 -0.34642401
2.1384878 1.2929727 -0.53208673
1.2720908 0.58692652 -0.31068867
1.4377307 0.72974956 -0.37339157
1.5204493 0.84387451 -0.4202747
2.1385415 1.2940247 -0.63105017
1.4061322 0.64716488 -0.40493217
1.6149186 0.81816119 -0.49196169
1.5821733 0.87759066 -0.51084495
2.1409197 1.2955658 -0.73459971
5.5681872 2.554776 1.8926588
5.7000203 2.8842137 1.8973618
5.7940526 3.2136047 1.8977269
5.8604026 3.5425401 1.8902161
0 0 0
6.6662521 3.3709359 1.9124331
6.8202715 3.7760949 1.9167156
5.8918529 3.5520105 1.6204687
0 0 0
0 0 0
7.037221 3.8926809 1.6617806
5.9192443 3.5627513 1.3583207
0 0 0
0 0 0
0 0 0
5.9128551 3.5558136 1.0947781
1.3153373 0.60474938 0.2178586
1.2658851 0.63912398 0.19919689
1.2926757 0.71331388 0.19311669
5.921782 3.5540085 0.83747959
1.2405713 0.57011217 0.15437366
1.244912 0.62850773 0.14413948
1.2494469 0.68880552 0.1338612
5.9602675 3.5731452 0.58696544
1.2848172 0.5902012 0.10784988
1.2596647 0.63545924 0.093982168
1.2084576 0.66582364 0.078951471
1.1850746 0.70991105 0.065678664
1.3013542 0.59730268 0.056534223
1.2416714 0.62562126 0.04160548
1.1562091 0.63627368 0.027137261
1.1463133 0.68603909 0.014573211
1.2779061 0.58632433 0.0039999052
1.1709726 0.58946127 -0.0089465063
1.1477973 0.63104445 -0.021079527
1.1213747 0.67055589 -0.033506356
1.2484103 0.57200021 -0.046513911
1.1754749 0.59118778 -0.056964483
1.1502316 0.631468 -0.069364898
1.1137332 0.66561699 -0.08094833
1.2110255 0.55389959 -0.094008125
1.1802537 0.59281713 -0.10580255
1.1831386 0.64929193 -0.12094643
1.1473683 0.6852569 -0.13273335
1.2008946 0.54886043 -0.14208663
1.1948967 0.59951925 -0.15657218
2.0589342 1.1292164 -0.29723758
1.1527841 0.6881094 -0.18335569
1.2552239 0.57244694 -0.19988425
1.2228783 0.61270392 -0.2112311
1.3058221 0.71552223 -0.24482179
2.1403098 1.2771183 -0.43467617
1.2346479 0.56191832 -0.24805997
1.2846932 0.64291811 -0.27674693
1.5055577 0.82377148 -0.34741604
2.1421809 1.2773224 -0.5310455
1.2658895 0.57467091 -0.30830708
1.3506835 0.67517626 -0.34970209
1.5221876 0.83266348 -0.41933504
2.1364503 1.2749164 -0.62811279
1.4056702 0.63652945 -0.40366676
1.6276798 0.81211436 -0.49432188
1.5816174 0.86463469 -0.50894284
2.1430612 1.278963 -0.73262799
5.5915956 2.5241003 1.8953154
5.7055984 2.843199 1.8933755
5.8347502 3.1895204 1.9046108
5.8770609 3.5035529 1.8886197
0 0 0
6.6790056 3.3260822 1.910201
6.8254113 3.724407 1.9117017
6.7359772 4.0047598 1.8458396
0 0 0
0 0 0
0 0 0
5.9460564 3.5293694 1.3594782
0 0 0
0 0 0
0 0 0
5.9600463 3.5345795 1.0994793
1.2523513 0.56650788 0.20684662
1.1403219 0.56697571 0.17888771
1.2621853 0.68641996 0.18792887
6.1271558 3.6263149 0.86336118
1.2413298 0.5612613 0.1540366
1.2425103 0.61775744 0.14341982
1.2466509 0.67732358 0.13311389
0 0 0
1.2793282 0.5782001 0.10708931
1.2697953 0.6308257 0.094447434
1.2133976 0.65887254 0.079008594
1.179948 0.69703776 0.065156274
1.2995305 0.58683902 0.056297511
1.2580223 0.62421066 0.042024229
1.1556972 0.62678415 0.027034469
1.1539458 0.68102539 0.014616843
1.3006197 0.58711231 0.0040596481
1.1951737 0.59248042 -0.009103463
1.1604389 0.62875307 -0.021240439
1.124607 0.6631549 -0.033480719
1.268297 0.57172227 -0.047123265
1.1772896 0.58307731 -0.056877978
1.1567194 0.62582403 -0.069523267
1.1152169 0.65725046 -0.08076153
1.2189497 0.54850513 -0.09436021
1.1856558 0.58644795 -0.10596225
1.1897286 0.64344156 -0.12121421
1.1498364 0.67719394 -0.13253568
1.2024261 0.5406661 -0.14187263
1.1941005 0.58997649 -0.15599056
1.3039042 0.70475 -0.18761003
1.1766235 0.69258291 -0.18646801
1.237042 0.55501145 -0.19644293
1.2221835 0.60300261 -0.21046798
1.2563565 0.67842764 -0.23476283
2.1438606 1.2614636 -0.43381709
1.2362769 0.55352813 -0.24770021
1.2366465 0.60941398 -0.26558626
1.4648609 0.78986388 -0.33690032
2.1508212 1.2646499 -0.5312537
1.280089 0.57166994 -0.31090519
1.3329492 0.65611988 -0.34406173
1.4956104 0.80624205 -0.41064292
2.1492465 1.2647337 -0.62958145
1.361828 0.60663462 -0.39000031
1.6586157 0.81487751 -0.50218904
1.5868928 0.85491383 -0.50894284
2.1450799 1.2623827 -0.73065633
5.6261892 2.4982738 1.9018092
5.6988397 2.7963128 1.8854034
5.8440547 3.1481879 1.9013065
5.8992786 3.4679146 1.8888857
0 0 0
6.6853714 3.2782137 1.9062328
6.8643856 3.6911952 1.916238
6.7637815 3.9653223 1.8467566
0 0 0
0 0 0
0 0 0
5.9955454 3.5091751 1.3658444
1.2730759 0.56663191 0.26254568
1.3118683 0.64308411 0.26019323
0 0 0
6.9185953 4.0458674 1.271704
1.2874246 0.57288373 0.21205498
1.195365 0.58522332 0.18695575
1.3030797 0.69833374 0.19337608
6.2393184 3.6411898 0.876001
1.2411187 0.55201882 0.15358719
1.2507443 0.61230874 0.14393386
1.2665828 0.67812037 0.13479534
0 0 0
1.2810297 0.56952924 0.10693718
1.2772272 0.62477624 0.094713293
1.2244596 0.65518302 0.07946562
1.1962864 0.69682318 0.065821134
1.2976278 0.57642037 0.056060806
1.2627268 0.61691856 0.042054139
1.1745113 0.62769216 0.027383963
1.158967 0.67443508 0.014627752
1.2904886 0.57303333 0.0040169749
1.2365296 0.6035583 -0.0093900785
1.1483985 0.61314428 -0.020950796
1.1303833 0.65724689 -0.033531994
1.2717811 0.56392938 -0.047123265
1.184437 0.57759422 -0.057050988
1.1658249 0.62153351 -0.069839999
1.1209545 0.65139818 -0.080886066
1.2387112 0.5482828 -0.09562774
1.1838549 0.57654321 -0.10548315
1.1936543 0.63612938 -0.12121421
1.1634358 0.67562288 -0.13362285
1.2084489 0.53448445 -0.14219362
1.185194 0.57655573 -0.15436201
1.2127594 0.64590335 -0.17392229
1.1662831 0.67689526 -0.18416761
1.2404242 0.54741067 -0.19644293
1.2196378 0.59246927 -0.20939963
1.2883711 0.68553847 -0.23995456
2.1481519 1.246308 -0.43312988
1.2522535 0.5514825 -0.25021857
1.249197 0.60610098 -0.2674779
1.3130178 0.69762415 -0.30098811
2.1466944 1.244561 -0.52833819
1.2683769 0.5571301 -0.30722454
1.2878554 0.62413591 -0.33142734
1.5005292 0.79704994 -0.41064292
1.5724385 0.91236567 -0.45896783
1.3584356 0.59516132 -0.38797566
1.6687968 0.80720633 -0.50376248
1.6048591 0.85192925 -0.51301873
1.8581674 1.0782391 -0.63066286
5.6510439 2.4679115 1.9050562
5.7072592 2.757123 1.8825563
5.8505249 3.1055093 1.8971763
5.9321218 3.4384196 1.8926108
0 0 0
6.6739535 3.2219694 1.8973044
6.8791823 3.6449149 1.9140892
6.8528728 3.9612539 1.8644102
0 0 0
0 0 0
0 0 0
6.0203638 3.4742827 1.366616
0 0 0
0 0 0
0 0 0
6.9458561 4.0048194 1.272174
1.3262459 0.58043587 0.2178586
1.1766317 0.56712848 0.18347813
1.2705137 0.6708793 0.18792887
1.2855222 0.73967832 0.17984685
1.2453927 0.54479128 0.15369953
1.241037 0.59814471 0.14239173
1.2627944 0.6661551 0.13395461
1.2423272 0.71401644 0.121029
1.2845001 0.56165826 0.10693718
1.2828346 0.61779338 0.094846219
1.2390546 0.65324485 0.08015117
1.1840819 0.68001825 0.064918824
1.293815 0.56524718 0.055745192
1.2745954 0.61305833 0.042323332
1.2022259 0.63305086 0.027939044
1.1509409 0.66034436 0.014475037
1.3086431 0.57150769 0.0040624929
1.2474202 0.59942466 -0.0094446717
1.1574485 0.60887933 -0.021047344
1.1291912 0.64731556 -0.033378173
1.2880428 0.56170833 -0.047597203
1.1987667 0.57550442 -0.057570033
1.1713847 0.6152972 -0.069945581
1.1370543 0.65145409 -0.081757821
1.2502837 0.5442552 -0.096261509
1.1900668 0.57056123 -0.1057227
1.1904804 0.62508905 -0.12050014
1.201239 0.68775421 -0.13747735
1.2117057 0.5270595 -0.14219362
1.2021462 0.57570755 -0.15610687
1.2158211 0.63798881 -0.17379671
2.110358 1.2075742 -0.33207002
1.2256025 0.53190911 -0.19357513
1.2205753 0.58369547 -0.20894174
1.2838138 0.67303866 -0.23833215
2.158324 1.2345711 -0.43364531
1.2691538 0.54965246 -0.25291684
1.2369434 0.59080678 -0.26407295
1.2946968 0.67773616 -0.29582945
2.1024923 1.2017585 -0.51563472
1.2699791 0.54856277 -0.30679151
1.2872643 0.61412466 -0.33029926
1.4476907 0.75763088 -0.39490318
1.5384517 0.88007253 -0.44746304
1.3585078 0.58528376 -0.38696331
1.6711044 0.79570699 -0.50297576
1.6100563 0.84206599 -0.51301873
1.5965711 0.91339374 -0.53996462
5.6731033 2.4362068 1.9074175
5.7405176 2.7298739 1.887966
5.8728771 3.0713348 1.8982778
5.9614773 3.4067385 1.8952715
0 0 0
0 0 0
6.9091654 3.6066806 1.916238
6.9176426 3.9422641 1.8754151
0 0 0
0 0 0
0 0 0
6.02707 3.4290285 1.3633366
1.4035943 0.60419822 0.28791153
0 0 0
0 0 0
0 0 0
1.283458 0.55235106 0.21026926
1.1308818 0.53655136 0.17582743
1.285162 0.66856223 0.18948522
1.2883097 0.73079699 0.17960609
1.2496248 0.53753209 0.15381189
1.2428863 0.58966577 0.14218609
1.2589071 0.65426207 0.13311389
1.2328136 0.6985206 0.11968236
1.2824261 0.55140299 0.10648084
1.284798 0.60905564 0.094713293
1.2448114 0.64655018 0.080265425
1.1908399 0.67421645 0.065061294
1.2954227 0.55650896 0.055666283
1.2846569 0.6082201 0.042532705
1.2078626 0.62658298 0.02798016
1.1558414 0.65376216 0.014485946
1.313044 0.56386185 0.0040653376
1.2574023 0.59475231 -0.0094924411
1.1558363 0.59900546 -0.020950796
1.1340121 0.6408667 -0.03340381
1.2923837 0.55418837 -0.047631059
1.2113082 0.57240659 -0.058002565
1.1742512 0.60763919 -0.069892794
1.1340779 0.64053833 -0.081259675
1.2701064 0.54363871 -0.097529031
1.1881365 0.56069583 -0.10524359
1.1942934 0.61777264 -0.12050014
1.2123692 0.68428361 -0.13826802
1.2158309 0.52000564 -0.14230061
1.2092497 0.57001448 -0.15657218
1.2056122 0.62322748 -0.17178749
2.1349871 1.2043386 -0.3347764
1.2288431 0.52437896 -0.19357513
1.2187687 0.57366979 -0.20802601
1.2405758 0.64069802 -0.22957113
1.9865144 1.1201743 -0.39773726
1.2706925 0.54108393 -0.25255707
1.2263269 0.57652169 -0.26104635
1.3206087 0.68100965 -0.30078968
1.5005672 0.84553266 -0.36673376
1.2769157 0.54228652 -0.30765757
1.303354 0.61201167 -0.33345786
1.4669994 0.75630569 -0.39889684
1.5353773 0.86585349 -0.44501519
1.3567286 0.57467312 -0.38544482
1.699548 0.79649502 -0.51005626
1.6254588 0.83746022 -0.51627946
1.5779086 0.88991106 -0.53179616
5.7029085 2.4076686 1.9124354
5.7753921 2.7031331 1.8939451
5.8745203 3.0264361 1.8927706
5.9940267 3.3767195 1.8989967
0 0 0
0 0 0
6.9346204 3.5659955 1.9171932
6.9646144 3.9126163 1.8816055
1.9211246 0.81252748 0.47371024
0 0 0
0 0 0
6.0291691 3.381423 1.3590924
0 0 0
1.2824588 0.59964591 0.25212795
1.1546272 0.59244597 0.21840321
0 0 0
1.3414651 0.56758499 0.21919788
1.3145045 0.61381912 0.20378731
1.2768857 0.65433323 0.18766947
1.2823718 0.71706426 0.17816153
1.2556452 0.53101552 0.15414895
1.2392708 0.5786618 0.14136362
1.2637842 0.64697891 0.13320732
1.2475158 0.69677377 0.12069234
1.2821116 0.54197085 0.10617661
1.2876066 0.60073888 0.094646819
1.2531991 0.64117366 0.080551066
1.2106544 0.675659 0.065916114
1.2932901 0.54621738 0.055429578
1.2919888 0.60201484 0.04265235
1.234832 0.63098812 0.028514683
1.1580844 0.64568388 0.014464131
1.3302979 0.56162864 0.0041080113
1.2646543 0.58871394 -0.0095197381
1.1434602 0.58371913 -0.020661155
1.1431627 0.63681537 -0.033557627
1.2911551 0.54430687 -0.047461793
1.2401625 0.57675976 -0.059213653
1.1708399 0.59679478 -0.06947048
1.1484511 0.63939357 -0.082006887
1.2715793 0.53506142 -0.097388186
1.1996909 0.55717385 -0.10596225
1.189187 0.60591125 -0.11960755
1.2113276 0.67392898 -0.13767502
1.2180822 0.51215035 -0.14219362
1.2010117 0.5571503 -0.15505996
1.1988046 0.61041635 -0.17028059
2.1085651 1.1724375 -0.32949898
1.2156104 0.50993794 -0.19099413
1.2231625 0.56659621 -0.20817864
1.2409657 0.6312843 -0.22892216
1.6222342 0.90168667 -0.32368767
1.2821552 0.53669542 -0.25417602
1.2351885 0.57146007 -0.26218131
1.3002946 0.6604656 -0.2952342
1.5074372 0.83725929 -0.36715028
1.3063458 0.54534823 -0.31393629
1.3044317 0.60277694 -0.33278099
1.4343455 0.72836578 -0.38879523
1.5203223 0.84511048 -0.43914041
1.359336 0.56596571 -0.38519174
1.6938877 0.78120214 -0.50690937
1.645156 0.83487445 -0.52089876
1.5783075 0.87741512 -0.53010607
5.6981597 2.3645747 1.9059417
5.784904 2.6644368 1.8916674
5.9195552 3.0038192 1.9013065
6.0137897 3.3394091 1.8987305
0 0 0
0 0 0
6.9468403 3.5185516 1.9145666
6.9825301 3.8665078 1.8800006
1.9044628 0.79174006 0.46839508
0 0 0
0 0 0
0 0 0
1.307467 0.54389966 0.26680419
1.2870083 0.59217709 0.25230327
1.2647353 0.63917035 0.23848434
0 0 0
1.3476617 0.56048244 0.21964432
1.276854 0.58672202 0.19738853
1.1835052 0.59734058 0.17340297
1.287617 0.70966148 0.17828192
1.2588798 0.52330106 0.15414895
1.2545481 0.57644582 0.14270014
1.2712861 0.64100534 0.13358097
1.248276 0.68718386 0.12035569
1.280809 0.53218085 0.10579632
1.2858278 0.59032917 0.094248034
1.2651337 0.63751554 0.081065223
1.2165278 0.66918069 0.066011094
1.2966173 0.53827161 0.055429578
1.2992928 0.5957424 0.042771991
1.2404666 0.62429833 0.028555799
1.1576427 0.63615799 0.01440959
1.3263299 0.55038929 0.0040852521
1.2755159 0.58427471 -0.0095743313
1.17114 0.58881873 -0.021095619
1.1435436 0.6278646 -0.033455085
1.3046271 0.5405826 -0.047834177
1.2391359 0.56706071 -0.058997389
1.1753721 0.59004736 -0.069523267
1.1584777 0.63569576 -0.082442768
1.2951179 0.53563631 -0.098937392
1.1994606 0.54814494 -0.10564285
1.1937727 0.59904987 -0.11969681
1.2232927 0.67078984 -0.13856453
1.2340661 0.50998294 -0.14369151
1.2089254 0.55183274 -0.15564159
1.205188 0.60438329 -0.17065732
1.4744868 0.80806297 -0.22963439
1.2232912 0.50435567 -0.19171107
1.2472996 0.56850767 -0.21168898
1.2351115 0.61879605 -0.22713752
1.3391674 0.73363036 -0.26630357
1.2881532 0.52994084 -0.25471568
1.2413527 0.56509084 -0.26274881
1.2657541 0.63318115 -0.28650418
1.4868079 0.81390452 -0.36090267
1.2843773 0.52694649 -0.30787405
1.3027846 0.59234238 -0.33142734
1.420531 0.71042085 -0.38386187
1.543336 0.84554929 -0.44428086
1.3985987 0.57226908 -0.39531502
1.6907403 0.76720512 -0.50454921
1.6631604 0.83121783 -0.52497464
1.5819786 0.8667922 -0.52954274
5.6922131 2.321269 1.8991528
5.8177333 2.6364088 1.8970768
5.9378748 2.9674411 1.9013065
6.0189462 3.2941165 1.8939413
0 0 0
0 0 0
6.9874167 3.4853964 1.9198194
6.9915981 3.8156641 1.876103
1.8704674 0.7641806 0.45887217
0 0 0
0 0 0
0 0 0
0 0 0
1.2197636 0.55219311 0.23845202
1.3048297 0.64941287 0.2452887
0 0 0
1.3757901 0.56230408 0.2236622
1.3011839 0.5882591 0.20058793
1.2697247 0.63111186 0.18546465
1.2553084 0.68184638 0.17322597
1.2620671 0.51556683 0.15414895
1.2553425 0.56750798 0.14239173
1.2644944 0.62787932 0.13246001
1.2524691 0.67951167 0.12035569
1.2923584 0.5277043 0.10648084
1.2921537 0.5836606 0.094447434
1.272599 0.63151598 0.081293739
1.2250017 0.6640839 0.066248544
1.2943445 0.52804095 0.055192865
1.3056571 0.58899194 0.042861722
1.2460654 0.61756313 0.028596915
1.160645 0.62856668 0.014398681
1.3333859 0.54375112 0.0040966314
1.292752 0.58260018 -0.0096766939
1.178315 0.58339626 -0.021159982
1.1544083 0.62464201 -0.033660173
1.3162501 0.53595954 -0.048138849
1.2608118 0.5676499 -0.05986245
1.1789705 0.58282435 -0.069523267
1.1737691 0.63474727 -0.083252244
1.297456 0.52730393 -0.098866969
1.2146204 0.54608864 -0.10668091
1.1884966 0.58730125 -0.11880422
1.2177556 0.65806723 -0.13747735
1.2675717 0.51474619 -0.14722228
1.2077583 0.54237014 -0.15505996
1.1973099 0.59126645 -0.16902484
1.262343 0.68176353 -0.19594026
1.2254456 0.4964686 -0.19156769
1.2552732 0.56286544 -0.2124521
1.2309208 0.60727668 -0.22567734
1.2855635 0.69404358 -0.25479236
1.2913806 0.52202696 -0.25471568
1.2439004 0.55706203 -0.26255962
1.2889585 0.63493097 -0.29086918
1.4900523 0.80383754 -0.36048615
1.3201835 0.5321964 -0.31566834
1.2832726 0.57399523 -0.32556134
1.3646947 0.67206049 -0.36765227
1.5288724 0.8254689 -0.43865085
1.351817 0.54346806 -0.38114241
2.1122203 0.94287378 -0.62858862
1.6690929 0.82142216 -0.52524638
1.5881115 0.85752487 -0.52982438
5.7187657 2.2912734 1.9032851
5.8084092 2.5893433 1.8888201
5.9438949 2.9250085 1.8974516
6.0483775 3.2621562 1.896868
0 0 0
0 0 0
6.9764218 3.4266167 1.9109856
7.0431681 3.7879069 1.8836689
1.9149405 0.76867306 0.4686166
0 0 0
0 0 0
0 0 0
0 0 0
1.2249277 0.54549944 0.23880269
1.2653996 0.6201303 0.23715666
1.1679987 0.62651002 0.21030518
1.303968 0.52363503 0.21145976
1.262242 0.56135124 0.19405004
1.3074164 0.63987255 0.19039308
1.2069542 0.64602286 0.16600321
1.2642845 0.50744313 0.1540366
1.2633454 0.56181556 0.14290577
1.2549065 0.61354899 0.13105881
1.2583723 0.67275345 0.12052401
1.2937212 0.51902211 0.10632873
1.2838569 0.57045412 0.093583383
1.281832 0.62632531 0.081636503
1.2281722 0.65608424 0.066201054
1.3003427 0.52120429 0.055311222
1.3055919 0.57934779 0.042742077
1.2615119 0.61560589 0.028864177
1.1635977 0.62096244 0.014387772
1.3190603 0.52849299 0.0040425789
1.3027016 0.57749385 -0.0097244633
1.2295069 0.59937674 -0.022012819
1.163512 0.6203689 -0.033813987
1.3306489 0.53232771 -0.048545085
1.269752 0.56233037 -0.060121972
1.1807287 0.57470524 -0.069417685
1.1697146 0.62330902 -0.082691833
1.3071518 0.52192223 -0.099359892
1.2252413 0.54185086 -0.10731972
1.1956602 0.58174074 -0.11916125
1.1927853 0.63514841 -0.13421585
1.2845584 0.51248527 -0.14882717
1.2092465 0.53414661 -0.15482731
1.1991309 0.58304113 -0.16877368
1.2350149 0.65724808 -0.19106881
1.2303078 0.48967201 -0.19185448
1.2469481 0.549968 -0.21046798
1.2310735 0.59798795 -0.22502838
1.3037134 0.69354522 -0.25754133
1.2945594 0.51409334 -0.25471568
1.2544842 0.55258578 -0.26407295
1.2566732 0.60947436 -0.28273436
1.4690475 0.78090703 -0.35423857
1.3116242 0.51941299 -0.31285375
1.2939043 0.56924897 -0.32736626
1.3381808 0.64883167 -0.35943004
1.5142212 0.8055982 -0.43302083
1.4325106 0.56572372 -0.40290752
2.1577275 0.94735307 -0.64038938
1.6810302 0.8145225 -0.52742022
1.5958846 0.84911638 -0.53066945
5.7291608 2.2547407 1.9021044
5.8399906 2.5605836 1.8939451
5.9461579 2.8809373 1.8924953
6.0512557 3.215935 1.8915465
0 0 0
0 0 0
6.9842019 3.3774042 1.9074042
6.9759707 3.6967633 1.8595955
1.9958251 0.78695613 0.48721948
0 0 0
0 0 0
0 0 0
1.9708576 0.77762818 0.39918795
1.2598147 0.55179769 0.24493933
0 0 0
0 0 0
1.3595897 0.53630716 0.21994193
1.267477 0.55438936 0.19432825
1.2791604 0.61634368 0.18572403
1.2372383 0.65249771 0.1696146
1.271072 0.50113392 0.15448602
1.2658575 0.55365461 0.14280295
1.2550591 0.60411024 0.13068515
1.2660031 0.66687721 0.12086068
1.2857494 0.50668728 0.10541603
1.2864187 0.56216621 0.093516909
1.2874503 0.61931396 0.081750765
1.2418978 0.65365356 0.066723444
1.3007269 0.51211756 0.055192865
1.3054578 0.56972671 0.04262244
1.2742773 0.61218321 0.029069763
1.1815468 0.62125683 0.014562302
1.3241394 0.52112186 0.0040482688
1.3053038 0.56909007 -0.0097176386
1.2385701 0.59441704 -0.022109367
1.1743765 0.61693734 -0.034019075
1.3385412 0.52598053 -0.048714351
1.2768422 0.55612445 -0.060294982
1.1833322 0.56701809 -0.069364898
1.1726334 0.61565608 -0.082629561
1.3103297 0.51389188 -0.099359892
1.2495672 0.54346669 -0.1091563
1.1902244 0.57009077 -0.11826865
1.1993036 0.62920463 -0.13451235
1.2978618 0.50858402 -0.15000409
1.2097683 0.52552956 -0.15447834
1.2035805 0.57610071 -0.16889925
1.229372 0.6445967 -0.18958031
1.2332892 0.48211378 -0.19185448
1.2421392 0.53876722 -0.20909438
1.2240371 0.58531475 -0.2230815
1.2870033 0.67455685 -0.25341791
1.3004388 0.50721276 -0.25525531
1.2569501 0.54448771 -0.2638838
1.2480063 0.5958401 -0.27995661
1.3533764 0.70880312 -0.32529137
1.3375336 0.52020222 -0.31826642
1.2982668 0.5616858 -0.32759187
1.3377507 0.63851506 -0.35825542
1.4452829 0.75758022 -0.41196951
1.4034835 0.54432958 -0.39379656
2.1661577 0.93524319 -0.6411761
1.6886022 0.80543554 -0.52823538
1.6061636 0.84198123 -0.53235948
5.7393231 2.2181673 1.9009237
5.8696766 2.5307746 1.8985004
5.9888864 2.8564 1.9004805
6.0657506 3.1760619 1.88995
0 0 0
0 0 0
0 0 0
6.9648719 3.6363211 1.8506542
1.9742444 0.76448321 0.48079705
0 0 0
0 0 0
0 0 0
2.0039978 0.77652758 0.40492764
1.4060415 0.60558987 0.27264184
0 0 0
0 0 0
1.4006608 0.54260033 0.22604316
1.3090624 0.56303507 0.20017061
1.2031837 0.57066554 0.17418113
1.2500279 0.64947087 0.17081839
1.2704164 0.49189019 0.1540366
1.2710583 0.54666305 0.14300857
1.256043 0.595119 0.1304049
1.2753778 0.66185045 0.12136566
1.2944136 0.50094777 0.10587238
1.2925941 0.55544412 0.093716308
1.2957377 0.61353892 0.082036406
1.250319 0.64832008 0.066960894
1.3010488 0.50304574 0.055074509
1.3024992 0.55894661 0.042413067
1.2798172 0.60520768 0.029110879
1.2048702 0.62411362 0.014802282
1.3226482 0.51118481 0.0040340442
1.3179619 0.56501025 -0.0097858803
1.254851 0.59278524 -0.022334643
1.1665981 0.60374671 -0.033685807
1.3473378 0.51991636 -0.048917469
1.2875776 0.55142593 -0.060641009
1.2057561 0.56869239 -0.07047347
1.1755024 0.60799086 -0.082567304
1.3143891 0.50620067 -0.099430315
1.2739582 0.54480398 -0.11099287
1.2000064 0.56575012 -0.11889347
1.1978376 0.61909258 -0.13391934
1.3204446 0.50810939 -0.15225095
1.2120566 0.51770651 -0.15436201
1.21158 0.57081896 -0.16952713
1.2377055 0.63931483 -0.19025689
1.2362242 0.47453737 -0.19185448
1.2572393 0.53617537 -0.21107846
1.2329621 0.58031446 -0.22405493
1.2779881 0.65986776 -0.25084078
1.2814796 0.49078035 -0.25093812
1.2711084 0.54138231 -0.26615375
1.2454295 0.58525336 -0.27856776
1.3116322 0.67671752 -0.31425396
1.3270198 0.50676113 -0.3150188
1.2954135 0.55103981 -0.32601258
1.3451624 0.63194793 -0.35919511
1.4352586 0.7411353 -0.40780821
1.3561668 0.51642776 -0.37962392
2.695055 1.1440281 -0.79563528
1.6891568 0.79301441 -0.52687675
1.6360233 0.84487796 -0.54052794
5.7581849 2.1849432 1.9026947
5.8762689 2.4909701 1.8956534
6.0210938 2.8265438 1.9051614
6.1082554 3.1507144 1.8971341
0 0 0
0 0 0
0 0 0
7.1324725 3.6683078 1.8891714
2.0153587 0.76621711 0.48965561
1.3192135 0.55902892 0.31035233
1.2736779 0.59615326 0.290589
0 0 0
1.9912739 0.75757748 0.40140978
1.2483597 0.52861845 0.24143268
1.302507 0.60884339 0.24196951
1.2276661 0.62969601 0.21892427
1.3522047 0.51430935 0.21770978
1.3097563 0.55383521 0.19975331
1.2713534 0.59346998 0.18351921
1.2478034 0.63862264 0.16997574
1.2687666 0.48232034 0.15347484
1.2707239 0.53730416 0.14259733
1.2587687 0.58698016 0.1303115
1.2758658 0.65219826 0.121029
1.2928026 0.49122518 0.10549209
1.2913822 0.54556096 0.093383983
1.2994779 0.60557687 0.082036406
1.2596108 0.64336216 0.067245834
1.2985059 0.49292549 0.054837801
1.3022205 0.5493899 0.042293422
1.2952902 0.60282761 0.02937814
1.2300538 0.62761605 0.015064075
1.3304346 0.5048334 0.0040482688
1.3241684 0.55807787 -0.0098063536
1.2648114 0.58802515 -0.022447282
1.1729525 0.59793931 -0.033762716
1.3476988 0.5105772 -0.04881591
1.286333 0.5415768 -0.060424745
1.2427368 0.57683945 -0.072426669
1.1774323 0.59986055 -0.082442768
1.3296 0.50271237 -0.10034575
1.2717636 0.53465897 -0.11051376
1.1944202 0.55418438 -0.11800087
1.2025006 0.61218262 -0.13401818
1.320747 0.4989436 -0.15192997
1.220705 0.51256686 -0.15505996
1.2141597 0.56295687 -0.16940156
1.2133466 0.61733097 -0.18592674
1.2548562 0.47287586 -0.19429208
1.2286056 0.51507735 -0.20573665
1.2293367 0.5694204 -0.222757
1.2521579 0.63682991 -0.24499929
1.2817045 0.48186958 -0.25039846
1.2780293 0.53508961 -0.2669104
1.2543347 0.58006895 -0.27975821
1.2887295 0.65492028 -0.30779812
1.3502158 0.50614828 -0.31978202
1.3131511 0.54909432 -0.32962242
1.3154877 0.60818201 -0.3502681
1.4138527 0.71912777 -0.40046471
1.3402797 0.50098336 -0.37430918
2.620981 1.0936533 -0.77177149
1.7062217 0.78828573 -0.53068089
1.6625572 0.84569937 -0.54756975
5.7607388 2.1455691 1.8991528
5.8887877 2.4537609 1.8947991
6.0226154 2.782289 1.9002053
6.1472387 3.1232183 1.9032539
0 0 0
1.9219131 0.80023909 0.53298134
0 0 0
7.1791587 3.6367908 1.8955908
2.0556533 0.76713359 0.49829265
1.9027307 0.79256374 0.44647551
0 0 0
0 0 0
1.9958848 0.74534494 0.40140978
1.2788473 0.53229839 0.24669264
1.2694865 0.58394384 0.23516515
1.2791098 0.64620018 0.22738662
1.3507029 0.50427341 0.21696573
1.28844 0.53552622 0.19599749
1.277674 0.58689964 0.18390831
1.2907033 0.65061569 0.17527243
1.2707711 0.47417885 0.15336247
1.2739969 0.52949703 0.14259733
1.2614416 0.57883018 0.13021809
1.2727236 0.64077264 0.12035569
1.2901869 0.4811928 0.10503574
1.2910193 0.53609627 0.093118116
1.2931867 0.59301436 0.081407994
1.2635345 0.63562125 0.067245834
1.3043149 0.48599535 0.054956153
1.3037204 0.54062355 0.042233601
1.3026009 0.59653366 0.029460376
1.2392424 0.62275076 0.015129524
1.3288215 0.4949154 0.0040340442
1.3321871 0.55185592 -0.0098404745
1.2729418 0.58233309 -0.022527739
1.1837466 0.59431928 -0.033967804
1.3545533 0.50369167 -0.048951324
1.3062484 0.54055005 -0.061203301
1.2544279 0.57293713 -0.07290177
1.1793066 0.5917294 -0.082318224
1.3401412 0.49732101 -0.1009091
1.2888391 0.53255552 -0.11171152
1.1950799 0.54560417 -0.1177331
1.2000074 0.60167062 -0.13332635
1.3303093 0.49324983 -0.15267892
1.2210728 0.50393045 -0.15471099
1.2184937 0.55590808 -0.16952713
1.21534 0.60898668 -0.1856561
1.274442 0.47134665 -0.19687308
1.2472768 0.51392967 -0.20833124
1.2355012 0.56309426 -0.22324373
1.2533994 0.62781125 -0.24448386
1.2790998 0.471953 -0.24931915
1.2840128 0.5283587 -0.2674779
1.2543019 0.57073778 -0.27896458
1.284852 0.64306068 -0.30592385
1.3496311 0.49650568 -0.31891596
1.3200998 0.54250783 -0.33052486
1.3014994 0.5920493 -0.34556967
1.4087027 0.70566225 -0.39777213
1.399641 0.51340634 -0.39000031
2.6946054 1.1050112 -0.79143947
1.7119026 0.77820003 -0.53095263
1.6694307 0.83634174 -0.54813308
5.7675138 2.1078856 1.8970865
5.8984103 2.4154019 1.8930908
6.0036912 2.7289722 1.8889157
6.1542182 3.0794017 1.8995289
0 0 0
1.8846469 0.77118778 0.52132463
0 0 0
0 0 0
2.0401764 0.74712855 0.49342048
1.986248 0.81308627 0.4648934
1.3263893 0.60109425 0.30090937
0 0 0
1.9607441 0.71854436 0.3934482
1.4178615 0.57997936 0.27281716
1.2676551 0.57370389 0.23416938
0 0 0
1.3806986 0.50584126 0.22128125
1.3320388 0.54408658 0.20211807
1.2929974 0.58435756 0.18559435
1.2911143 0.6409182 0.1747909
1.2745899 0.46671432 0.15347484
1.2744592 0.52054161 0.14228891
1.2695067 0.57312757 0.13068515
1.2730603 0.63118082 0.12001903
1.2940515 0.47361001 0.10511181
1.2915131 0.52703369 0.092918724
1.2958909 0.58465779 0.081350863
1.2799419 0.63406402 0.067910694
1.3016417 0.47592431 0.054719448
1.3014591 0.53035063 0.042054139
1.3098826 0.59017259 0.029542608
1.2493137 0.61823964 0.01520588
1.3318332 0.48675257 0.0040340442
1.334622 0.54329437 -0.0098336507
1.2819616 0.57697368 -0.022624286
1.1855787 0.58615869 -0.033916533
1.3641906 0.49776882 -0.049188294
1.312317 0.53365391 -0.06133306
1.2515438 0.56236428 -0.072532244
1.1775465 0.58182949 -0.081944622
1.3412929 0.48840609 -0.10076826
1.2985475 0.52726239 -0.11227047
1.2093081 0.54315805 -0.11880422
1.1974306 0.59121233 -0.13263451
1.34172 0.4881373 -0.15364186
1.2324256 0.49978793 -0.15575792
1.214641 0.54517114 -0.16852252
1.212834 0.59844899 -0.18470886
1.3135921 0.47668415 -0.20246525
1.2284217 0.49736544 -0.20466828
1.2470366 0.55913621 -0.22470391
1.2342567 0.60877854 -0.24001683
1.2514485 0.45304582 -0.24338299
1.2945133 0.52341491 -0.2689912
1.2631477 0.5654335 -0.28015503
1.2721046 0.62694967 -0.30196702
1.3425508 0.48456928 -0.31653437
1.3225005 0.53403294 -0.33029926
1.3033332 0.58325821 -0.34509981
1.4243102 0.70258135 -0.40095431
1.3918413 0.50087762 -0.38696331
1.5762262 0.63511336 -0.46180412
1.7667215 0.7900753 -0.54644102
1.6702285 0.82396001 -0.54672474
5.7830372 2.0734246 1.897972
5.8935547 2.3712926 1.8868271
6.0361199 2.6991467 1.893872
6.170403 3.0403039 1.8987305
6.7376351 2.4204605 1.9114774
1.8129429 0.72889256 0.50024354
0 0 0
0 0 0
2.0291209 0.72899109 0.48965561
1.9857591 0.79869533 0.4636232
0 0 0
0 0 0
1.9808372 0.712152 0.39659584
1.3455735 0.54079604 0.25826457
1.2972772 0.57754606 0.23898223
0 0 0
1.848137 0.66426146 0.29553768
1.3390282 0.53737837 0.20267448
1.268471 0.56392592 0.18157379
1.2887794 0.62993246 0.17394826
1.2774296 0.45888478 0.15347484
1.282245 0.51456416 0.14280295
1.2739094 0.56573135 0.13077857
1.2715365 0.62073475 0.11951404
1.2959946 0.46532398 0.10503574
1.2956486 0.51947051 0.092985183
1.2967165 0.57548046 0.081179485
1.2865016 0.62751222 0.068053164
1.3017157 0.46691653 0.054601092
1.3093284 0.52421266 0.042203691
1.3134793 0.58212417 0.029542608
1.2629716 0.61538029 0.015325869
1.3197337 0.47317147 0.0039885258
1.3379304 0.53509504 -0.0098336507
1.2937063 0.57273972 -0.022769108
1.2224096 0.59506226 -0.034865066
1.3700421 0.49039939 -0.049289852
1.3248444 0.52929825 -0.061765593
1.2668446 0.5599224 -0.07321851
1.1819918 0.57502985 -0.082006887
1.3517795 0.48285121 -0.1013316
1.3036101 0.52002341 -0.11243019
1.2226397 0.54015511 -0.11978606
1.195666 0.58124357 -0.13204151
1.3390714 0.47789031 -0.15299989
1.2751442 0.50802326 -0.16075985
1.2152406 0.536506 -0.16814581
1.2182658 0.5918619 -0.18497951
1.3192893 0.46961078 -0.20289543
1.2332869 0.49054915 -0.20497353
1.2540553 0.55306667 -0.22535285
1.227335 0.5960297 -0.23795514
1.2829412 0.45556262 -0.24895939
1.3022635 0.5172745 -0.26993704
1.2656964 0.55727738 -0.27995661
1.2662481 0.61443549 -0.29967624
1.3169692 0.46622258 -0.30982265
1.3230356 0.52483046 -0.32962242
1.322901 0.58229882 -0.3493284
1.4312108 0.69509941 -0.40168864
1.4195203 0.50102186 -0.39379656
1.5370246 0.60838234 -0.44921663
2.1714749 0.95513546 -0.66980463
1.6787051 0.815373 -0.54785138
5.7749195 2.030612 1.891183
5.9561348 2.3541131 1.9022018
6.0675278 2.6686387 1.8985531
6.1863399 3.0011239 1.8979324
6.7441592 2.3761842 1.9091558
0 0 0
0 0 0
0 0 0
2.042753 0.71976769 0.49187025
1.9842598 0.78398204 0.46214131
0 0 0
0 0 0
1.9833159 0.69933081 0.39622551
0 0 0
1.3071198 0.57234401 0.24014394
1.2489771 0.60238129 0.22002123
1.9640923 0.69235969 0.31339496
1.310977 0.5168041 0.19794495
1.2755413 0.55772108 0.18209256
1.2827803 0.61727774 0.17262408
1.274598 0.44905683 0.15280071
1.277975 0.5037685 0.14198047
1.2791815 0.55870116 0.1309654
1.2744231 0.6124894 0.11942987
1.3016469 0.45835671 0.10526392
1.2885994 0.50748885 0.092254065
1.294733 0.56511682 0.080836706
1.2912282 0.62003893 0.068100654
1.312097 0.46157327 0.054916706
1.2967068 0.50994998 0.041695215
1.3161099 0.57365441 0.029522052
1.2703301 0.60934913 0.015369501
1.3207254 0.46440139 0.0039828364
1.3374655 0.52541304 -0.0098063536
1.2990297 0.56558919 -0.022801289
1.2125155 0.58107018 -0.034480527
1.3767973 0.48330784 -0.049425263
1.3373673 0.52480876 -0.062198125
1.2784988 0.55572134 -0.073693603
1.1854979 0.56776649 -0.082006887
1.3528339 0.47388822 -0.10119077
1.312345 0.51419669 -0.11290929
1.2341527 0.53621507 -0.1205894
1.192029 0.57045966 -0.13125084
1.3438553 0.4703218 -0.15321387
1.2967358 0.50742823 -0.16308632
1.2030393 0.5223226 -0.16601101
1.2281312 0.58736801 -0.18592674
1.3258835 0.46281153 -0.20346898
1.2325915 0.48153415 -0.20436305
1.260141 0.54653943 -0.22583959
1.2363018 0.59103709 -0.23898597
1.2643458 0.44024226 -0.24482206
1.2935206 0.50463474 -0.2674779
1.273589 0.55144793 -0.28094867
1.2646991 0.6041249 -0.29842675
1.3308725 0.4619748 -0.31242073
1.3253232 0.5163489 -0.32939678
1.3050402 0.56490362 -0.34369028
1.4057077 0.67208505 -0.39336604
1.4307959 0.49514988 -0.3960743
1.5542201 0.60418457 -0.45315021
2.1719949 0.93950111 -0.66817427
1.6906017 0.80836862 -0.5501048
5.7863669 1.994828 1.8908877
5.9427643 2.3067691 1.8933755
6.0917292 2.6347933 1.9010311
6.2333431 2.9768171 1.9067129
6.7449136 2.3300259 1.9052863
1.9211028 0.74512494 0.52752501
0 0 0
0 0 0
2.0314617 0.70180672 0.48810533
2.0172784 0.78275198 0.46870399
0 0 0
0 0 0
1.9857121 0.68650603 0.39585519
1.9505979 0.75629091 0.37258127
1.2680373 0.54598343 0.23234384
1.2731702 0.60444868 0.22362557
1.9542842 0.67544979 0.31116277
1.2975006 0.50231498 0.19544108
1.3089999 0.56280857 0.18637252
1.2964126 0.6140697 0.17394826
1.2810862 0.44252536 0.15325013
1.2893906 0.49914941 0.14290577
1.2862448 0.55241328 0.13133904
1.2727529 0.6021015 0.11892489
1.3044349 0.45036134 0.10526392
1.2888973 0.49849287 0.092054673
1.2954239 0.55598056 0.08066532
1.2968146 0.61295813 0.068195634
1.3158489 0.45383948 0.054956153
1.3026087 0.50306427 0.041784946
1.3150103 0.56359887 0.029419258
1.277662 0.6032508 0.015413134
1.315987 0.45368147 0.0039600772
1.3369324 0.51575696 -0.0097790565
1.3153442 0.56311703 -0.023026569
1.2458943 0.58769327 -0.035326514
1.3825719 0.47582662 -0.049526822
1.3340367 0.51407826 -0.061895356
1.2846394 0.54904354 -0.073851973
1.1979871 0.56473744 -0.082629561
1.366094 0.46914241 -0.10196537
1.3136147 0.50541872 -0.11274958
1.2612337 0.5388059 -0.12291015
1.2009083 0.56567907 -0.13184385
1.342954 0.46077654 -0.15278591
1.3137317 0.50480574 -0.16483118
1.207134 0.51532054 -0.16613659
1.233505 0.58066529 -0.18619737
1.340871 0.45883274 -0.20533304
1.2290639 0.47148424 -0.20329466
1.2816241 0.54653835 -0.2290844
1.2229689 0.57547081 -0.23572162
1.269816 0.43342939 -0.24536172
1.2956758 0.49633709 -0.26728874
1.2823595 0.54592645 -0.28213915
1.2551053 0.59011114 -0.29530293
1.3272125 0.45159867 -0.31090519
1.333016 0.5099476 -0.33052486
1.3236864 0.5633564 -0.34768394
1.3747134 0.64693314 -0.38357469
1.4448012 0.49009064 -0.39911127
1.5750277 0.60117495 -0.4581328
2.5948417 1.1035535 -0.79615718
1.6929255 0.7967543 -0.54925972
5.808455 1.9626503 1.8941346
5.9917412 2.283576 1.9044795
6.0821261 2.5864556 1.893046
6.2410226 2.9335933 1.90352
6.7435269 2.2833285 1.9009011
1.973621 0.75159597 0.54066974
1.8343196 0.77842885 0.48992279
0 0 0
2.034806 0.68901598 0.4878839
2.0512688 0.78149384 0.47547838
0 0 0
1.1794356 0.55165672 0.25599936
1.9889563 0.67399365 0.39567006
1.9653229 0.74816096 0.37450996
1.3340236 0.56471783 0.24379507
