# .PCD v0.7 - Point Cloud Data file format
VERSION 0.7
FIELDS x y z
SIZE 4 4 4
TYPE F F F
COUNT 1 1 1
WIDTH 1545
HEIGHT 1
VIEWPOINT 0 0 0 1 0 0 0
POINTS 1545
DATA ascii
-0 0 -0
-0.089372933 0.77591163 -0.22928074
-0.0015432475 2.3857417 0.73705071
-0.094522223 2.4272814 0.72147578
-0.18570264 2.4106367 0.69251066
-0.26933312 2.3482141 0.65242255
-0.0030492581 2.3912339 0.63844895
-0.093345225 2.4133055 0.61829799
-0.18568209 2.4342239 0.60022706
-0.27749076 2.4449658 0.57959038
-0.0030820116 2.3842857 0.54147804
-0.092654087 2.3868082 0.51739502
-0.18527579 2.4412575 0.50590003
-0.27158812 2.4083366 0.47650221
-0.0036405532 2.3958442 0.45140085
-0.092173763 2.3905814 0.42605764
-0.18257929 2.4219723 0.40875918
-0.27684882 2.4634807 0.39334282
-0.0034161475 2.3851418 0.35893098
-0.092965215 2.443228 0.34344772
-0.18364024 2.4531815 0.32177469
-0.26881033 2.4112899 0.29420727
-0.0029894358 2.376853 0.26874951
-0.091560856 2.4074256 0.24900559
-0.18333192 2.4623406 0.23166488
-0.27006477 2.4333415 0.20679295
-0.0026371963 2.3960381 0.18276677
-0.090597503 2.4019651 0.16011532
-0.18256807 2.4601998 0.14116432
-0.27002159 2.4403334 0.11673041
-0.0018916051 2.4051254 0.094960131
-0.090325475 2.4262326 0.072652563
-0.18062577 2.4508336 0.05053287
-0.26961586 2.4460394 0.026844816
-0.0015951567 2.4659896 0.0070154811
-0.089879349 2.4382873 -0.01665101
-0.17914499 2.4441264 -0.039439637
-0.26733702 2.4335551 -0.062782757
-0.00029640293 2.4046211 -0.081450127
-0.089268818 2.4460788 -0.10597038
-0.17938173 2.4680347 -0.13081144
-0.26326749 2.401917 -0.1507507
0.0013050783 2.4169848 -0.17062299
-0.087108433 2.4216714 -0.19411774
-0.23148185 3.191792 -0.28679031
-0.2651293 2.4255478 -0.24233966
0.0019409807 2.3693204 -0.25496417
-0.08672893 2.4407663 -0.28604084
-0.23045249 3.1891713 -0.40473032
-0.16735984 1.5345708 -0.21082522
0.0039736885 2.4236898 -0.35115963
-0.084942274 2.4287064 -0.37530151
-0.076257959 1.0609808 -0.17489588
-0 0 -0
0 0 -0
-0 0 -0
-0.064651504 0.90724993 -0.18412456
-0.098929979 0.91110098 -0.19513318
0 0 -0
-0 0 -0
-0 0 -0
-0 0 -0
0 0 -0
-0 0 -0
-0 0 -0
-0 0 -0
0.012980039 2.364687 0.73055685
-0.079218417 2.4153605 0.71777445
-0.17491713 2.4683082 0.70875645
-0.26157337 2.4111555 0.66945153
0.011594957 2.3854105 0.6369012
-0.077748142 2.3896267 0.61209768
-0.16795789 2.3956006 0.59043813
-0.26217201 2.4437191 0.5789026
0.011561917 2.3871851 0.54214245
-0.07701771 2.3570507 0.51083231
-0.16886258 2.4218328 0.50165045
-0.26065263 2.4460585 0.4836401
0.011032918 2.389925 0.45028993
-0.078173488 2.4117658 0.42973965
-0.16764683 2.4220634 0.40859324
-0.25891253 2.4386156 0.38911161
0.011274687 2.3969841 0.36071667
-0.076424666 2.3952534 0.3366316
-0.16416758 2.3899624 0.31334448
-0.25764751 2.4474485 0.29842058
0.011754677 2.4096172 0.27245715
-0.076660633 2.4039652 0.24859436
-0.16835549 2.4654057 0.23185171
-0.25637504 2.4468451 0.20780292
0.012144998 2.4119627 0.18398368
-0.076172508 2.4124489 0.16077997
-0.16767246 2.464262 0.14133571
-0.25327897 2.4250555 0.11592308
0.012871349 2.4060912 0.094999589
-0.074877664 2.4087577 0.07211417
-0.16511278 2.4449131 0.050388962
-0.25387797 2.4406857 0.026768459
0.013453566 2.4509535 0.0069728084
-0.074732386 2.4327958 -0.016610065
-0.16247047 2.4202387 -0.039037354
-0.25270918 2.4381328 -0.062859669
0.014452071 2.4035783 -0.081416272
-0.073076211 2.407635 -0.1042835
-0.16363826 2.4601212 -0.13033633
-0.24944852 2.4124222 -0.15131111
0.016102098 2.4119439 -0.1702709
-0.072693482 2.4371057 -0.1953155
-0.21182708 3.1921587 -0.28670108
-0.25024143 2.427129 -0.24233966
0.016624039 2.3901427 -0.257211
-0.072509691 2.4670649 -0.28906527
-0.21022546 3.1806262 -0.40347457
-0.16696304 1.6232874 -0.2228685
0.018652719 2.3988788 -0.34757489
-0.070522614 2.4459758 -0.3778961
-0.080551341 1.2258615 -0.20199013
-0.10144489 0.98781604 -0.17318322
0 0 -0
-0 0 -0
-0.059401847 0.91251975 -0.1851166
-0.093736157 0.91558278 -0.19596618
0 0 -0
-0 0 -0
-0 0 -0
-0.090959691 0.88541263 -0.22471064
0 0 -0
-0 0 -0
-0 0 -0
-0.082983427 0.80749345 -0.23829423
0.027511455 2.3664734 0.73114723
-0.063936755 2.3985519 0.71264946
-0.15598229 2.4108152 0.69195992
-0.25050101 2.4491551 0.67956251
0.026241967 2.3862605 0.63715911
-0.063697666 2.413301 0.61804998
-0.15604432 2.4401956 0.6011821
-0.24404022 2.4142921 0.57156599
0.026016476 2.3695171 0.53815609
-0.062735133 2.3643179 0.5123142
-0.1544963 2.4306421 0.50326937
-0.24789256 2.470067 0.48807719
0.025633618 2.3839164 0.44917899
-0.062882431 2.3935008 0.42640832
-0.15309244 2.4279671 0.40942302
-0.24777621 2.4784853 0.39522332
0.025757 2.3761048 0.35759166
-0.061343629 2.3808281 0.33454508
-0.15247017 2.4384267 0.31956989
-0.23919985 2.414407 0.29420727
0.026211264 2.3796914 0.26908657
-0.062036745 2.4093621 0.24910839
-0.15328662 2.467386 0.23194513
-0.24174766 2.4523387 0.20813958
0.026877463 2.4058604 0.18352734
-0.060962655 2.3969114 0.15971652
-0.15267219 2.4672372 0.14144996
-0.24230084 2.4663272 0.11782268
0.027657555 2.4079649 0.095078491
-0.060096398 2.4091718 0.07211417
-0.15121034 2.4638426 0.050759014
-0.23753452 2.4282646 0.026615744
0.028027091 2.4108274 0.0068590124
-0.059631635 2.4262109 -0.016562296
-0.14846899 2.4351623 -0.03926263
-0.23396289 2.4008341 -0.061859857
0.029175594 2.4014456 -0.081348568
-0.058374409 2.4110343 -0.10441326
-0.14823936 2.4560952 -0.13007239
-0.23657268 2.4337749 -0.15255646
0.03065839 2.3928485 -0.16893296
-0.057455048 2.4255474 -0.19435728
-0.19097954 3.1725199 -0.28482664
-0.23371246 2.4117811 -0.24065951
0.031211272 2.3840306 -0.25656906
-0.055569932 2.3900137 -0.27999198
-0.19082427 3.1838369 -0.40372574
-0.14508402 1.5010056 -0.20595378
0.033412915 2.4016881 -0.34800509
-0.056634083 2.4957638 -0.38552728
-0.072676145 1.2204227 -0.20101669
-0.096422739 0.99920624 -0.17507312
0 0 -0
-0 0 -0
-0.053455621 0.90699655 -0.18392615
-0.088397406 0.91906148 -0.19659096
0 0 -0
-0 0 -0
-0 0 -0
-0 0 -0
0 0 -0
-0 0 -0
-0 0 -0
-0.075444721 0.78124553 -0.23040742
0.041878626 2.3576624 0.72849065
-0.048864372 2.3816478 0.70752454
-0.1450073 2.4769866 0.71068388
-0.23048995 2.3988311 0.66519427
0.040982604 2.3918507 0.63870686
-0.048359036 2.3874953 0.61135364
-0.13978006 2.4188097 0.59569073
-0.22664732 2.3886118 0.56514651
0.040454935 2.3634627 0.53682727
-0.04816699 2.3617268 0.51167911
-0.13890576 2.4198117 0.50084108
-0.22426887 2.3816674 0.47032893
0.040409934 2.3925574 0.45084539
-0.049007498 2.4341984 0.43359694
-0.13729559 2.4131083 0.4067677
-0.22795314 2.4307926 0.38738781
0.040487092 2.3848007 0.35893098
-0.046772849 2.3831398 0.33482325
-0.13611025 2.4145668 0.31632748
-0.2259416 2.4326336 0.29625377
0.040692996 2.3725309 0.26830006
-0.047427524 2.418648 0.25003368
-0.13725396 2.4523749 0.23045051
-0.22752087 2.4627061 0.20889707
0.041259404 2.3837173 0.18185405
-0.04635058 2.4022284 0.16004886
-0.13753064 2.4681275 0.14144996
-0.22633913 2.4588156 0.11739527
0.042009473 2.3837724 0.094131649
-0.045294072 2.4084959 0.072084263
-0.13487701 2.4427621 0.050306723
-0.22326918 2.4366467 0.0266921
0.042694803 2.4036112 0.0068390984
-0.044835743 2.4315302 -0.016596418
-0.13363376 2.4380243 -0.039294813
-0.22258879 2.4390593 -0.062808394
0.043964859 2.4042192 -0.081450127
-0.043796115 2.4233339 -0.1049323
-0.13392287 2.4709184 -0.13081144
-0.22181581 2.4371686 -0.15268101
0.045169957 2.3836391 -0.16829918
-0.042413678 2.4168847 -0.19363864
-0.17199346 3.1825829 -0.28562996
-0.21998845 2.4250619 -0.24184549
0.04576236 2.379818 -0.25614107
-0.041447837 2.4220879 -0.28371435
-0.17053916 3.1710787 -0.40196767
-0.14917275 1.6488967 -0.22611615
0.048545539 2.4212272 -0.35087284
-0.041875459 2.5296617 -0.39071649
-0.064607665 1.2100068 -0.19923204
-0 0 -0
0.048912898 2.3495214 -0.42974278
-0 0 -0
-0.050162461 0.95037282 -0.1926562
-0.083720811 0.93030208 -0.19888173
0 0 -0
-0 0 -0
-0 0 -0
-0.077993684 0.86328673 -0.21883586
0 0 -0
-0 0 -0
-0 0 -0
-0.071167886 0.78742748 -0.23209746
0.056230031 2.3525851 0.72701478
-0.033836454 2.3531475 0.69898301
-0.12698965 2.4240682 0.69526416
-0.20929368 2.3281944 0.64523846
0.054466568 2.3403618 0.62503505
-0.033708729 2.387747 0.61135364
-0.1241347 2.4041049 0.59187067
-0.21611474 2.436496 0.57615137
0.054956108 2.3631699 0.53682727
-0.032866716 2.3052983 0.49940053
-0.12305299 2.401058 0.49679387
-0.21438062 2.4367576 0.48093927
0.054908633 2.3844047 0.44936416
-0.033877738 2.4206715 0.4311423
-0.12193672 2.4030716 0.4049421
-0.21243054 2.4252584 0.38629085
0.054913525 2.3756099 0.35759166
-0.03217601 2.3853624 0.33510149
-0.12129217 2.4153564 0.31632748
-0.21092522 2.4329851 0.29613337
0.055388626 2.378197 0.26897418
-0.032344904 2.4009905 0.2481831
-0.12264971 2.4621205 0.23129123
-0.21291918 2.4700124 0.20940207
0.055791348 2.379432 0.18154983
-0.031662419 2.4064584 0.16031471
-0.12124705 2.4459906 0.140136
-0.21150424 2.4631436 0.11753774
0.056920066 2.395457 0.094605066
-0.030489644 2.4067297 0.07202445
-0.12184569 2.4834874 0.051129069
-0.20729245 2.4260154 0.026561204
0.057083867 2.3883085 0.0067964257
-0.029927609 2.4327593 -0.016603241
-0.12187916 2.5047119 -0.040356833
-0.20711036 2.4344025 -0.062654577
0.05871604 2.4039042 -0.081450127
-0.028890222 2.4205601 -0.10480254
-0.12091573 2.5165789 -0.13318694
-0.20795415 2.4514122 -0.1534905
0.059744801 2.3813226 -0.16815835
-0.027640026 2.4220829 -0.19403788
-0.14412448 3.0094764 -0.27000958
-0.20275749 2.3986022 -0.23907816
0.060136862 2.3705471 -0.25517815
-0.026585406 2.4222965 -0.28371435
-0.15008742 3.1512551 -0.39933059
-0.18590264 2.2056317 -0.3023001
0.062830992 2.3991187 -0.34771833
-0.025982369 2.4942946 -0.38522205
-0.091686755 1.9407486 -0.31945267
-0 0 -0
0.064733312 2.4012935 -0.43927661
-0 0 -0
-0 0 -0
-0.07539703 0.89960921 -0.19221763
0.036672477 1.3135624 -0.29141948
-0 0 -0
-0 0 -0
-0.074484102 0.88500458 -0.2242211
0.067124411 2.3257363 -0.60866374
-0 0 -0
-0 0 -0
-0 0 -0
0.070520714 2.3474209 0.72553891
-0.019484086 2.3638551 0.70211488
-0.11087023 2.397913 0.68755436
-0.20875502 2.493696 0.69073778
0.069081381 2.3486755 0.62735671
-0.019064886 2.3888776 0.61160165
-0.11004291 2.4193728 0.59545201
-0.20003994 2.4241953 0.5729416
0.069111377 2.3510914 0.53416973
-0.019522589 2.4041641 0.52078223
-0.10849454 2.4056811 0.4976033
-0.20038486 2.4497626 0.48325428
0.068764433 2.357501 0.44436505
-0.019031875 2.4218183 0.43131763
-0.10819985 2.4264331 0.40875918
-0.19914824 2.4462039 0.38942504
0.068968445 2.3574364 0.35491309
-0.017524535 2.3835342 0.33482325
-0.10777913 2.4457729 0.32021835
-0.19463833 2.4174116 0.2940869
0.069892228 2.3748326 0.26863712
-0.0176048 2.4001491 0.2480803
-0.10588966 2.425029 0.22774154
-0.19632871 2.4533932 0.20788708
0.069181174 2.3381815 0.17843148
-0.016847039 2.3996229 0.15984945
-0.10588999 2.4387093 0.13967898
-0.19741821 2.4773393 0.11815511
0.070810877 2.3680956 0.093539871
-0.015695538 2.4028733 0.071904801
-0.10467608 2.439239 0.050203934
-0.19374606 2.4441874 0.026746642
0.071917348 2.3939104 0.006813495
-0.014999915 2.4328971 -0.016603241
-0.10311085 2.4254951 -0.039069537
-0.19043942 2.413703 -0.062090583
0.072457388 2.370533 -0.08033298
-0.01396788 2.4087031 -0.1042835
-0.10099897 2.4105165 -0.1275385
-0.19118695 2.4307523 -0.15212059
0.074137241 2.3739321 -0.16766542
-0.012804177 2.427191 -0.19443715
-0.10264327 2.4589956 -0.2205599
-0.18997945 2.4246027 -0.24154899
0.07471244 2.3711271 -0.25528514
-0.011597015 2.3965909 -0.28068995
-0.10192654 2.4572635 -0.31130204
-0.17421736 2.230438 -0.30554771
0.076814987 2.3759375 -0.34442037
-0.010617952 2.4805713 -0.38308531
-0.079493202 1.9343731 -0.318317
-0 0 -0
0.079075649 2.3890531 -0.43711799
-0.0037890244 0.99470359 -0.19162314
-0.038892604 0.96070999 -0.19464029
-0.070102826 0.90298033 -0.19284239
0 0 -0
-0 0 -0
-0 0 -0
-0 0 -0
0.056383256 1.6107764 -0.42163566
-0 0 -0
-0 0 -0
-0.061499577 0.78824151 -0.23209746
0.084681049 2.3402603 0.72347271
-0.0050096647 2.3783095 0.70638573
-0.098503813 2.4571428 0.70435077
-0.18793568 2.423811 0.67104799
0.08280468 2.3288965 0.62219751
-0.0043869927 2.3782935 0.60887349
-0.093401849 2.3743968 0.58423054
-0.18590254 2.4350827 0.57523429
0.083120495 2.3389285 0.5315122
-0.0047589126 2.3983748 0.51951206
-0.090910807 2.3338876 0.48262867
-0.18512765 2.4480107 0.48267552
0.082881711 2.3472137 0.44251353
-0.0041443873 2.4061372 0.42851228
-0.090013549 2.3413212 0.3943207
-0.18339388 2.4375312 0.38785794
0.083676979 2.3638866 0.35595477
-0.0028967052 2.3816166 0.33454508
-0.091755629 2.4196355 0.31671655
-0.17899212 2.4076703 0.29276276
0.083968066 2.3604567 0.26706418
-0.0028798159 2.4022014 0.24828592
-0.09018673 2.4037447 0.22568645
-0.18141806 2.4565392 0.20805542
0.084131949 2.3546529 0.17972445
-0.0021087881 2.3837166 0.158786
-0.090626851 2.4313316 0.13922194
-0.18148145 2.4685421 0.11768021
0.085087955 2.3606267 0.093263708
-0.00095426029 2.4099212 0.07211417
-0.089413337 2.4318423 0.050039463
-0.17925544 2.452311 0.026822999
0.08620698 2.3824313 0.0067822007
-7.1479386e-05 2.4269435 -0.016562296
-0.088008329 2.4200869 -0.038972989
-0.17693086 2.4327726 -0.062552035
0.086598054 2.3590574 -0.0799606
0.00081628509 2.4217315 -0.10484579
-0.086527549 2.4200726 -0.12801361
-0.17597994 2.4278977 -0.15187153
0.088478491 2.3674514 -0.16724291
0.0020761595 2.4122717 -0.19323938
-0.086596549 2.4327037 -0.21814987
-0.18025719 2.4971843 -0.24866499
0.089185178 2.3686368 -0.25507116
0.0030929502 2.3846984 -0.27929404
-0.085550919 2.4211583 -0.30665576
-0.17517357 2.4350443 -0.33342323
0.091239825 2.3714654 -0.3438468
0.0045624045 2.4588475 -0.3797276
-0.068243004 1.9525752 -0.32123736
-0.074411094 1.0366453 -0.18125823
0.092768788 2.3639498 -0.43262091
0.005222897 2.2447214 -0.4324289
-0.03235798 0.94231921 -0.19087051
-0.065815888 0.92095405 -0.19659096
0 0 -0
0 0 -0
-0 0 -0
-0 0 -0
0.090528689 2.2000422 -0.57601601
0 0 -0
-0 0 -0
-0.057211973 0.79626036 -0.23435083
0.098836981 2.3349237 0.72199678
0.0095177954 2.3619993 0.70154554
-0.081827156 2.4106224 0.69085854
-0.1699034 2.3806891 0.65880841
0.097696766 2.3428242 0.62606686
0.010185237 2.3734317 0.60763341
-0.079185441 2.3856013 0.58685684
-0.17129835 2.4410324 0.57638067
0.097389102 2.3364255 0.53106922
0.0099370396 2.3934722 0.51845354
-0.077969477 2.3764892 0.49133015
-0.16874371 2.4295235 0.47881719
0.09728238 2.3466611 0.44251353
0.010532568 2.3864274 0.42500564
-0.078033589 2.415751 0.4067677
-0.16836597 2.4376254 0.38770124
0.097276941 2.3415921 0.35268092
0.011784879 2.3954532 0.33649251
-0.075521573 2.3765466 0.31100994
-0.16441813 2.4116945 0.2931239
0.098284304 2.3559258 0.26661476
0.011840225 2.398195 0.24787466
-0.075623274 2.4102237 0.22624692
-0.16661076 2.4615829 0.20839208
0.098411374 2.3501077 0.17942023
0.012648451 2.4086287 0.16044763
-0.075302921 2.4188695 0.13847928
-0.16733819 2.4845583 0.11839256
0.099360295 2.3550687 0.093066461
0.013821281 2.4078827 0.072054356
-0.073908679 2.4133584 0.049648855
-0.1644053 2.456358 0.026855722
0.099724092 2.3558807 0.0067082341
0.014826075 2.4278984 -0.016569121
-0.073127091 2.4195817 -0.038956895
-0.16140278 2.4248354 -0.062321313
0.10102853 2.3574831 -0.079926744
0.015572265 2.4056964 -0.10415375
-0.071292385 2.4075818 -0.12732735
-0.16226809 2.4468575 -0.15299234
0.10239606 2.3529119 -0.16625707
0.016849644 2.4082265 -0.19291997
-0.071726784 2.4351807 -0.2183284
-0.16185036 2.451575 -0.24401982
0.10336914 2.3600988 -0.25421521
0.017850628 2.4015188 -0.28127158
-0.069390655 2.377013 -0.30100483
-0.16731718 2.5438378 -0.34817284
0.10609796 2.3777821 -0.34485054
0.019317819 2.4172666 -0.37331739
-0.062398504 2.166007 -0.3562814
-0.064823888 0.98793155 -0.17266779
0.10745038 2.3672669 -0.43334046
0.01825658 2.1572571 -0.4155933
-0.026906909 0.95425677 -0.19325142
-0.060737375 0.93012452 -0.19846523
0 0 -0
0 0 -0
-0 0 -0
-0 0 -0
0 0 -0
0 0 -0
-0 0 -0
-0.051507559 0.78414959 -0.23068911
0.11237545 2.3180497 0.71697885
0.024010571 2.3618963 0.70154554
-0.066019051 2.3745623 0.68039519
-0.15391275 2.3605249 0.65295476
0.11225494 2.346041 0.62709874
0.024677441 2.3665438 0.60589731
-0.063994721 2.3656569 0.58184302
-0.15650377 2.4449515 0.57706845
0.11153694 2.331888 0.53018337
0.02450227 2.3816385 0.51591313
-0.06213304 2.3299325 0.48161685
-0.15494888 2.4481397 0.48228967
0.11205321 2.3538728 0.44399473
0.02506097 2.3754888 0.42307702
-0.062435672 2.3866103 0.40178886
-0.15290974 2.430727 0.38644755
0.11187837 2.3458898 0.35342497
0.026460985 2.3933551 0.3362143
-0.061217472 2.3878689 0.31243661
-0.15017015 2.4215753 0.29420727
0.11207302 2.341383 0.26504183
0.026610121 2.4030504 0.24838872
-0.060330655 2.3907361 0.22437866
-0.15309456 2.4884176 0.21058036
0.11282951 2.3494594 0.17942023
0.027222771 2.390547 0.15925126
-0.060060531 2.4033172 0.13756523
-0.14678249 2.3987989 0.11426093
0.11356763 2.3494241 0.092869192
0.028583642 2.4067531 0.07202445
-0.059294969 2.4217622 0.049813319
-0.15017943 2.4712937 0.027008435
0.11282183 2.3272576 0.0066285776
0.029478265 2.4077637 -0.016432637
-0.058231294 2.4179859 -0.038924716
-0.14730476 2.4387522 -0.062654577
0.11549187 2.3568187 -0.079926744
0.030144094 2.3905706 -0.10350495
-0.056846451 2.4219506 -0.12806639
-0.1456932 2.4219046 -0.15137339
0.11702926 2.3562245 -0.16653873
0.031416483 2.3921301 -0.19164236
-0.056528084 2.4246218 -0.21734655
-0.14710204 2.4574888 -0.244514
0.11745168 2.3514757 -0.25335926
0.032329686 2.3824947 -0.27906141
-0.055398725 2.4031813 -0.30426982
-0.1414462 2.3727224 -0.32462755
0.12038467 2.3711557 -0.34399021
0.03420537 2.4210551 -0.37392789
-0.05270724 2.3251753 -0.38240221
-0 0 -0
0.12085971 2.3449504 -0.42938298
0.033514082 2.2955439 -0.44226542
-0.022153465 1.0043778 -0.20337035
-0.052315172 0.88459033 -0.18867733
0.11665545 2.221884 -0.49342123
0.02148235 1.4270658 -0.33052486
-0 0 -0
-0 0 -0
0 0 -0
0 0 -0
-0 0 -0
-0.046124987 0.77487272 -0.22787237
0.12628391 2.3115923 0.71520776
0.03836181 2.3530781 0.69898301
-0.051426943 2.3739614 0.68011975
-0.14453936 2.4480298 0.6769017
0.12503284 2.3154006 0.619102
0.038941097 2.3508496 0.60192907
-0.049802963 2.3815389 0.58566308
-0.13986857 2.4176855 0.57041967
0.12568533 2.3282385 0.52951902
0.039083168 2.3794892 0.51548976
-0.049101911 2.3919535 0.49436551
-0.13953267 2.4421871 0.48093927
0.1255447 2.3354776 0.440662
0.039537668 2.3693841 0.422025
-0.047908969 2.392864 0.40278462
-0.13816008 2.4345775 0.38691768
0.12680206 2.3550339 0.35491309
0.040839415 2.3753254 0.33371043
-0.046409994 2.3802683 0.31139904
-0.13647145 2.4432662 0.29673526
0.12643737 2.3406513 0.26504183
0.041303109 2.3998582 0.2480803
-0.045831319 2.4000201 0.22521937
-0.1367764 2.4704065 0.20898123
0.12735127 2.350714 0.17957233
0.041750509 2.3823538 0.15871952
-0.045181196 2.3966529 0.13716532
-0.13529937 2.4584987 0.11706284
0.12770945 2.3436944 0.092671938
0.04313463 2.3945396 0.071665518
-0.04434251 2.4170825 0.049710531
-0.13446774 2.4621842 0.026899355
0.12671766 2.3195319 0.0066086636
0.043847177 2.3855417 -0.016282504
-0.043411653 2.4192972 -0.038940806
-0.13250053 2.4426045 -0.062731482
0.12934542 2.3450887 -0.079554364
0.044306185 2.3633707 -0.10233711
-0.042001877 2.4232521 -0.12811919
-0.13077611 2.4217563 -0.15131111
0.13220733 2.3684096 -0.16745417
0.045959286 2.3849161 -0.1910834
-0.041649818 2.4249229 -0.21734655
-0.13266076 2.470269 -0.24569999
0.13193356 2.3517036 -0.25346628
0.046928216 2.3812582 -0.27894506
-0.040417153 2.3895888 -0.30251175
-0.13000534 2.4319196 -0.33261129
0.13318795 2.3397424 -0.33954513
0.048619505 2.3990622 -0.37057018
-0.041015994 2.4813402 -0.40803632
-0.054583166 1.024067 -0.1788529
0.1349625 2.3392546 -0.42848361
0.045053806 2.1725783 -0.41861993
-0.015740694 0.98881495 -0.20019577
-0.047921464 0.90442878 -0.19284239
0.11107793 1.8936589 -0.42067462
0.024789181 1.1697718 -0.27096272
-0 0 -0
-0 0 -0
0.13083625 2.195106 -0.57525676
0 0 -0
-0 0 -0
-0 0 -0
0.14023331 2.3069594 0.71402711
0.052863825 2.3556736 0.69983721
-0.03672532 2.3655813 0.67764163
-0.12641028 2.3901513 0.66067094
0.13975967 2.3232696 0.62142366
0.053167015 2.34185 0.59969699
-0.0354187 2.3973353 0.58948314
-0.1251318 2.4204421 0.57087821
0.1398517 2.3254766 0.5290761
0.053329963 2.3635712 0.51210254
-0.034114234 2.370667 0.48991358
-0.12614372 2.4743555 0.48711258
0.13963749 2.3307397 0.43992141
0.054142587 2.3720496 0.42255101
-0.03277396 2.3605738 0.39730793
-0.12301957 2.4314339 0.38629085
0.14089453 2.3482888 0.35402024
0.055367172 2.3730502 0.33343223
-0.031804066 2.3805084 0.31139904
-0.12241363 2.4628961 0.2990225
0.14043884 2.3338802 0.2643677
0.055748954 2.3876264 0.24684657
-0.031065511 2.3972697 0.22493914
-0.11872593 2.4124796 0.20401551
0.14177258 2.3498883 0.17957233
0.056343969 2.3810551 0.15865307
-0.03042399 2.3928919 0.13693681
-0.12011422 2.4572873 0.11696786
0.14190622 2.3398747 0.092553586
0.057464413 2.379241 0.071216859
-0.029400893 2.4083116 0.049525503
-0.11979315 2.471952 0.026997527
0.14149371 2.3276939 0.006634267
0.058581803 2.3892264 -0.016309801
-0.02851909 2.415519 -0.03887644
-0.11669412 2.4263968 -0.062295672
0.14360985 2.3422558 -0.079486653
0.0592044 2.3790345 -0.10302916
-0.027109934 2.4214673 -0.12801361
-0.11682035 2.4414544 -0.15249421
0.14556472 2.3486376 -0.16611624
0.060389429 2.3766174 -0.1904446
-0.026605079 2.4101937 -0.21600765
-0.11726465 2.4660666 -0.24520583
0.14518701 2.3319955 -0.2514334
0.061204854 2.3680184 -0.27743289
-0.025722079 2.3868158 -0.30213502
-0.11681322 2.4692903 -0.33761805
0.14866336 2.3566599 -0.34212613
0.063156344 2.3918028 -0.3695018
-0.025523385 2.4558911 -0.40381804
-0.048994526 1.0391432 -0.18143003
0.14868651 2.3285656 -0.42668477
0.059386175 2.2095616 -0.42580819
-0 0 -0
-0 0 -0
0.14012377 2.1618309 -0.48043078
0.042373311 1.5503742 -0.35917789
-0 0 -0
-0 0 -0
0.14208072 2.1604745 -0.56639892
0 0 -0
-0 0 -0
-0.036703147 0.77729732 -0.22843572
0.15457737 2.3089154 0.71491265
0.066988327 2.3438063 0.69642055
-0.022191644 2.3638394 0.67709094
-0.11223724 2.401474 0.66359782
0.15426807 2.3262243 0.62245548
0.067088455 2.3259861 0.59572875
-0.020540517 2.3780866 0.58470809
-0.11023361 2.420192 0.57064891
0.15321475 2.3109522 0.52597558
0.067382902 2.3475685 0.50871533
-0.019672524 2.3835623 0.49254426
-0.1090694 2.4329329 0.47881719
0.1528994 2.3141499 0.43695897
0.068154603 2.3529749 0.41921967
-0.018518321 2.3903134 0.40228674
-0.10761587 2.4212897 0.38456705
0.15353815 2.3207388 0.35000232
0.069839373 2.3696961 0.33301491
-0.01721127 2.3826418 0.31165844
-0.10600339 2.4338472 0.29541111
0.15396738 2.3210766 0.26301944
0.069870345 2.3693426 0.244996
-0.016437059 2.4093623 0.22606009
-0.1048213 2.4340689 0.20578298
0.15519626 2.3340509 0.17843148
0.071101412 2.3856516 0.15898541
-0.015786875 2.400022 0.1373367
-0.10413879 2.4370208 0.11597057
0.1559277 2.3339748 0.092356324
0.072092354 2.3798428 0.071246773
-0.014598937 2.4044476 0.049443271
-0.10394692 2.4566557 0.026822999
0.15630791 2.3347642 0.0066570262
0.072872981 2.3768277 -0.01622791
-0.013657522 2.4086494 -0.038763802
-0.10184573 2.4280663 -0.062321313
0.15824808 2.345319 -0.07962206
0.073676832 2.3746319 -0.10285614
-0.012216214 2.4145977 -0.12764409
-0.10179609 2.4411283 -0.15243194
0.1582776 2.3228197 -0.16435578
0.074876636 2.3732131 -0.19020505
-0.011859852 2.4192755 -0.216811
-0.1014723 2.4508317 -0.24362449
0.15962885 2.3330445 -0.25164738
0.075797096 2.3695836 -0.27766553
-0.011113198 2.394865 -0.30313963
-0.099092782 2.4075928 -0.32909304
0.16216363 2.341881 -0.34011871
0.077670246 2.3864317 -0.36873868
-0.010592441 2.488564 -0.409172
-0.043384336 1.0581261 -0.18469441
0.16352117 2.3354595 -0.4281238
0.078710683 2.3838468 -0.45947936
-0.0036981294 1.0144166 -0.20535445
-0 0 -0
0.15670383 2.2076745 -0.49082315
0.040771779 1.218063 -0.28224343
-0.0035794065 1.0108887 -0.24431846
-0 0 -0
0 0 -0
0 0 -0
-0 0 -0
-0 0 -0
0.16902038 2.3117352 0.7160933
0.081002466 2.3328128 0.69328868
-0.0076932316 2.3658538 0.67764163
-0.099063717 2.4406438 0.67424095
0.16804969 2.3184886 0.62064976
0.081223682 2.3216579 0.5947367
-0.0059873275 2.3937051 0.58852816
-0.093886986 2.3828912 0.56170744
0.16718018 2.3070509 0.52531123
0.081275515 2.3324597 0.50553977
-0.0050531114 2.3865762 0.49315134
-0.091787562 2.3727665 0.46685642
0.16674185 2.3082671 0.43603319
0.08248727 2.3495607 0.41869369
-0.0038671724 2.4002435 0.40394634
-0.091812126 2.3972313 0.38064927
0.16820304 2.3256707 0.3508952
0.0834971 2.3444819 0.32953733
-0.0026172099 2.4064999 0.31477112
-0.088469893 2.3650093 0.28698453
0.16763152 2.3121598 0.26212063
0.084513307 2.3718517 0.24530444
-0.0016572791 2.4153917 0.22662057
-0.088928342 2.4087763 0.20359468
0.1683587 2.317143 0.17721455
0.084626995 2.3542588 0.15692496
-0.001065613 2.4120541 0.13802226
-0.088854864 2.4286301 0.11554316
0.16893676 2.3150358 0.091646194
0.086220294 2.36637 0.070857935
0.00015520115 2.4114904 0.049587179
-0.088256814 2.4402595 0.026637562
0.16982868 2.3227904 0.0066257319
0.08708778 2.3663428 -0.016159669
0.0011223959 2.4096878 -0.038779892
-0.087160058 2.4346395 -0.062475123
0.17248893 2.3423107 -0.079554364
0.087800607 2.3621547 -0.10233711
0.002590033 2.4056399 -0.12716898
-0.086035483 2.4197633 -0.15106204
0.17178799 2.3118572 -0.1636516
0.089324348 2.3697207 -0.18996549
0.0029515892 2.3924105 -0.21440099
-0.087063514 2.4693089 -0.24540348
0.17216624 2.3082249 -0.24907956
0.090221621 2.3660963 -0.27731654
0.0035831113 2.3958805 -0.30326521
-0.085184954 2.4329102 -0.33247596
0.17571142 2.3299863 -0.33854139
0.092273444 2.3849225 -0.36858606
0.0046754447 2.4875953 -0.40900975
-0.040391333 1.1587948 -0.20221891
0.17687675 2.3216612 -0.4257853
0.094719537 2.4186418 -0.46628928
0.0055700275 2.236625 -0.45277181
-0 0 -0
0.17520337 2.270915 -0.50511265
0.086617149 2.1863756 -0.5067296
0.0025829975 0.99533939 -0.24055971
-0 0 -0
0 0 -0
0 0 -0
0 0 -0
-0 0 -0
0.18252209 2.3020823 0.71343672
0.095158242 2.3284407 0.69214982
0.0068318378 2.3687406 0.67846769
-0.081663966 2.3708789 0.65481728
0.18227251 2.3174138 0.62064976
0.095746264 2.3278916 0.5964728
0.0086544007 2.381073 0.58542436
-0.079458192 2.3892593 0.56308305
0.18163861 2.3098702 0.52619708
0.095745802 2.3358233 0.50638664
0.0095986109 2.388521 0.49355608
-0.07741829 2.3791692 0.46801391
0.18220785 2.3238556 0.43918082
0.096780628 2.3460596 0.41816771
0.010811435 2.3893747 0.4021208
-0.077006035 2.3947883 0.38017914
0.18239255 2.3236091 0.35074639
0.097880997 2.3439255 0.32953733
0.0121088 2.3985384 0.31373358
-0.074949518 2.3972595 0.29083666
0.18173757 2.3100967 0.26200828
0.098691441 2.3623438 0.24437913
0.013103632 2.4044046 0.22559303
-0.073227137 2.3793972 0.20106974
0.18233818 2.3130841 0.17698637
0.099406563 2.3616705 0.1574567
0.013797026 2.422997 0.13865066
-0.073069938 2.4001756 0.11416595
0.18439977 2.3298936 0.092277423
0.10005807 2.349818 0.070379369
0.014951825 2.4114439 0.049587179
-0.073041923 2.432759 0.026550295
0.18510535 2.3346639 0.0066627157
0.10139121 2.3607688 -0.016125549
0.01590134 2.4086359 -0.038763802
-0.071775235 2.42014 -0.062090583
0.18948178 2.3740847 -0.080671512
0.10164434 2.3465996 -0.10168831
0.017379522 2.4095728 -0.12738013
-0.070276842 2.3893194 -0.14913175
0.18645017 2.3167255 -0.16407411
0.10364471 2.3641486 -0.18956622
0.017777892 2.412267 -0.21618618
-0.070433468 2.4190679 -0.240363
0.15863322 1.9642277 -0.21206
0.10403508 2.3496222 -0.27545536
0.018389883 2.4097021 -0.30502328
-0.069082946 2.3927813 -0.32692793
0.16553985 2.0290022 -0.29495117
0.10663971 2.3783877 -0.36767033
0.019598862 2.445091 -0.40203339
-0.061640736 2.1466994 -0.37454307
0.19087665 2.3175912 -0.42524567
0.10658041 2.3522921 -0.45361528
0.016283728 1.8876393 -0.38213784
-0 0 -0
0.18564817 2.227962 -0.49580285
0.098472066 2.1517413 -0.49883312
0.01020933 1.1692888 -0.28261068
-0 0 -0
0.18320507 2.1738818 -0.5707013
0 0 -0
0 0 -0
-0 0 -0
0.19574903 2.2904475 0.71018982
0.1088132 2.3144069 0.6881637
0.021296658 2.3609636 0.67626488
-0.06785132 2.3973517 0.66200137
0.19559015 2.3056624 0.61781222
0.11030263 2.333066 0.59796089
0.023188323 2.3732066 0.58351427
-0.065060303 2.3994319 0.56537575
0.19622034 2.3135705 0.52730435
0.11030643 2.3400729 0.5074451
0.024174565 2.380583 0.49193722
-0.063802496 2.4168727 0.47534475
0.19563508 2.312902 0.43732929
0.11191977 2.3611557 0.420973
0.025314471 2.3744724 0.39963141
-0.062413178 2.3991649 0.38080597
0.19522819 2.3056955 0.34821662
0.11240338 2.3462481 0.32995465
0.026770277 2.3934615 0.31308508
-0.059789993 2.3798106 0.28866982
0.19574063 2.3069582 0.26178357
0.1127561 2.3527517 0.24345385
0.027695047 2.390341 0.22428523
-0.058159795 2.3608747 0.19947061
0.19669646 2.3139086 0.17713848
0.11293408 2.3410835 0.15612739
0.028297873 2.3919196 0.13687968
-0.058559779 2.4095662 0.11459336
0.19971161 2.3406653 0.09275084
0.11442574 2.3481615 0.070349455
0.029550552 2.3953116 0.04925824
-0.058256678 2.4391594 0.026615744
0.19925679 2.3314917 0.0066570262
0.11553145 2.3531108 -0.016077779
0.030527323 2.3964953 -0.038570706
-0.056924183 2.4205348 -0.062090583
0.19984968 2.3240855 -0.079012714
0.11609025 2.3469293 -0.10173156
0.032030761 2.3994358 -0.12685224
-0.055800695 2.3976877 -0.14962988
0.19962837 2.3036122 -0.16322909
0.11700424 2.3405702 -0.18772966
0.032256119 2.3882103 -0.21404395
-0.05549759 2.4154751 -0.23996767
0.13296357 1.529368 -0.16519709
0.1186002 2.3519156 -0.27580431
0.032943007 2.3926802 -0.30288848
-0.055165377 2.4268386 -0.33152875
0.12909858 1.470928 -0.21393637
0.12047635 2.3628836 -0.36538097
0.034391835 2.4301248 -0.39959976
-0 0 -0
0.12796655 1.4452856 -0.26532882
0.12020438 2.3359036 -0.45058867
0.032857288 2.2256081 -0.4505893
-0 0 -0
0.19313554 2.1577411 -0.48043078
0.055306189 1.0653327 -0.24704759
0 0 -0
-0 0 -0
0.17501238 1.9347295 -0.50818992
0 0 -0
0 0 -0
-0 0 -0
0.20971207 2.2882519 0.70989466
0.12341926 2.3213539 0.69044149
0.035782855 2.3607883 0.67626488
-0.052179027 2.3543556 0.65002787
0.20938344 2.3005698 0.61678034
0.12451261 2.3304107 0.59746486
0.037471585 2.3555424 0.57921672
-0.04994861 2.3812962 0.56101966
0.21067756 2.3152366 0.52796876
0.12409069 2.3286166 0.5051164
0.038621563 2.3705978 0.48991358
-0.048693389 2.4034843 0.47264388
0.20857942 2.2979562 0.43473712
0.1255631 2.3446953 0.41816771
0.039800666 2.3693423 0.39880159
-0.047141481 2.3718541 0.37641811
0.20964043 2.3074086 0.34866303
0.12583536 2.3277152 0.32745075
0.041043624 2.3694584 0.30997241
-0.045073569 2.3741777 0.28794757
0.20989217 2.3057137 0.26178357
0.12713648 2.3510222 0.24335104
0.042273168 2.3851488 0.22381818
-0.043764777 2.3661685 0.19989143
0.21252054 2.3305321 0.17850752
0.12697142 2.3343685 0.15572859
0.043027692 2.3946958 0.13705108
-0.04362873 2.4018905 0.11421344
0.21261302 2.3234746 0.092119612
0.12861253 2.3434229 0.070229813
0.044432022 2.4050813 0.049463827
-0.043182731 2.4334722 0.026550295
0.21237238 2.3172793 0.006620043
0.12908506 2.3363824 -0.015968593
0.045193631 2.3942637 -0.038538527
-0.042070989 2.4208386 -0.062090583
0.21245505 2.3049018 -0.078403369
0.13054404 2.3471706 -0.10177482
0.046460979 2.3842177 -0.12606041
-0.041241597 2.4069662 -0.15019029
0.21458927 2.3112831 -0.16386285
0.13186638 2.3487654 -0.18844832
0.046772361 2.3809967 -0.21341912
-0.040625207 2.4127853 -0.23967117
0.14400455 1.546343 -0.16712296
0.13229966 2.3382525 -0.27429211
0.047564361 2.3894572 -0.30251175
-0.039846141 2.4013741 -0.32801047
0.13580723 1.445475 -0.21035166
0.13446505 2.35322 -0.36400738
0.04884176 2.4071774 -0.39586821
-0.038676366 2.3531587 -0.41045111
0.13924421 1.4699351 -0.27000582
0.13430902 2.3312006 -0.44983199
0.045447722 2.1744094 -0.44027197
-0 0 -0
0 0 -0
0.081269868 1.3995402 -0.3246589
0.025312833 1.205032 -0.29130277
-0 0 -0
0.18809025 1.9461377 -0.51147997
0 0 -0
0 0 -0
-0.012478223 0.75599164 -0.22195728
0.22430676 2.2926271 0.71166569
0.13709281 2.3109837 0.68759429
0.050083499 2.3518741 0.6737867
-0.037886441 2.3642697 0.65268862
0.22237386 2.2877026 0.61368489
0.13834842 2.3218663 0.59548074
0.051581763 2.3397348 0.57539666
-0.035061941 2.3630662 0.55666357
0.22384202 2.3032238 0.52553266
0.13843447 2.3287871 0.50532812
0.053012826 2.3634627 0.48849708
-0.033460043 2.3693988 0.46589187
0.22191681 2.2888081 0.43325594
0.13953675 2.3370011 0.41694036
0.054360539 2.3700392 0.39896753
-0.032763537 2.3849368 0.37845534
0.22350793 2.3031261 0.34821662
0.14017509 2.3278875 0.32758984
0.055697858 2.3741186 0.31062087
-0.030607061 2.3823507 0.2889106
0.22393964 2.3033931 0.26167122
0.14120086 2.3442404 0.24273418
0.056859866 2.3828537 0.22363134
-0.029639462 2.3982766 0.20258471
0.22440039 2.3043737 0.17660607
0.14165427 2.3395214 0.15612739
0.057407673 2.3814116 0.1363084
-0.028830122 2.3971188 0.11397599
0.22705992 2.3241155 0.092198521
0.14335448 2.3485758 0.070409276
0.058696482 2.3847737 0.049052656
-0.028296843 2.437691 0.026593929
0.22580793 2.3079705 0.0065972833
0.1428055 2.3255653 -0.015900351
0.059833694 2.391942 -0.038506344
-0.027115075 2.4120545 -0.061859857
0.22884394 2.3264313 -0.079181984
0.14445074 2.3383479 -0.10142879
0.060935903 2.3778982 -0.12574369
-0.026384152 2.3991899 -0.14969215
0.2289636 2.3119082 -0.16400369
0.14590377 2.3419428 -0.18796921
0.0612013 2.3736954 -0.21279432
-0.025766633 2.4080138 -0.23917699
0.15231085 1.5335577 -0.16583905
0.14689319 2.341362 -0.27475742
0.06225073 2.3901122 -0.30263734
-0.024903651 2.3817585 -0.32530412
0.14003885 1.3983316 -0.20361237
0.14858945 2.3474188 -0.36324424
0.063532792 2.4038732 -0.39538151
-0.025007965 2.4282176 -0.42350858
0.14510016 1.4377341 -0.26424953
0.14867298 2.3313127 -0.45002118
0.060563844 2.2397335 -0.45356545
-0 0 -0
0.14834616 1.455907 -0.32454517
0.088606887 1.379571 -0.32014662
0.031519376 1.1611295 -0.28073129
-0 0 -0
0.21289469 2.0700548 -0.54438066
0 0 -0
0 0 -0
-0.0078194132 0.75413501 -0.22139393
0.23589817 2.2674501 0.70428634
0.15076905 2.3024464 0.68531656
0.064223379 2.3409519 0.67075783
-0.023378842 2.3644576 0.65268862
0.23809607 2.3026326 0.61807019
0.15265608 2.3219407 0.59572875
0.065608814 2.3277256 0.57253158
-0.020807369 2.391463 0.56331235
0.23686703 2.291137 0.52309662
0.15240113 2.3230176 0.50426966
0.067066282 2.3474305 0.48525929
-0.018936723 2.3715219 0.46627766
0.23777154 2.3049986 0.43658864
0.15257956 2.3164535 0.4134337
0.068529204 2.3568468 0.39681005
-0.018211799 2.3959568 0.38017914
0.23580745 2.2840059 0.34553799
0.15432495 2.3250077 0.32731166
0.069824055 2.358865 0.30867544
-0.015948685 2.3765373 0.28818831
0.23765992 2.2980223 0.2612218
0.15426426 2.3234797 0.24067798
0.071270704 2.3754938 0.22297746
-0.014873757 2.3904419 0.20191139
0.23935737 2.3108881 0.17721455
0.15554173 2.3316391 0.15566212
0.072018661 2.3810146 0.1363084
-0.014127019 2.3982494 0.11402348
0.23863141 2.2968378 0.091172777
0.15756132 2.34466 0.070319548
0.073051475 2.3753748 0.048867628
-0.013317034 2.4338188 0.026550295
0.2411034 2.3174827 0.0066285776
0.15781376 2.3356199 -0.015975416
0.07410448 2.3785379 -0.038297158
-0.012304269 2.4101763 -0.061808582
0.2409316 2.3041091 -0.078471065
0.15845728 2.3324339 -0.10121253
0.074986249 2.3605118 -0.12484626
-0.011720718 2.4112833 -0.15043937
0.2430405 2.3094678 -0.16393326
0.16020283 2.340009 -0.18788937
0.075764872 2.373275 -0.21279432
-0.010959062 2.401161 -0.23848516
0.15639667 1.4821669 -0.1603824
0.16084711 2.3344715 -0.27405947
0.07640437 2.3738201 -0.30062813
-0.010391708 2.4056456 -0.32855177
0.15520975 1.4594454 -0.21264587
0.16312711 2.3484349 -0.3635495
0.077831782 2.389631 -0.39311013
-0.010177942 2.4450724 -0.42642933
0.14868028 1.387912 -0.25525531
0.16311185 2.3323157 -0.45039949
0.067999564 2.0492814 -0.41507387
-0.0038656944 1.0044756 -0.21387596
0.14479104 1.3394648 -0.29878074
0.073811591 1.0485852 -0.24343775
0.038934376 1.1696576 -0.28284562
-0 0 -0
0.22464842 2.0600541 -0.54210299
0 0 -0
0 0 -0
-0 0 -0
0.25033 2.2707083 0.70576221
0.16455124 2.2966971 0.68389297
0.078360163 2.3337882 0.66883039
-0.0089246035 2.3790159 0.65667981
0.25053599 2.2857616 0.6139428
0.16669191 2.3180614 0.59498471
0.079890236 2.3272793 0.57253158
-0.0061756722 2.408093 0.56720996
0.25230172 2.302242 0.52597558
0.1659524 2.3122904 0.50215262
0.081434608 2.3459961 0.48505697
-0.0044394089 2.4010298 0.47206512
0.25062829 2.291774 0.43436685
0.16650724 2.3115458 0.41273239
0.082885131 2.3534253 0.39631218
-0.003518824 2.4019494 0.3811194
0.25035536 2.287431 0.34628206
0.16851635 2.323029 0.32717252
0.084083952 2.3524468 0.30789727
-0.0013810634 2.4024014 0.29131818
0.25348836 2.3123248 0.26301944
0.168302 2.3195131 0.24036954
0.085737228 2.3720269 0.22269721
-0.00020746161 2.4074278 0.2033422
0.25211766 2.2964909 0.1762258
0.16854009 2.3127282 0.15446575
0.086118646 2.36656 0.13550861
0.00059279695 2.415272 0.11483081
0.25272006 2.2953303 0.091172777
0.17165236 2.3396618 0.070199907
0.087145895 2.3618934 0.048600368
0.0016175131 2.4348547 0.026561204
0.25542822 2.3169537 0.0066314223
0.17206836 2.3336105 -0.015968593
0.08839938 2.3700452 -0.038168427
0.0024886483 2.4142053 -0.061911132
0.25638527 2.3145077 -0.078877307
0.17306116 2.335403 -0.10138554
0.089317344 2.3560157 -0.1246351
0.0030939493 2.4262807 -0.15137339
0.25753802 2.3109071 -0.16414452
0.17389017 2.3300357 -0.1871707
0.090249814 2.370775 -0.21261582
0.0037869052 2.4091437 -0.23927581
0.16604014 1.48612 -0.16091737
0.17271459 2.3007565 -0.27022079
0.090778425 2.3683498 -0.30000025
0.0043872474 2.4155722 -0.32990494
0.15740937 1.3984747 -0.20389915
0.1771611 2.3424623 -0.36278635
0.092416465 2.3871362 -0.39278564
0.0048268754 2.4460738 -0.42660111
0.16948988 1.4954685 -0.27522245
0.17667446 2.3214798 -0.44850785
0.083653606 2.1271746 -0.43094671
0.0024051161 1.0514278 -0.22387211
0.15744209 1.3773497 -0.30744106
0.093184412 1.2171316 -0.28269464
0.053961568 1.3685048 -0.3310045
0.001892591 0.97636324 -0.24649633
0.22897616 1.9865556 -0.52312177
0 0 -0
0 0 -0
0.0014702743 0.77240491 -0.22674571
0.26425809 2.2691295 0.70576221
0.17960724 2.3080688 0.68759429
0.092869312 2.3380663 0.67020708
0.0056706327 2.3780618 0.65641367
0.2646676 2.285141 0.61420077
0.18076131 2.3150632 0.59448868
0.094168648 2.3267453 0.57253158
0.0085585099 2.3964052 0.56445867
0.26720852 2.3074317 0.52752584
0.17990939 2.3083055 0.50151753
0.095348105 2.3337104 0.48262867
0.01024264 2.3892374 0.46975017
0.26716775 2.3116696 0.43844017
0.18076424 2.3114619 0.41290772
0.097201653 2.3499167 0.39581433
0.011187034 2.3950121 0.38002244
0.26529497 2.2937102 0.34747255
0.18175685 2.3091178 0.3253642
0.098267719 2.3459423 0.30711907
0.01327149 2.386481 0.28939211
0.26767173 2.3107259 0.26301944
0.18260919 2.3194287 0.24047238
0.10003769 2.3654876 0.22213672
0.014552184 2.4053907 0.20317386
0.26712304 2.3028245 0.17683426
0.18367107 2.3235867 0.15526333
0.099874265 2.3480325 0.13448028
0.015406241 2.4142239 0.11478332
0.26726097 2.2977066 0.09133058
0.18632203 2.34255 0.070319548
0.1013786 2.3553209 0.048477016
0.01657787 2.4377987 0.026593929
0.26906163 2.3103764 0.0066171982
0.18566701 2.3235395 -0.015907174
0.10228907 2.3544741 -0.037927058
0.017309049 2.415144 -0.061936766
0.2702336 2.3099129 -0.078775749
0.18698797 2.329318 -0.10116928
0.103684 2.3534281 -0.12452953
0.017907303 2.4162357 -0.1507507
0.27287826 2.3191903 -0.1648487
0.1878626 2.3249505 -0.18685131
0.10461893 2.3661964 -0.21225876
0.018538382 2.4050949 -0.23888049
0.17399107 1.475199 -0.15984745
0.15674937 1.9294121 -0.22671558
0.10473559 2.3548639 -0.29836777
0.019208835 2.4154997 -0.32990494
0.16738802 1.4092757 -0.20561981
0.1508396 1.8439091 -0.28571144
0.10670815 2.3786383 -0.39148772
0.019787682 2.4400878 -0.42557031
0.17165633 1.4357964 -0.26442939
0.1597538 1.9416189 -0.37530139
0.098440535 2.1648064 -0.43868473
0 0 -0
0.16565675 1.3744192 -0.30700803
0.097919695 1.1835265 -0.27502379
0.048416715 1.062281 -0.25700423
0 0 -0
0 0 -0
0 0 -0
0 0 -0
0 0 -0
0.27922332 2.2760003 0.70841879
0.19312403 2.2992811 0.68531656
0.10681725 2.3288095 0.66772896
0.020245614 2.3760545 0.65588158
0.28161013 2.3074501 0.62064976
0.19414949 2.3042572 0.59200853
0.10835308 2.3241837 0.57205415
0.023139583 2.3836544 0.5614782
0.28336966 2.3222044 0.53129071
0.19333223 2.298393 0.49961221
0.10989559 2.3379724 0.48364043
0.024841171 2.3832426 0.46859267
0.28039637 2.3021827 0.43695897
0.19527483 2.3142335 0.41360909
0.11175904 2.352231 0.39631218
0.025903687 2.3968735 0.38033584
0.28008178 2.2979288 0.3483654
0.19701082 2.3207862 0.32717252
0.11223213 2.3363817 0.30595183
0.027972473 2.3913183 0.28999403
0.28220624 2.3119991 0.26335651
0.19683748 2.3182645 0.24047238
0.11426115 2.3588626 0.22157627
0.029213974 2.3972852 0.20250055
0.28136885 2.3021319 0.17691033
0.19716232 2.3134682 0.15466514
0.11369707 2.3354092 0.13379474
0.030156838 2.40909 0.11454587
0.2819621 2.3009825 0.091527842
0.19983849 2.3314037 0.070020437
0.11582867 2.3546546 0.048477016
0.031289846 2.4186537 0.026386674
0.28213683 2.2997489 0.0065915938
0.19854823 2.3064158 -0.015797988
0.11579292 2.3348279 -0.037621323
0.032154366 2.4169917 -0.061988041
0.28452408 2.3092031 -0.078809597
0.20230949 2.340071 -0.10168831
0.11787204 2.3477607 -0.12426558
0.032597505 2.4061005 -0.15012802
0.28685814 2.3154926 -0.16470787
0.20082901 2.3088582 -0.18565352
0.11823389 2.3476045 -0.2106521
0.033143889 2.393991 -0.23779333
0.17948647 1.4454898 -0.15674464
0.13943516 1.5949736 -0.18751438
0.11923295 2.3551676 -0.29849333
0.033918034 2.4074106 -0.32882237
0.16903494 1.3522468 -0.19744664
0.13062145 1.4845977 -0.23015642
0.12079849 2.3680842 -0.38986531
0.034619074 2.4300699 -0.42385218
0.18034022 1.4337401 -0.26424953
0.13134399 1.4847955 -0.28715098
0.11162062 2.162204 -0.43828788
0.028635841 1.9667004 -0.41879705
0.16966721 1.3385098 -0.29921377
0.14098756 1.5856144 -0.36865368
0.05980457 1.1561234 -0.27979162
0 0 -0
0.25505289 1.9970312 -0.52666491
0 0 -0
0 0 -0
0.011411192 0.80494875 -0.23632254
0.29648167 2.2998295 0.71638846
0.20636757 2.2885056 0.68246937
0.12075496 2.3213899 0.66580153
0.034838557 2.3768494 0.65614766
0.29453379 2.2960958 0.61807019
0.20784822 2.2981985 0.59076852
0.1221514 2.3147476 0.56990534
0.037811238 2.3863873 0.56216604
0.29724094 2.3175204 0.53062636
0.20637651 2.2854831 0.4970718
0.12387517 2.3304086 0.48222393
0.039512746 2.3859887 0.46917143
0.29289469 2.2877471 0.43455198
0.20849425 2.3022063 0.4116804
0.12640134 2.3554399 0.39697605
0.040375885 2.3828444 0.37814191
0.29329669 2.2893012 0.34732375
0.21124718 2.3195338 0.32717252
0.12715594 2.3465402 0.30737847
0.042326156 2.3732352 0.28782716
0.29524907 2.3013535 0.26234534
0.21051697 2.3110695 0.23985551
0.12856989 2.3551347 0.22129603
0.043740336 2.3870981 0.2016589
0.29548916 2.3003621 0.17691033
0.21135378 2.3122149 0.15466514
0.12802474 2.3346677 0.13379474
0.044695962 2.3958766 0.1139285
0.29684106 2.3051555 0.091764554
0.21176164 2.3042543 0.069242768
0.13010862 2.3509047 0.04841534
0.045767508 2.3994207 0.02617942
0.29688179 2.3029332 0.0066058179
0.21333954 2.3121245 -0.015845757
0.13006131 2.333075 -0.037605233
0.046789832 2.406754 -0.061731681
0.30305004 2.3411133 -0.0799606
0.21528172 2.3238635 -0.10103951
0.13182588 2.3390172 -0.12384328
0.047105081 2.3928831 -0.14931853
0.30106035 2.3136888 -0.16470787
0.21425237 2.2996423 -0.18501472
0.13319832 2.3567791 -0.21154469
0.047633711 2.3837934 -0.23680499
0.18500967 1.4187275 -0.15396282
0.13875896 1.4823436 -0.17436975
0.13311934 2.344487 -0.29723758
0.048769135 2.4111195 -0.32936364
0.18376794 1.4002466 -0.20461608
0.13704124 1.4552343 -0.22573034
0.13465071 2.3554766 -0.38791841
0.048946835 2.4012492 -0.41886976
0.1774178 1.343861 -0.24788009
0.13416038 1.4174863 -0.27428779
0.12409407 2.1477797 -0.43551016
0.040297948 1.9469303 -0.41463196
0.16963953 1.2755069 -0.28535727
0.13152893 1.3829927 -0.32172593
0.066784941 1.1537938 -0.27932176
0.033040788 1.6237069 -0.41001126
0 0 -0
0 0 -0
0 0 -0
0.016233124 0.79910773 -0.23463251
0.31020364 2.2951264 0.71550292
0.22160105 2.2996006 0.6861707
0.13454983 2.3129275 0.66359866
0.049301725 2.3708084 0.65455115
0.31003368 2.3047781 0.62090772
0.22157307 2.2930226 0.5897764
0.13686623 2.322679 0.57205415
0.051961109 2.3637285 0.55689287
0.31119537 2.3137197 0.53018337
0.22067769 2.2870922 0.49770692
0.13846186 2.3344927 0.48323572
0.054018553 2.3798153 0.46801391
0.3109805 2.3160999 0.44029167
0.22403857 2.3155828 0.4143104
0.13967398 2.3349326 0.39365685
0.05499598 2.3825519 0.37814191
0.30878651 2.298239 0.34896064
0.22375003 2.3004527 0.32466868
0.14059603 2.3298795 0.30530334
0.056982432 2.3769007 0.28830871
0.31148419 2.3152554 0.26414299
0.22401929 2.302804 0.23913585
0.14229386 2.342376 0.22017506
0.058045316 2.3728387 0.2004806
0.31385764 2.3301272 0.17934416
0.22544037 2.3098817 0.15459868
0.14216524 2.3308487 0.13362338
0.058999807 2.37958 0.11316866
0.31245029 2.3141832 0.092198521
0.22765273 2.3208177 0.069781162
0.14422421 2.3450727 0.048312549
0.060211975 2.3880992 0.026059432
0.31288192 2.3149424 0.0066456469
0.22693455 2.304801 -0.015804812
0.14455968 2.335227 -0.037653506
0.0606618 2.3714445 -0.060834415
0.31431836 2.3164318 -0.079181984
0.22865228 2.3135507 -0.10065024
0.14542764 2.3262043 -0.1232098
0.061683588 2.3885581 -0.14906946
0.317812 2.3305769 -0.1660458
0.22865435 2.3012602 -0.18525428
0.14715832 2.347965 -0.21083063
0.062207524 2.3814666 -0.23660731
0.18576905 1.3594446 -0.14765026
0.14558326 1.4587333 -0.17169431
0.1465676 2.328774 -0.29535392
0.063588686 2.4117656 -0.32949898
0.19073868 1.3873274 -0.20289543
0.14409262 1.4356824 -0.22283049
0.14885168 2.350667 -0.38726944
0.063601337 2.3979492 -0.41835433
0.1867381 1.3505424 -0.24931915
0.14581102 1.4459461 -0.27996272
0.13802069 2.158715 -0.43789104
0.038546182 1.4362751 -0.30592385
0.18325245 1.3160208 -0.29466709
0.13873592 1.3695593 -0.31879294
0.073614746 1.1494823 -0.27838209
0 0 -0
0.27362981 1.9515958 -0.51552933
0 0 -0
0 0 -0
0 0 -0
0.32414666 2.2922339 0.71520776
0.23482673 2.2896152 0.68360823
0.14799853 2.3005459 0.66029441
0.06343253 2.3550436 0.65029389
0.32363099 2.2990055 0.61987591
0.2359359 2.2945111 0.59052044
0.15079999 2.3169503 0.57086033
0.066381603 2.3604462 0.55620503
0.32620177 2.3175607 0.5315122
0.23550554 2.293473 0.49940053
0.15201569 2.3218725 0.48080742
0.06861981 2.3794391 0.46801391
0.324092 2.3063631 0.4388105
0.23773839 2.3092678 0.4134337
0.15315422 2.3212397 0.39149937
0.06921012 2.3683486 0.37594798
0.32439706 2.3070729 0.35059759
0.23765729 2.2970665 0.32439044
0.15357329 2.3091857 0.30270943
0.071326688 2.3685679 0.28734568
0.32665417 2.3201883 0.26492947
0.2387591 2.3073225 0.23975268
0.15560025 2.3255641 0.21868044
0.072695129 2.3754258 0.2007331
0.33065411 2.3459299 0.18071321
0.2389912 2.3025 0.15419988
0.15586235 2.3209674 0.13310921
0.073445097 2.3741813 0.11293121
0.32594511 2.3072753 0.092001259
0.24323657 2.3323011 0.070169993
0.15780066 2.3321733 0.048065845
0.07486394 2.3876846 0.026059432
0.32806036 2.3199098 0.0066655609
0.24159271 2.3083379 -0.015838932
0.15847825 2.3283107 -0.037556957
0.075370036 2.3760233 -0.060962595
0.3293685 2.3203964 -0.079385094
0.24284366 2.3121042 -0.10065024
0.16031402 2.3342347 -0.12368491
0.075955696 2.3761642 -0.14832225
0.3298527 2.3127825 -0.16491911
0.24266565 2.2988224 -0.18517442
0.16087838 2.3370812 -0.20993802
0.076690406 2.3770618 -0.23621199
0.20057718 1.4035552 -0.15257193
0.1554734 1.4667016 -0.17274122
0.16030681 2.3199131 -0.29434934
0.077387869 2.3806312 -0.32530412
0.19431919 1.3518451 -0.19787681
0.15216602 1.4278922 -0.22176214
0.16306709 2.3467562 -0.38678274
0.077992067 2.3876679 -0.41663623
0.19080012 1.3201641 -0.24392264
0.15499398 1.4479533 -0.28053021
0.15290865 2.181293 -0.44265291
0.051581509 1.5640696 -0.33320498
0.18710668 1.2858886 -0.28817186
0.11475209 1.0674365 -0.24862689
0.090809323 1.2934835 -0.3133854
0.033201113 1.0175154 -0.25702199
0 0 -0
0.11373322 1.0505395 -0.2871525
0 0 -0
0.025881892 0.79405338 -0.23322415
0.34071794 2.3072155 0.72052097
0.24617614 2.2633533 0.67620552
0.16312568 2.3139791 0.66442472
0.077690423 2.3488297 0.6486975
0.33730969 2.2941089 0.619102
0.25043035 2.2968726 0.59151256
0.16473764 2.3121071 0.56990534
