# .PCD v0.7 - Point Cloud Data file format
VERSION 0.7
FIELDS x y z
SIZE 4 4 4
TYPE F F F
COUNT 1 1 1
WIDTH 1570
HEIGHT 1
VIEWPOINT 0 0 0 1 0 0 0
POINTS 1570
DATA ascii
-0.89724743 1.5886643 -0.21368729
-0.82860065 1.3492477 -0.20041874
-0.83936459 1.2611504 -0.206901
-0.8164469 1.5799462 -0.25767002
-0.83413577 1.4788471 -0.26220739
-0.6971966 1.1362548 -0.21918769
-0.66574383 1.0006249 -0.20960668
-0.78144944 1.5150726 -0.31173888
-0.72783506 1.2918079 -0.28563765
-0.65495127 1.0688697 -0.25376651
-0.66228837 0.99610966 -0.25469357
-0.69326985 1.347283 -0.33602008
-0.77743089 1.381299 -0.36707437
-0.5316242 0.8678059 -0.2459629
-0 0 -0
-0.62608802 1.2195475 -0.35861805
-0.63008296 1.1214671 -0.34956554
-0 0 -0
-0.45607513 0.68538535 -0.24167429
-0.84981662 1.6601603 0.57618064
-0.91950071 1.6385059 0.55804753
-0.57724053 0.94288027 0.31665498
-0.5848586 0.87983727 0.29162118
-0.85555083 1.6687765 0.50069875
-0 0 0
-0.53578222 0.87663794 0.25260153
-0.67180943 1.0132489 0.28635618
-0.87423903 1.7051551 0.43517563
-0.56474465 1.0066359 0.25001782
-0.74362648 1.2177598 0.29483855
-0 0 0
-0 0 0
-0.69766092 1.2443174 0.2540566
-1.2185614 1.9977841 0.39382279
-1.2978667 1.9621738 0.37328389
-0.82493484 1.6084367 0.27202561
-0.89949828 1.6062108 0.25859427
-1.2721864 2.0881588 0.31982926
-1.2973213 1.9651487 0.28553998
-0 0 0
-0.90494591 1.6160047 0.19143204
-1.2025446 1.9756335 0.21699901
-1.3264582 2.0114217 0.20351054
-0.86264628 1.68334 0.14428154
-0.91942674 1.6430744 0.12542033
-0.9770599 1.6060734 0.10757281
-1.3438509 2.0392666 0.11611304
-0.87214643 1.7031964 0.075549915
-0.93780398 1.6778393 0.05751786
-0.99217451 1.6327791 0.039287355
-1.342234 2.0386713 0.026626654
-0.87167311 1.7028581 0.0054422612
-0.9093079 1.6282575 -0.012727105
-0.97551459 1.6068157 -0.030251535
-1.3598058 2.0670094 -0.063449293
-0.87256044 1.7067943 -0.064929903
-0.90642136 1.6244872 -0.080537491
-0.96087492 1.5848837 -0.097976603
-1.3077595 1.9889535 -0.14850907
-0.87429827 1.7129958 -0.13576604
-0.90643597 1.6265143 -0.14916162
-0.92612106 1.5281014 -0.16013129
-0 0 -0
-0.87006259 1.7058731 -0.2060684
-0.92371631 1.6592244 -0.22241159
-0.84035134 1.3874005 -0.2053162
-0.76743126 1.1685524 -0.19093348
-0.8103286 1.5919819 -0.25881714
-0.86778706 1.560812 -0.2757909
-0.69174421 1.1430439 -0.21967442
-0.68878663 1.049161 -0.21888435
-0.77926725 1.5338709 -0.31461704
-0.83860612 1.5100018 -0.33273947
-0.6686582 1.1064216 -0.2617029
-0 0 -0
-0.68278319 1.3471574 -0.33493754
-0.77413952 1.3954141 -0.36955616
-0.70372987 1.1647298 -0.32889023
-0 0 -0
-0.73427933 1.4521537 -0.42568496
-0.63300765 1.1430403 -0.35507259
-0 0 -0
-0.45133448 0.68736881 -0.24139263
-0.84950703 1.6849658 0.58296961
-0.9242776 1.6709598 0.56715852
-0 0 0
-0.59583855 0.9083963 0.2998696
-0.84921473 1.6817565 0.50302035
-0 0 0
-0.63817626 1.0587183 0.30393359
-0.68902677 1.0531915 0.296444
-0.87255138 1.7278967 0.43960488
-0.55903035 1.0109373 0.25022951
-0.83264208 1.3825326 0.33348933
-0.81241399 1.2437332 0.29207462
-0 0 0
-0.80096722 1.4493462 0.29490903
-0.81537026 1.355406 0.26619965
-1.2895812 1.97589 0.37438086
-0.83466846 1.6523044 0.27857327
-0.88053334 1.5952272 0.25595132
-1.190918 1.9820349 0.30245003
-1.2803624 1.9655855 0.28445658
-0.85858691 1.7003907 0.21538159
-0.90174264 1.6337187 0.19287138
-0.98132384 1.6346953 0.1788864
-1.2939832 1.9886202 0.20039642
-0.8514027 1.6868211 0.14412943
-0.90884578 1.6478113 0.12535387
-0.96924138 1.6154625 0.10780132
-1.2888415 1.9821558 0.11240882
-0.85447997 1.6942409 0.074918695
-0.90916336 1.6502935 0.056381263
-0.96826094 1.6156815 0.038732272
-1.1483027 1.7676358 0.022994258
-0.86300892 1.7117462 0.0054536406
-0.90074652 1.6364343 -0.012747576
-0.95433694 1.5938982 -0.029897526
-1.3068204 2.0132642 -0.061552223
-0.86207134 1.7121161 -0.064929903
-0.89932519 1.6352707 -0.080797002
-0.96138144 1.6078913 -0.09903238
-1.0853127 1.6729084 -0.12441137
-0.86108297 1.7129805 -0.13534354
-0.91227531 1.6608772 -0.15179671
-0.94227719 1.5765021 -0.16459426
-1.0014851 1.5446997 -0.18284191
-0.85333091 1.6987412 -0.20457049
-0.89392906 1.6291605 -0.21764231
-0.839454 1.4053062 -0.20719983
-0.72468591 1.1183606 -0.18200251
-0.80719787 1.6101948 -0.26096797
-0.84347105 1.53924 -0.27105957
-0.8161996 1.3675691 -0.26185709
-0.66466182 1.0260825 -0.21321467
-0.7284658 1.4559302 -0.29770795
-0.81046611 1.4806648 -0.32517293
-0.56049585 0.94043416 -0.22162408
-0 0 -0
-0.68409657 1.3705388 -0.33970073
-0.74359614 1.3599629 -0.35895225
-0.65328312 1.0963794 -0.30845204
-0 0 -0
-0.71586788 1.4375795 -0.42011714
-0.61349946 1.1240325 -0.34799209
-0 0 -0
-0.45754263 0.70623082 -0.24702606
-0.83405364 1.6798773 0.57942754
-0.89657152 1.6446162 0.55633926
-0 0 0
-0.57454133 0.88775736 0.29188725
-0.84920436 1.7076979 0.50921142
-0 0 0
-0.6698758 1.1268885 0.32231763
-0 0 0
-0.85324836 1.715755 0.43517563
-0.64027601 1.174825 0.28981742
-0.82714385 1.3926675 0.33470348
-0.79519939 1.2338488 0.28860214
-0.99857765 2.0068483 0.42233196
-0.87917626 1.614182 0.32734552
-0.87949055 1.4825126 0.29009786
-1.2956133 2.0119982 0.37970901
-0.8161459 1.6405729 0.27574587
-0.89628261 1.6475743 0.26346293
-1.0043502 1.695004 0.25770509
-1.3112155 2.0402148 0.2940869
-0.85787088 1.7252011 0.21785337
-0.88171965 1.6208715 0.19071238
-0.95453769 1.6124128 0.17580375
-1.2564555 1.957112 0.19644068
-0.84103656 1.6920135 0.14412943
-0.89204663 1.6410838 0.12442335
-0.95219356 1.6093501 0.10700153
-1.2572381 1.9597601 0.11069918
-0.84229034 1.6958724 0.074760884
-0.88137364 1.6233389 0.055274572
-0.95934635 1.6233137 0.038773388
-1.089952 1.7005644 0.022034345
-0.85204494 1.7161137 0.0054507959
-0.88735092 1.6357776 -0.012699808
-0.95470631 1.6169437 -0.030219354
-1.0448271 1.6314754 -0.049682721
-0.85465759 1.7236412 -0.065166868
-0.88927448 1.640758 -0.080797002
-0.94946873 1.6103191 -0.09882123
-1.0502771 1.6408683 -0.12154704
-0.86073446 1.7387934 -0.13696314
-0.89732194 1.6576773 -0.1509982
-0.95939046 1.627731 -0.16932501
-0.97590178 1.5256671 -0.17987691
-0.84112823 1.7003804 -0.20414253
-0.86832571 1.6057842 -0.2138036
-0.85699862 1.4548805 -0.21372975
-0.81440765 1.2738823 -0.20649505
-0.79204577 1.6044683 -0.2592473
-0.77624971 1.4374273 -0.25228685
-0.85333765 1.4499382 -0.27662104
-0.68222594 1.0674955 -0.22094604
-0.72560525 1.4727261 -0.3002263
-0.77945513 1.4449911 -0.31628221
-0.61530149 1.0469445 -0.2458301
-0.64857906 1.0155503 -0.25656787
-0.6726597 1.3685774 -0.33818516
-0.71675265 1.3301946 -0.34992769
-0.70858812 1.2059622 -0.33805215
-0 0 -0
-0.67295969 1.3724537 -0.39987051
-0.58007836 1.0784833 -0.33278221
-0.50144857 0.85393846 -0.27960607
-0 0 -0
-0 0 0
-0.90007341 1.6754205 0.56488079
-0 0 0
-0.57997733 0.90832758 0.29747489
-1.0545484 2.1536775 0.64025468
-0 0 0
-0.75919914 1.2951789 0.36911339
-0.69435048 1.0903029 0.30446836
-1.0528446 2.1501029 0.54369271
-0.81386232 1.515389 0.37259218
-0.90915179 1.5523612 0.37173536
-0.83920872 1.31985 0.3075079
-1.0013782 2.0438244 0.4288123
-0 0 0
-0.87187129 1.4904348 0.29059574
-1.3007206 2.0474203 0.38488045
-0.79475409 1.6224606 0.27187681
-0.86369842 1.6111494 0.25678593
-0.93940723 1.6078162 0.24356827
-1.2545505 1.9786342 0.28409544
-0 0 0
-0.8731674 1.6288812 0.19102079
-0.94713575 1.6225387 0.17627083
-1.2433569 1.9631008 0.19627234
-0.85737693 1.7517731 0.14876895
-0.8796047 1.6421286 0.12409103
-0.93425125 1.6013649 0.10608747
-1.1025617 1.742081 0.098019354
-0.84986705 1.7378114 0.076378405
-0.89214396 1.6674954 0.056590635
-0.9574219 1.6429907 0.039102327
-1.0730842 1.6970783 0.02190345
-0.89639848 1.8336078 0.005806406
-0.88908255 1.6632386 -0.012870412
-0.94627613 1.6253635 -0.030267626
-1.033195 1.6353203 -0.049605813
-0.84713477 1.7351395 -0.065403841
-0.88060218 1.6488274 -0.080926768
-0.93756247 1.6126614 -0.098610066
-1.0279329 1.6278722 -0.12011488
-0.82033032 1.6830678 -0.13217472
-0.89604729 1.6798627 -0.15251538
-0.93837464 1.614642 -0.1673613
-0.96758431 1.5333096 -0.18007459
-0.83067906 1.7055094 -0.20414253
-0.87807304 1.6478966 -0.21868922
-0.89539117 1.5416101 -0.22565944
-0.82454681 1.307349 -0.21109585
-0.78607965 1.6173089 -0.2605378
-0.81941187 1.5398778 -0.26938072
-0.90088505 1.5524412 -0.29511651
-0.69247591 1.098328 -0.22644395
-0.71612579 1.4762657 -0.30004644
-0.77333939 1.454949 -0.3174172
-0.82902086 1.4306144 -0.33471781
-0 0 -0
-0.75482911 1.5598625 -0.3843013
-0.71771425 1.3517766 -0.35443997
-0.67583734 1.1665521 -0.32583624
-0.52954429 0.8398391 -0.25065762
-0.57830572 1.1979531 -0.34798861
-0.60643804 1.1442662 -0.3519257
-0.50970149 0.88031888 -0.2872144
-0.44832984 0.71098077 -0.24674439
-1.0350554 2.150578 0.73734587
-0.8875339 1.6766756 0.56345719
-0 0 0
-0.58775103 0.93307543 0.3043929
-1.0736189 2.2271211 0.66011751
-0.87791038 1.659546 0.48065042
-0.51362115 0.88868189 0.25236276
-0.66123933 1.0525085 0.29277569
-1.065464 2.2101061 0.55720192
-0 0 0
-0.61312532 1.0617876 0.25335476
-0.78208387 1.2468392 0.28937382
-1.0020541 2.077369 0.43455198
-0 0 0
-0.58729297 1.0182419 0.19782418
-1.2592868 2.0093346 0.37626138
-1.0064305 2.0869071 0.34866303
-0.86258405 1.6330557 0.25942892
-0.93001914 1.6144092 0.24369796
-1.2950296 2.0704598 0.29613337
-1.0881869 2.2574418 0.28335544
-0.86036897 1.6289309 0.19040394
-0.92871934 1.6136502 0.1746828
-1.2207283 1.9537916 0.19458905
-0.93014801 1.9303656 0.1634481
-0.8778953 1.6633786 0.1252874
-0.93934178 1.6330295 0.10780132
-1.0897357 1.7454243 0.097829394
-1.0034711 2.0842097 0.09133058
-0.87723446 1.664096 0.056291528
-0.94782072 1.6497014 0.039122887
-1.0308985 1.6527255 0.021248963
-0.98487604 2.0463185 0.0064607295
-0.88072437 1.6722018 -0.012897709
-0.93180543 1.6233346 -0.030122805
-1.0146813 1.628055 -0.049195636
-1.0018617 2.0844023 -0.078335658
-0.88303018 1.6780711 -0.082094602
-0.93360895 1.6287804 -0.099243544
-1.0063157 1.6155115 -0.11874498
-0.84148967 1.7537217 -0.13731523
-0.89314264 1.699447 -0.15379299
-0.92498344 1.6143199 -0.16673648
-0.96183902 1.5451312 -0.18076642
-0.91391104 1.9060173 -0.22746699
-0.8707152 1.6585296 -0.21938716
-0.85929334 1.5005853 -0.21887836
-0.83744568 1.3460345 -0.21650857
-0.82440978 1.722981 -0.27674076
-0.82509142 1.573761 -0.27441728
-0.87419182 1.5279628 -0.28943807
-0.69664943 1.1201236 -0.23005193
-0.66890371 1.4007417 -0.28385687
-0.77396381 1.4779344 -0.32138965
-0.79543072 1.3922721 -0.32459888
-0.62057912 0.99851155 -0.25032026
-0.65161598 1.3679149 -0.33602008
-0.70669699 1.3509754 -0.35308629
-0.77472788 1.3563648 -0.37751901
-0.63192028 1.0159682 -0.30206203
-0.55516547 1.1682744 -0.33837146
-0.64898384 1.2429167 -0.38103431
-0.62690401 1.0982277 -0.35704798
-0 0 -0
-1.0472021 2.2104223 0.75564671
-0.86437446 1.6574407 0.55520034
-0 0 0
-0.5764184 0.92765784 0.30146605
-1.038395 2.188278 0.64670366
-0.86994976 1.6691968 0.4818905
-0.58363724 1.0242814 0.28984714
-0.72501415 1.1698951 0.32418546
-1.0414311 2.194577 0.55166537
-0 0 0
-0.57704401 1.0136149 0.24101079
-0.81830239 1.3225392 0.30577165
-1.0263819 2.1615977 0.45084539
-0 0 0
-0.71995586 1.2661389 0.24512275
-1.2677077 2.0506268 0.38252982
-1.0020881 2.1109095 0.35163924
-0.85894734 1.6506159 0.26137635
-0.91128165 1.6045656 0.24136344
-1.2828225 2.079212 0.29625377
-1.0444967 2.2012353 0.2754907
-0.85770434 1.6482975 0.19204889
-0.91781795 1.6175863 0.17449597
-1.1731666 1.9035616 0.18886586
-1.033232 2.1783788 0.18390763
-0.86399007 1.6616517 0.12475568
-0.93324381 1.64571 0.10825834
-1.090005 1.7699388 0.098826684
-1.0043577 2.1192219 0.092593037
-0.87714225 1.6889625 0.05694956
-0.94753528 1.6728847 0.039534055
-1.0128782 1.646245 0.021085342
-1.00484 2.1210048 0.0066769402
-0.87873733 1.6935512 -0.013020544
-0.94447905 1.6690509 -0.030863002
-0.9858253 1.6035922 -0.048272736
-1.0343598 2.1862729 -0.081924066
-0.87593573 1.6896664 -0.082397379
-0.91278929 1.6153513 -0.098082177
-0.97809714 1.5918928 -0.1165656
-1.0496807 2.2224674 -0.17351013
-0.88544804 1.7102064 -0.15427209
-0.9224087 1.6329734 -0.16807538
-0.96639872 1.5739001 -0.18343492
-0 0 -0
-0.85550332 1.6541368 -0.21810761
-0.869578 1.5403869 -0.22390139
-0.81414211 1.3266581 -0.21258436
-0 0 -0
-0.81405896 1.5761597 -0.2739594
-0.86431527 1.5324386 -0.28927585
-0.72273195 1.1781188 -0.2410477
-0.70004803 1.4893937 -0.30094585
-0.76353019 1.4800376 -0.32082215
-0.80611193 1.4312862 -0.3325353
-0.57661325 0.94059491 -0.23490952
-0.64611137 1.378075 -0.33753562
-0.68500656 1.3293062 -0.34631786
-0.63762563 1.1324089 -0.31409016
-0.52528262 0.8561914 -0.25359502
-0.74758983 1.5984337 -0.46162269
-0.59499884 1.1567708 -0.35349914
-0.47998193 0.85295939 -0.27634537
-0 0 -0
-1.0186805 2.1847663 0.74472523
-0.85988295 1.673798 0.55890167
-0 0 0
-0.58733833 0.95829886 0.31024662
-1.0265838 2.1981096 0.64773548
-0.86013383 1.6753652 0.48213851
-0.55403847 0.98635697 0.2781482
-0 0 0
-1.0300092 2.2053435 0.55277264
-0.76797122 1.4953374 0.36412415
-0.57273078 1.0205525 0.24182022
-0.77336931 1.267231 0.29188174
-1.0251648 2.1936731 0.45621482
-0 0 0
-0.7951076 1.418489 0.27366784
-1.2427611 2.0381286 0.37876874
-1.0092089 2.1600218 0.35878214
-0.83976859 1.6382304 0.25859427
-0.89802849 1.6040705 0.24045557
-1.2442371 2.0446415 0.29023477
-1.0309705 2.2076027 0.2754907
-0.86481637 1.6871665 0.19595568
-0.90787536 1.6231875 0.17449597
-0.99066079 1.6297352 0.16109145
-1.0190027 2.1828706 0.18375552
-0.86514968 1.6891237 0.12641731
-0.9260512 1.6566341 0.10860112
-1.0018588 1.6493891 0.091750666
-0.98964596 2.1217225 0.092435233
-0.86403108 1.6889737 0.056770097
-0.92847979 1.6629542 0.039164003
-0.99757034 1.6438804 0.02097626
-0.98039711 2.1026599 0.0066001285
-0.88334763 1.7282948 -0.013245743
-0.90450829 1.621549 -0.029881436
-0.973894 1.6061915 -0.04817019
-1.0255662 2.2025447 -0.082296453
-0.86646038 1.6967888 -0.08248388
-0.90966356 1.6331353 -0.09882123
-0.97555262 1.6098142 -0.11743735
-1.0385468 2.2342937 -0.17393263
-0.87720209 1.7200472 -0.15467134
-0.91818595 1.649045 -0.16914649
-0.93765068 1.5483063 -0.17977808
-0.82301933 1.7719096 -0.21024112
-0.84849358 1.6655499 -0.21892187
-0.87313461 1.5690999 -0.22729193
-0.86242104 1.4248681 -0.22746933
-0.87686586 1.8918983 -0.3021206
-0.79899508 1.5705549 -0.27212793
-0.85777289 1.5428876 -0.29024929
-0.67724168 1.1193168 -0.22816202
-0.62069142 1.3418844 -0.27036557
-0.73308259 1.442675 -0.31174228
-0.80587763 1.4516301 -0.33610669
-0.59562773 0.98512733 -0.24511392
-0.78815848 1.7082362 -0.41721049
-0.68345124 1.3465152 -0.34970209
-0.73160952 1.318176 -0.3643634
-0.66759229 1.1032817 -0.32556117
-0.57354987 1.2461847 -0.35887116
-0.57044506 1.1259668 -0.34300956
-0.66286105 1.1950458 -0.38585094
-0.44758618 0.73963517 -0.25378618
-1.0144198 2.2109489 0.7515142
-0.84916377 1.6781873 0.558617
-0.90878057 1.6385096 0.53666133
-0.57945263 0.95858496 0.30918232
-1.0054115 2.1876874 0.64283425
-0.8520236 1.6849339 0.48337859
-0 0 0
-0.61813426 1.0253224 0.28200006
-1.0229738 2.2257991 0.55631608
-0.89995027 1.7790953 0.4318682
-0.57736057 1.0437573 0.2464745
-0.7620371 1.2660676 0.29053131
-1.0305724 2.2409921 0.46473181
-0.82924777 1.6403909 0.32734552
-0.88176668 1.5959718 0.30685982
-1.0816065 1.7985709 0.33300933
-0.98891395 2.1508996 0.35625237
-0.83818078 1.6601484 0.26123726
-0.8943969 1.6208365 0.24214162
-1.2051036 2.0079753 0.28397506
-1.0186502 2.2165956 0.27582777
-0.86027563 1.7039845 0.19729221
-0.90943474 1.6496534 0.17673789
-0.96527171 1.6101439 0.1585665
-1.0001788 2.1773031 0.18276677
-0.84488219 1.6748017 0.12495508
-0.8985247 1.6308056 0.10654449
-0.96246082 1.606663 0.089043744
-0.94076222 2.0496554 0.089042388
-0.8680439 1.722808 0.057727233
-0.90379786 1.6423426 0.038547248
-0.98489743 1.6456803 0.02092172
-0.9595536 2.091367 0.0065460759
-0.85474133 1.6979548 -0.012972776
-0.89309645 1.62444 -0.029833162
-0.97376823 1.6284386 -0.048657279
-1.0041226 2.1915326 -0.081653245
-0.85603273 1.7020733 -0.08248388
-0.90106744 1.6413122 -0.0989796
-0.97231281 1.6269071 -0.11824683
-1.0181795 2.22611 -0.17280595
-0.86707896 1.7262881 -0.1547512
-0.90182096 1.6432967 -0.16798612
-0.95466542 1.5984557 -0.18491741
-0.90636361 1.9831038 -0.2346355
-0.84493911 1.6840408 -0.22066672
-0.84249943 1.5361544 -0.22176661
-0.8389349 1.4054608 -0.2235451
-0.77571899 1.7009454 -0.2708618
-0.78845787 1.5736607 -0.27182269
-0.85540235 1.5611022 -0.29268292
-0.71882069 1.2046645 -0.24465565
-0.67968071 1.4933957 -0.30004644
-0.73871863 1.4761239 -0.3179847
-0.75884831 1.3869015 -0.32003546
-0.65268666 1.0946125 -0.27135384
-0.49234444 1.0845401 -0.26413947
-0.67299831 1.3463264 -0.34857401
-0.76595712 1.400242 -0.38574123
-0.70105493 1.1747978 -0.34538856
-0 0 -0
-0.5415532 1.0854077 -0.32963532
-0.67259622 1.2303344 -0.39590478
-0.47795156 0.8008672 -0.27378488
-1.0314964 2.2850564 0.77453786
-0.83029962 1.6662064 0.55292261
-0.89824861 1.6432115 0.53638595
-0.58639348 0.98365009 0.31610033
-0.99993038 2.2114222 0.64799345
-0.84426004 1.6953331 0.48486665
-0.57305729 1.0501945 0.29414469
-0.54716623 0.92032969 0.25219518
-1.009699 2.2329226 0.55653751
-0.8389008 1.6839821 0.40752268
-0.5953207 1.0919918 0.25699723
-0.74974686 1.2631257 0.28879508
-1.0208535 2.2562268 0.46658331
-0.82618713 1.6595496 0.33015087
-0.87855953 1.613477 0.30918324
-0.91689491 1.5460782 0.2852127
-0.99648321 2.2028768 0.36384171
-0.83415091 1.6776741 0.26318473
-0.89485663 1.6454575 0.24499491
-0.97382629 1.645413 0.23185076
-0.9788298 2.1648574 0.26863712
-0.86840308 1.7466398 0.20161022
-0.8741039 1.6088359 0.17178699
-0.95283842 1.6117475 0.15814568
-0.98146176 2.171587 0.18177801
-0.89185697 1.7952276 0.13352913
-0.89802951 1.6538355 0.10768706
-0.95106024 1.6099582 0.088901274
-0.93927151 2.0799775 0.090107583
-0.86589789 1.7451143 0.058295533
-0.89084375 1.6425841 0.038423896
-0.97173178 1.6465256 0.020856272
-0.93600595 2.0735178 0.0064721089
-0.86695778 1.74886 -0.013320809
-0.89454418 1.6509882 -0.030219354
-0.95969582 1.627494 -0.048452191
-0.99846041 2.2149642 -0.082296453
-0.84823334 1.7126654 -0.082743406
-0.89002919 1.6450536 -0.098874018
-0.95927155 1.6276834 -0.11787323
-1.0016358 2.2259476 -0.17231302
-0.85735422 1.7333628 -0.15491091
-0.90498775 1.6733297 -0.17048538
-0.96200925 1.6334366 -0.18827775
-0.94147652 2.0938172 -0.24704668
-0.82579106 1.6713845 -0.21834025
-0.86655009 1.6032611 -0.23068248
-0.86799037 1.4746218 -0.23369394
-0.84507585 1.8835543 -0.29910946
-0.78184819 1.5846729 -0.27289104
-0.78532571 1.4543172 -0.27175382
-0.88727105 1.5079193 -0.30513236
-0.80717826 1.8027916 -0.36120698
-0.73094958 1.4832712 -0.3185522
-0.7731176 1.4338038 -0.32975757
-0.7793138 1.3253982 -0.32737389
-0.76235926 1.7070824 -0.41461241
-0.77185512 1.5680726 -0.40475196
-0.72183567 1.3390334 -0.36765227
-0.72186202 1.2267083 -0.3593412
-0 0 -0
-0.56849939 1.1571335 -0.35035226
-0.57739776 1.071767 -0.34373343
-0.45988885 0.78145742 -0.26617974
-1.0670882 2.4031153 0.81232017
-1.0721592 2.1850429 0.72289932
-0.89498806 1.6613873 0.54051626
-0.5837664 0.99304658 0.31796288
-1.0099016 2.2704821 0.66347092
-1.0769567 2.196274 0.62623441
-0 0 0
-0 0 0
-1.0023204 2.2533319 0.56008095
-1.065712 2.1725748 0.52416945
-0 0 0
-0.89959782 1.5369936 0.3501423
-1.0113859 2.2723238 0.46861997
-0.97805983 1.9952068 0.39572516
-0.86631155 1.6144927 0.30835345
-0.86002725 1.470681 0.27032521
-0.9893803 2.2234049 0.36622268
-1.0372039 2.118571 0.33134568
-0.87584454 1.634312 0.2425307
-0.94419748 1.6179186 0.22715595
-0.98248845 2.208955 0.27335596
-0.86816633 1.7733767 0.20407766
-0.86844522 1.6220686 0.1726277
-0.94343281 1.6184247 0.15822986
-0.98229617 2.2094574 0.18444003
-0.96105933 1.9646891 0.1456923
-0.88409674 1.6522723 0.10723004
-0.95121896 1.6330259 0.089851074
-0.94190574 2.1204023 0.091606736
-0.85605133 1.7521907 0.058355354
-0.89252925 1.6700634 0.038937856
-0.94702554 1.6273937 0.020539938
-0.94802117 2.1349728 0.0066456469
-0.959728 1.9662259 -0.014931316
-0.87921685 1.6467437 -0.030042348
-0.94366181 1.6229815 -0.048144557
-0.99943513 2.2539396 -0.083515152
-0.99929488 2.0491929 -0.098703839
-0.88931441 1.6681077 -0.099929802
-0.95377934 1.6413052 -0.11843364
-0.98957384 2.2357006 -0.1725947
-0.92657173 1.9025919 -0.16952364
-0.90875626 1.7052205 -0.17316316
-0.9549669 1.6444718 -0.18887076
-0.91172034 2.0613647 -0.242553
-0.83854753 1.7237562 -0.22450542
-0.87768233 1.6479516 -0.23633339
-0.87036502 1.4996293 -0.23680626
-0.75958222 1.7212017 -0.27258247
-0.78247392 1.6107751 -0.27655402
-0.83339971 1.5662551 -0.29170945
-0.87750757 1.512483 -0.30496055
-0.58518201 1.3287752 -0.26550871
-0.65239447 1.3446096 -0.28790763
-0.78132069 1.4705454 -0.33709875
-0.78784585 1.3589243 -0.33445451
-0 0 -0
-0.8297736 1.7121726 -0.44062462
-0.69719076 1.3125339 -0.35919511
-0.73183894 1.2613053 -0.36815339
-0.5540086 1.2645059 -0.36114889
-0.56138867 1.1605999 -0.35035226
-0 0 -0
-0.44160125 0.76102704 -0.25829294
-0.97699308 2.2371268 0.75417084
-1.0562299 2.1864016 0.72119105
-0.87981915 1.6575072 0.53748739
-0 0 0
-0.96923244 2.21556 0.64567178
-1.079465 2.2359927 0.63565898
-0 0 0
-0.6220513 1.0761337 0.29277569
-0.98691189 2.2558661 0.5591951
-1.0744625 2.2248371 0.53517783
-0 0 0
-0.63266867 1.0963113 0.24886149
-0.99269515 2.267684 0.46639815
-1.0167207 2.1066821 0.41658971
-0.84440506 1.5971115 0.30403852
-0.59889764 1.0387127 0.19024628
-0.98325199 2.2466459 0.36905006
-0.99365723 2.0615587 0.32146928
-0.86857802 1.6449162 0.24330887
-0.93524253 1.6254026 0.22739671
-0.98922628 2.2613711 0.27908602
-1.0861616 2.2535799 0.25856692
-0.87798691 1.6643524 0.17655106
-0.92802268 1.6146797 0.15730403
-0.95154339 2.1761589 0.18116955
-0.9948768 2.0658402 0.15273765
-0.87114829 1.6523671 0.10688727
-0.93421668 1.6267051 0.089186214
-0.91727656 2.0995882 0.090462647
-1.0627788 2.2095988 0.073370412
-0.88319683 1.6772777 0.038978975
-0.94747221 1.6513877 0.020769008
-0.97532511 2.2333074 0.0069329794
-1.0156436 2.113584 -0.016002713
-0.8839922 1.6804241 -0.030557267
-0.93418276 1.6296084 -0.04817019
-0.99397612 2.2792678 -0.084226064
-1.02432 2.1336427 -0.10246687
-0.88324171 1.6814896 -0.1004049
-0.94418669 1.6479926 -0.1184959
-0.97464275 2.2389865 -0.17238344
-1.0230455 2.1338508 -0.18956622
-0.89086771 1.696655 -0.17173502
-0.92656469 1.6183479 -0.18521391
-0.92840201 2.1343889 -0.25047046
-0.92791021 1.9375874 -0.25160894
-0.86709321 1.6524274 -0.2362078
-0.85032117 1.4860222 -0.23382924
-0.73600459 1.6958706 -0.26785064
-0.76404834 1.5977144 -0.27350155
-0.8223992 1.5687174 -0.29122272
-0.84033 1.4690969 -0.29516745
-0.76974803 1.777357 -0.35419151
-0.58191937 1.2183361 -0.26010051
-0.70546377 1.3476657 -0.30793244
-0.80521703 1.4087378 -0.34549192
-0.46997544 1.0880414 -0.26284045
-0.77436751 1.6231489 -0.41648391
-0.68101138 1.3012853 -0.35496652
-0.73178899 1.2792377 -0.37206993
-0.44747984 1.0386498 -0.29585356
-0 0 -0
-0.45715976 0.87410367 -0.27851918
-0 0 -0
-0.9621169 2.2404456 0.75328529
-1.0510283 2.2101555 0.72688544
-0.86695927 1.6577631 0.53583527
-0 0 0
-0.96745533 2.2489786 0.65366852
-1.071962 2.2556987 0.63937914
-0.87178677 1.6700449 0.46318239
-0.58796602 1.0317266 0.2797074
-0.97459304 2.2654622 0.56008095
-1.0406493 2.1890197 0.52501619
-0 0 0
-0.60166901 1.0575303 0.23921567
-0.96710569 2.2466533 0.46084359
-1.00631 2.1182163 0.41764173
-0 0 0
-0.65742582 1.1565648 0.21108876
-0.96280295 2.2371953 0.36652029
-1.0310785 2.1731896 0.33788356
-0.85206217 1.6378998 0.24149314
-0.92084336 1.6233392 0.22631331
-0.97140574 2.2582703 0.27796248
-1.0637861 2.242228 0.2565107
-0.8516885 1.6387879 0.17328161
-0.92055386 1.6246784 0.15772486
-0.94092983 2.1883686 0.18170196
-0.96765053 2.0412509 0.15047783
-0.87203741 1.6789449 0.10825834
-0.93110758 1.6445758 0.089851074
-0.91265899 2.1244566 0.09129113
-1.0479178 2.2133682 0.073280685
-0.88393784 1.7039648 0.039472379
-0.94273686 1.6667441 0.020888995
-0.96041965 2.2364933 0.0069244448
-1.0171933 2.1505105 -0.016234737
-0.87044424 1.6796024 -0.030444629
-0.93055999 1.6466237 -0.048503462
-0.96579242 2.2522566 -0.083007358
-1.0287098 2.1769223 -0.10424025
-0.86785924 1.6771215 -0.09982422
-0.9208045 1.6302912 -0.11681467
-0.96245635 2.2485926 -0.17266512
-1.0469443 2.2185159 -0.19651328
-0.89279586 1.7259752 -0.17414501
-0.94302988 1.670799 -0.19055092
-0.91880703 2.1482728 -0.2514334
-0.90880466 1.9279717 -0.24963142
-0.85967124 1.6630045 -0.23696126
-0.86552703 1.5343603 -0.24059515
-0.86775011 2.0335081 -0.32033104
-0.82746506 1.75796 -0.30005804
-0.75253713 1.4571286 -0.26964468
-0.80129969 1.421023 -0.28451529
-0 0 -0
-0.61328536 1.3045275 -0.27769276
-0.76456356 1.482636 -0.33769396
-0.76726925 1.3616732 -0.3327885
-0 0 -0
-0.48985779 1.0432124 -0.26690167
-0.67345947 1.3063034 -0.35520145
-0.63819784 1.1316862 -0.32800901
-0.85993433 2.0301931 -0.57677525
-0.55078959 1.1752659 -0.35271242
-0 0 -0
-0.42185929 0.74800223 -0.25209615
-0.96544582 2.2867968 0.76686329
-1.039479 2.2209039 0.72830898
-0.86425573 1.6775796 0.54051626
-0.66521889 1.1808324 0.37410524
-0.94836897 2.2424145 0.65005714
-1.0269082 2.1955423 0.62053013
-0.85841459 1.6693176 0.46151111
-0.56493849 1.0056132 0.27168301
-0.95991439 2.2696035 0.55963802
-1.024713 2.1900525 0.52374607
-1.0136188 1.9729981 0.45834544
-0.56685036 1.0107095 0.22783366
-0.94870627 2.2416852 0.45862177
-1.0166459 2.1742938 0.42746034
-0 0 0
-0.81881028 1.4612757 0.26578063
-0.9505989 2.2467036 0.36711553
-0.99635619 2.1337144 0.33078924
-0.8487792 1.6563336 0.24343857
-0.91086543 1.6289588 0.22631331
-0.9606272 2.2715096 0.27886128
-1.0344368 2.2153656 0.25270674
-0.86384839 1.6874088 0.17785884
-0.9110536 1.6311662 0.15780903
-0.95466071 2.2583902 0.18702599
-0.9905442 2.1231041 0.1560609
-0.86808544 1.6967071 0.10905814
-0.9317084 1.6694471 0.090895846
-0.90621543 2.1456649 0.091961809
-1.0355836 2.2224743 0.073370412
-0.85617852 1.6755255 0.038691156
-0.91642314 1.6436763 0.02052903
-0.97468239 2.3086748 0.0071292766
-0.98161197 2.1086638 -0.015873054
-0.86375886 1.6920362 -0.030573361
-0.91703361 1.6461895 -0.048324011
-0.95700175 2.2701123 -0.083447449
-1.0300786 2.2148995 -0.10575411
-0.86072677 1.688643 -0.10019375
-0.91515332 1.6437588 -0.11737508
-0.94864112 2.2544558 -0.17266512
-1.0345716 2.2276101 -0.19675283
-0.88444954 1.7358581 -0.17459132
-0.94388765 1.6965543 -0.1928241
-0.90213984 2.1456211 -0.25047046
-0.93123102 2.0073924 -0.25917
-0.84945107 1.6682481 -0.23696126
-0.91002339 1.6366274 -0.25575075
-0.87056983 2.0752988 -0.32606658
-0.75518465 1.6302855 -0.27746975
-0.80532372 1.5830888 -0.29203394
-0.79400116 1.428496 -0.28503072
-0 0 -0
-0.82544231 1.7841611 -0.37870634
-0.62584442 1.2321341 -0.27975821
-0.71235901 1.2825614 -0.31237969
-0.56189674 1.3459867 -0.32346264
-0.48058689 1.0400078 -0.26532233
-0.6742335 1.3277445 -0.35989988
-0.65526682 1.1788007 -0.34049293
-0 0 -0
-0 0 -0
-0 0 -0
-0 0 -0
-0.92136741 2.2203143 0.74265897
-0.98171908 2.1314638 0.69699001
-0.85046583 1.6759927 0.53831345
-0.90130359 1.6231165 0.51246572
-0 0 0
-1.0053164 2.1842017 0.61556983
-0.84332913 1.665024 0.45888481
-0.54508322 0.98436636 0.2650342
-0.947842 2.2799528 0.56074536
-1.0198396 2.2149415 0.52819175
-1.0784296 2.1312234 0.49355608
-0.57345533 1.0373545 0.23304237
-0.95229614 2.2892013 0.46713874
-1.0181003 2.2126884 0.4337723
-0.76326817 1.5102894 0.28478715
-0.86903775 1.5734762 0.2852127
-0.9618578 2.3127556 0.37693706
-0.98696649 2.1478863 0.33204117
-0.84574854 1.6756736 0.24551371
-0.90372819 1.6397336 0.22703558
-0.95429969 2.2957122 0.28110835
-1.0158404 2.2108247 0.25147301
-0.85347843 1.6926775 0.17785884
-0.9058333 1.6454548 0.15865068
-0.93695962 2.2549975 0.18626542
-0.97958004 2.1336761 0.15639324
-0.84642655 1.6797125 0.10762993
-0.89496899 1.6269965 0.088283904
-0.8830719 2.1271906 0.090936065
-0.99818099 2.1769969 0.071665518
-0.86700612 1.7227215 0.039657407
-0.90246791 1.6422576 0.020441765
-0.94133431 2.2684307 0.0069870325
-0.95782733 2.0910096 -0.015695626
-0.8587501 1.708024 -0.030766454
-0.90595329 1.6500328 -0.048272736
-0.94688034 2.2851746 -0.083785981
-1.0110643 2.2093682 -0.10519183
-0.85796565 1.7090644 -0.10109116
-0.90601045 1.651093 -0.11749962
-0.93440896 2.2593126 -0.1725947
-1.0167406 2.2248499 -0.19595432
-0.86663437 1.7270088 -0.17316316
-0.91527885 1.6691576 -0.18906842
-0.85402203 2.0665784 -0.24062711
-0.90858555 1.9904802 -0.25626189
-0.82185453 1.6388428 -0.2320638
-0.87948877 1.6048187 -0.24993208
-0.69146144 1.6771076 -0.26283202
-0.78205669 1.7158237 -0.29120588
-0.7969209 1.5906471 -0.29252067
-0.72463745 1.3227516 -0.2630392
-0 0 -0
-0.67330837 1.4790776 -0.31306642
-0.6629985 1.3253602 -0.29999605
-0.73688185 1.3461061 -0.32674918
-0 0 -0
-0.4887127 1.0748638 -0.27344444
-0.65085679 1.301429 -0.35167763
-0.60982037 1.1130726 -0.32042074
-0 0 -0
-0.52476192 1.1564523 -0.3451075
-0 0 -0
-0 0 -0
-0 0 0
-1.0153123 2.2404778 0.73058677
-0.83200085 1.6648408 0.53308177
-0.88947618 1.6252338 0.51140136
-0 0 0
-1.0342567 2.2838726 0.64185929
-0.83786488 1.679726 0.46151111
-0.52877462 0.96889555 0.2599903
-0.93494105 2.2884338 0.56140971
-1.0114727 2.2327306 0.53094381
-0.94477808 1.8958846 0.43770471
-0.80461442 1.4768404 0.33065781
-0.93042266 2.2758992 0.46325055
-0.99678981 2.201853 0.43044096
-0.85153055 1.7109337 0.32163024
-0.86503291 1.5891885 0.28709325
-0.94540417 2.3131216 0.37604418
-0.994982 2.2008238 0.33927459
-0.8345682 1.6790555 0.24525429
-0.88891166 1.6365244 0.22583178
-0.95409924 2.3355598 0.28526545
-1.0084022 2.230612 0.25301519
-0.8510465 1.7139338 0.17954029
-0.88241482 1.626458 0.15629406
-0.97436827 2.3862474 0.19660926
-0.95291525 2.1096387 0.15419988
-0.85474336 1.7224355 0.11002933
-0.89734632 1.6552889 0.089518644
-0.92397732 2.2648716 0.096577652
-0.95068973 2.1074564 0.069182947
-0.86174703 1.7387584 0.03990411
-0.90094554 1.6635911 0.02063811
-0.92853057 2.2769418 0.0069955671
-0.94128138 2.0886424 -0.015634207
-0.85047191 1.7177413 -0.030846911
-0.89533603 1.6546812 -0.048247099
-0.92153382 2.2631726 -0.082770392
-0.99871933 2.2182634 -0.10532159
-0.85896891 1.7375716 -0.10246368
-0.89491302 1.6548653 -0.11737508
-0.91564602 2.25299 -0.17167926
-1.0034788 2.2319558 -0.19603416
-0.88117248 1.7831912 -0.17825095
-0.91306233 1.6896249 -0.19074859
-0.75603348 1.8617461 -0.21623273
-0.91466469 2.0367899 -0.26149648
-0.82408303 1.6687616 -0.23557992
-0.87527519 1.6206462 -0.25155589
-0.70085311 1.7299329 -0.27043164
-0.81841934 1.8251961 -0.30891022
-0.78365326 1.5884275 -0.29122272
-0.80449152 1.4901441 -0.29533926
-0 0 -0
-0.53739631 1.1999876 -0.25329062
-0.70942491 1.440187 -0.32499573
-0.70028132 1.298093 -0.3140457
-0.40261498 0.99873966 -0.23880808
-0 0 -0
-0.67206049 1.3646947 -0.36765227
-0.80059427 1.4828014 -0.42543256
-0 0 -0
-0 0 -0
-0 0 -0
-0 0 -0
-0 0 0
-1.0140358 2.274683 0.73969769
-0 0 0
-0.89138454 1.6527199 0.51831937
-0.91017175 2.2675605 0.65237874
-1.0036668 2.2530088 0.63144273
-1.0715668 2.1816568 0.59760076
-0.64545637 1.2001504 0.32097569
-0.92015541 2.2923176 0.56096685
-0.99934518 2.2424657 0.53179061
-1.0957668 2.2330933 0.51399446
-0.79043198 1.4722401 0.32853574
-0.92156839 2.2943318 0.46584266
-1.0092942 2.266386 0.44183758
-0.99811035 2.0366826 0.38170773
-0.85666609 1.5970773 0.28756335
-0.90208203 2.2463853 0.36428815
-0.99272645 2.2322226 0.34316948
-1.0683432 2.1828868 0.31788385
-0.88260114 1.6489499 0.22679482
-0.9079197 2.2620642 0.27560306
-0.98782527 2.2213063 0.2512674
-0.94240779 1.9275293 0.20130558
-0.8724184 1.6318418 0.15629406
-0.89251006 2.2246821 0.18284281
-0.98654526 2.2203064 0.16184342
-0.97082621 1.9868845 0.12653944
-0.87681842 1.6413808 0.088473856
-0.91154993 2.2742083 0.096735463
-0.92922682 2.0940635 0.068554826
-0.96462458 1.9767281 0.045228768
-0.89166254 1.6708523 0.020659925
-0.92681527 2.3132288 0.0070894482
-0.94668466 2.1355166 -0.015941296
-0.98756957 2.0258105 -0.036269661
-0.88563663 1.6610259 -0.048272736
-0.91839528 2.2956944 -0.083752126
-0.98711222 2.2289171 -0.10553785
-1.005625 2.0660508 -0.12146776
-0.89272118 1.6752989 -0.11843364
-0.90328425 2.2622714 -0.17196093
-0.98774898 2.2335126 -0.1956349
-0.90158916 1.8530494 -0.18467762
-0.91390288 1.7162758 -0.1931206
-0.75380647 1.8894367 -0.21890754
-0.91820246 2.0787046 -0.26614943
-0.805152 1.6559426 -0.23306841
-0.86671102 1.6286104 -0.25196186
-0.61995846 1.5576544 -0.24290095
-0.7374118 1.6719413 -0.28220108
-0.7738921 1.593206 -0.29122272
-0.78793025 1.4811368 -0.29259029
-0 0 -0
-0.58266932 1.3227799 -0.27844942
-0.67662346 1.3951277 -0.31388474
-0.74463916 1.4008201 -0.33778659
-0 0 -0
-0.49313986 1.1209081 -0.28359711
-0.80828315 1.6670409 -0.44776055
-0.64848608 1.2189095 -0.34857076
-0 0 -0
-0 0 -0
-0 0 -0
-0.36100969 0.67850506 -0.22561902
-0 0 0
-0.99774992 2.2755947 0.73798937
-1.0529485 2.1732502 0.6916846
-0.88303638 1.661563 0.51938373
-0 0 0
-0.99682164 2.2750969 0.63590699
-1.0767616 2.2266569 0.60810596
-0 0 0
-0.9014225 2.2861271 0.55808783
-0.98595917 2.2494504 0.53200233
-1.0765061 2.2283113 0.5113638
-0 0 0
-0.89773494 2.2752619 0.46084359
-0.99734372 2.2770452 0.44271421
-0.98002398 2.0312223 0.37955025
-0.86023396 1.6276261 0.29210797
-0.88465285 2.2426794 0.36280003
-0.98972595 2.2627687 0.34692532
-1.0510554 2.1813614 0.31671655
-0.86413109 1.6385286 0.22462799
-0.92974007 2.3581853 0.28661367
-0.98932379 2.2619569 0.25517419
-1.0609713 2.2042031 0.22951637
-0.86053157 1.6336377 0.1559574
-0.96584982 2.450902 0.20094457
-0.94213778 2.1559169 0.15672557
-0.97289854 2.0224936 0.12842467
-0.87417436 1.6608726 0.089233704
-0.9063639 2.3020728 0.097682297
-0.92115813 2.1107192 0.068913758
-1.0533534 2.1925862 0.050018907
-0.88558191 1.6842575 0.0207581
-0.88953269 2.2602489 0.0069102207
-0.96353662 2.2100334 -0.016453108
-1.0465028 2.1805685 -0.038924716
-0.89216489 1.6982883 -0.049195636
-0.90319532 2.2984958 -0.083650567
-0.98738027 2.2669904 -0.10705171
-1.0529103 2.1973596 -0.12880544
-0.88520861 1.6860472 -0.11880725
-0.8813737 2.2473407 -0.17041174
-0.9712429 2.2331328 -0.19507594
-0.93666989 1.9555612 -0.19431762
-0.89642012 1.7086332 -0.1916381
-0.78572965 2.0051131 -0.2317467
-0.87931228 2.0241756 -0.25847206
-0.81724924 1.7073842 -0.23959835
-0.85486132 1.6303877 -0.25142056
-0 0 -0
-0.91079187 2.0998499 -0.35347635
-0.75260836 1.573889 -0.28684223
-0.83873713 1.6002469 -0.31509727
-0 0 -0
-0 0 -0
-0.54854453 1.1489443 -0.25773469
-0.68566036 1.3091881 -0.31467047
-0 0 -0
-0.42165118 0.97459424 -0.24591953
-0.49573886 1.0386208 -0.27814716
-0.74812734 1.4272491 -0.40682909
-0 0 -0
-0 0 -0
-0 0 -0
-0 0 -0
-0.87865597 2.2734492 0.75299013
-0.9765572 2.2649488 0.73257977
-1.0437323 2.1883471 0.6944381
-0.8705889 1.6626801 0.51805335
-0 0 0
-0.97555995 2.2642663 0.63119471
-1.0597397 2.2262075 0.60619587
-0.88115013 1.6877216 0.4484489
-0.89829427 2.3198054 0.56495315
-0.97329879 2.2581503 0.53263742
-1.0333724 2.1729667 0.49719855
-0 0 0
-0.87097496 2.2477398 0.45417809
-0.97361708 2.2605166 0.43833089
-1.0365012 2.1823933 0.4066017
-0.95468521 1.833479 0.32799464
-0 0 0
-0.96291137 2.2387788 0.3423349
-1.0427501 2.1985204 0.31827292
-0.85909569 1.6534901 0.22595216
-0.88798559 2.2934215 0.27807483
-0.97188908 2.2597606 0.25424889
-1.0597893 2.2367642 0.23222536
-0.85508138 1.6477314 0.15679905
-0.89537221 2.3135784 0.18923166
-0.96198195 2.238663 0.16230868
-0.96303397 2.033839 0.12876745
-0.87040424 1.6786197 0.089898564
-0 0 0
-0.92001504 2.143888 0.069811068
-1.0492831 2.2188923 0.050471194
-0.88212961 1.702978 0.02092172
-0.89763761 2.3225625 0.0070837582
-0.95113999 2.2186613 -0.016473582
-1.0185827 2.1562102 -0.038377613
-0.87575448 1.6921889 -0.048862368
-0.88475734 2.2928054 -0.083244331
-0.96243882 2.2472913 -0.10584062
-1.0398338 2.2046821 -0.12885824
-0.87897319 1.6994255 -0.11936765
-0.86398274 2.2433977 -0.16970755
-0.95752233 2.2390501 -0.19507594
-0.91700792 1.9450554 -0.19271097
-0.89003128 1.7220573 -0.19252759
-0 0 -0
-0.87350786 2.0450602 -0.26044956
-0.91246468 1.9367331 -0.27099225
-0.82347029 1.5942281 -0.24506064
-0.59902364 1.5605252 -0.24218401
-0.73893732 1.7326814 -0.29090065
-0.75932527 1.6132966 -0.29316962
-0.69828475 1.3523915 -0.26544452
-0 0 -0
-0 0 -0
-0.82118887 1.7475045 -0.39086789
-0.64398038 1.2481802 -0.29905149
-0 0 -0
-0.41490057 0.97537017 -0.2454683
-0.46745136 0.99501544 -0.26569632
-0.45420113 0.87959123 -0.24992327
-0 0 -0
-0 0 -0
-0 0 -0
-0.35221592 0.68203157 -0.22533733
-0.84909761 2.2377062 0.73941207
-0.94056755 2.2188256 0.71578139
-1.0221149 2.1773057 0.68893105
-0.86125427 1.6697041 0.5185855
-0 0 0
-0.94086611 2.221148 0.61755395
-1.0369961 2.2133224 0.60094333
-0.87300378 1.6974244 0.44959524
-0.88196397 2.3198044 0.56362438
-0.96285671 2.2721789 0.53454274
-1.0262471 2.1925709 0.50023395
-0.85820669 1.6715935 0.36943391
-0.85821497 2.2557971 0.45473355
-0.95704126 2.260102 0.43710357
-1.0059696 2.1520848 0.39979735
-0.99480247 1.939484 0.34585959
-0.85917431 2.2589118 0.36369288
-0.95224178 2.2519417 0.34344772
-1.0221105 2.1896029 0.31606808
-0.84486336 1.6507769 0.22486874
-0.90744019 2.3870647 0.28874841
-0.95645559 2.262017 0.25383765
-1.0283723 2.2053263 0.228302
-0.86309683 1.6884372 0.16016565
-0.87478453 2.3022511 0.18786262
-0.95016909 2.2491188 0.16264099
-0.99481612 2.1347275 0.13476594
-0.85781628 1.679481 0.089661114
-0.90251464 2.37748 0.10040446
-0.91150552 2.1605442 0.070169993
-1.0305862 2.2144115 0.05022449
-0.87257266 1.71014 0.020943537
-0 0 0
-0.97595656 2.3156822 -0.017149175
-1.0192436 2.1923397 -0.038908623
-0.87080306 1.708218 -0.049169999
-0.85226029 2.2495916 -0.081483975
-0.95832342 2.2761741 -0.10692195
-1.0292296 2.2173615 -0.12922776
-0.86988837 1.7074546 -0.11955446
-0.85267067 2.2551882 -0.17020047
-0.93990266 2.2356942 -0.19427744
-1.0224324 2.203624 -0.21770358
-0.8744821 1.7177312 -0.19144042
-0.73787433 1.9532175 -0.22468516
-0.86132765 2.0512972 -0.26056588
-0.79873931 1.7226847 -0.2403518
-0.81771642 1.6071985 -0.24627849
-0 0 -0
-0.73325926 1.7490314 -0.29288477
-0.8402372 1.8140104 -0.32870042
-0.77348489 1.5208538 -0.29757276
-0.44656017 1.1877866 -0.2320503
-0.46000266 1.0986886 -0.22945593
-0.56402445 1.2196404 -0.27202022
-0.70233333 1.3820273 -0.33008119
-0 0 -0
-0.47092068 1.1262001 -0.28269464
-0.42788929 0.92551756 -0.24643274
-0 0 -0
-0 0 -0
-0 0 -0
-0 0 -0
-0.35716006 0.70213962 -0.23125245
-0 0 0
-0.96270013 2.3103869 0.74339902
-1.0188153 2.2053542 0.69581491
-0.85011965 1.6732384 0.51805335
-0.85154665 2.2819729 0.65031505
-0.97004312 2.3297269 0.64607549
-1.0262421 2.2258167 0.60261464
-0.86565119 1.7088273 0.45120013
-0.83566421 2.2392919 0.54280686
-0.95340639 2.2888703 0.53708315
-1.0193297 2.2130585 0.50347173
-0.99980921 1.9771684 0.43560407
-0.85088962 2.2785122 0.45825148
-0.95791006 2.3013797 0.44394153
-1.0191201 2.215554 0.41041878
-0.88846958 1.7586658 0.312637
-0.84806472 2.2715526 0.36488339
-0.9437272 2.2705441 0.34539515
-1.0144507 2.2084479 0.31788385
-0.84723037 1.6807511 0.22823939
-0.86116439 2.3078694 0.27852422
-0.95401084 2.295399 0.25692195
-1.0148213 2.2115948 0.228302
-0.85854572 1.7052715 0.16125979
-0.86447459 2.317852 0.18869928
-0.97538143 2.3488996 0.16942047
-0.9721275 2.1199188 0.13345198
-0.8582682 1.7061287 0.090800874
-0.84150815 2.2584405 0.095157392
-0.89019102 2.1467066 0.069541872
-0.99033743 2.1625173 0.048908748
-0.86116505 1.7136748 0.02092172
-0.8519665 2.2874849 0.0069443597
-0.96785271 2.3364084 -0.017258363
-1.0024447 2.1912785 -0.038779892
-0.86434209 1.7215694 -0.049400724
-0.86386943 2.3231618 -0.083955236
-0.94051892 2.2727799 -0.10648942
-1.0160196 2.2245431 -0.12928055
-0.86655688 1.727033 -0.12055075
-0.83708185 2.2557018 -0.1698484
-0.92654765 2.2423406 -0.19435728
-1.0035145 2.1980774 -0.21654321
-0.87061608 1.7364081 -0.19292293
-0.75940424 2.0481355 -0.23506348
-0.87903661 2.1299918 -0.2698718
-0.90757138 1.9893037 -0.27676874
-0.82559419 1.6476184 -0.25169122
-0 0 -0
-0.66792029 1.621003 -0.27075431
-0.79062366 1.7347299 -0.31344977
-0.79502165 1.5872281 -0.30959937
-0 0 -0
-0.41513899 1.0088671 -0.21016121
-0.59387583 1.3051519 -0.29027396
-0.86631525 1.7309204 -0.41213295
-0 0 -0
-0.40845472 0.99390453 -0.24885251
-0 0 -0
-0 0 -0
-0 0 -0
-0 0 -0
-0 0 -0
-0 0 -0
-0 0 0
-0.95722437 2.3375413 0.75023234
-1.0243591 2.2535722 0.70903176
-0.83897412 1.6766989 0.51752114
-0 0 0
-0.92344427 2.2567348 0.62425035
-1.011362 2.2294185 0.60189837
-0.84863186 1.7010418 0.44776109
-0.83364516 2.2764266 0.55055803
-0.93490106 2.2838235 0.53454274
-1.0053271 2.2183795 0.50326937
-0.91942358 1.8462466 0.40550914
-0.84703708 2.3113713 0.46380603
-0 0 0
-0.99330872 2.1948133 0.40543997
-0.8992185 1.8074126 0.32031581
-0 0 0
-0.93689233 2.2937102 0.34803814
-1.0016974 2.2164378 0.31814322
-0.83513588 1.682361 0.22775786
-0.86953729 2.3746934 0.28593957
-0.95043981 2.3269932 0.25980064
-0.99877417 2.2123356 0.22774154
-0.85780394 1.7301478 0.16311142
-0.84475303 2.308131 0.18748234
-0.95001781 2.3280492 0.16749299
-0.94678426 2.0985425 0.13173813
-0.8482269 1.7122579 0.090848364
-0.88253587 2.4137146 0.10146965
-0.91359127 2.2419162 0.072443195
-0.9955312 2.2095726 0.049833879
-0.85063392 1.7189265 0.02092172
-0.84580988 2.3142717 0.0070097921
-0.95010537 2.3339677 -0.017196946
-0.94548178 2.1007395 -0.037074223
-0.85553473 1.7304251 -0.049503271
-0.84069151 2.3040082 -0.083075069
-0.93031913 2.2877629 -0.10692195
-1.0035788 2.2334681 -0.12943892
-0.86920726 1.7591614 -0.12241878
-0.82151878 2.2561088 -0.1694963
-0.91502148 2.253525 -0.19483639
-0.99408937 2.2132792 -0.21743581
-0.86126685 1.7443941 -0.19321942
-0.68937492 1.8948524 -0.21698168
-0.82601237 2.0368617 -0.25742513
-0.86934894 1.9369088 -0.26873189
-0.84352815 1.7095186 -0.26035157
-0.58201379 1.6038476 -0.24720262
-0.55893344 1.3804858 -0.2300038
-0.80378348 1.7926712 -0.32302198
-0.76827246 1.5576197 -0.30289885
-0 0 -0
-0 0 -0
-0.52538866 1.1736897 -0.26031402
-0.67018759 1.359836 -0.32279235
-0 0 -0
-0.4173044 1.0334293 -0.25810269
-0.4248375 0.94933045 -0.25136611
-0.52929509 1.0730151 -0.30206203
-0 0 -0
-0 0 -0
-0 0 -0
-0 0 -0
-0.82421046 2.2988248 0.75446606
-0.90386069 2.2464342 0.71919799
-1.0152214 2.2703464 0.712336
-1.057034 2.1452873 0.66013885
-0 0 0
-0.93523735 2.3261755 0.64185929
-1.0332801 2.3153927 0.62338614
-1.0703621 2.1788557 0.57179528
-0.83416891 2.3218794 0.56030244
-0.92378789 2.296771 0.53623635
-0.99847525 2.239712 0.50670952
-0.99879932 2.0368626 0.4460215
-0.81920755 2.2786102 0.45621482
-0.95456195 2.3750789 0.45586416
-0.99025083 2.2242899 0.40975493
-1.017157 2.0763159 0.36685875
-0.81142914 2.2575934 0.36101431
-0.9080478 2.2626545 0.34247398
-0.99291247 2.2334151 0.31969956
-1.071975 2.1931546 0.296013
-0.83983302 2.3379018 0.28088364
-0.92169595 2.2967787 0.25579104
-0.97831106 2.2029533 0.22615349
-0.96301311 1.9726723 0.18541509
-0.84809601 2.3620701 0.19143735
-0.87704742 2.1875069 0.15699144
-0.94644457 2.132601 0.13350911
-1.022061 2.0953906 0.11084165
-0.82924914 2.3118622 0.096972167
-0.92359507 2.3068678 0.074357457
-0.99289244 2.2403185 0.050388962
-1.019648 2.0926676 0.025394037
-0.83328128 2.3241243 0.0070240162
-0.91757107 2.2942584 -0.016862562
-0.94674081 2.1385012 -0.037637416
-0.99147874 2.0367503 -0.058091354
-0 0 -0
-0.91997069 2.3027058 -0.10735448
-0.99510366 2.2514577 -0.13012518
-1.0282425 2.1135843 -0.14664102
-0.80195582 2.2451375 -0.16829918
-0.89526755 2.2442832 -0.19355877
-0.97968519 2.217515 -0.21725728
-0.92711824 1.9071587 -0.21061411
-0.7011286 1.9645956 -0.22447117
-0 0 -0
-0.7572788 1.7153133 -0.23733799
-0.80617911 1.659408 -0.25196186
-0 0 -0
-0.61839145 1.5546945 -0.2583918
-0.93372303 2.1171775 -0.38045532
-0.74234742 1.5286301 -0.29637009
-0 0 -0
-0.41360211 1.0412632 -0.21583612
-0.73421592 1.6675618 -0.36884436
-0.65542632 1.3507234 -0.31966856
-0.33720502 0.95252484 -0.22408557
-0.36605218 0.92277431 -0.22990091
-0 0 -0
-0.62393755 1.2846882 -0.36056513
-0 0 -0
-0 0 -0
-0 0 -0
-0 0 -0
-0 0 0
-0.88266027 2.2332163 0.71321893
-0.99546605 2.2633331 0.7082057
-1.0535278 2.1716802 0.66625863
-0 0 0
-0.93482488 2.3670104 0.65153182
-0.99368459 2.2638915 0.60786718
-1.0743487 2.2213087 0.58119529
-0.79236019 2.2487757 0.54147804
-0.90429074 2.2887614 0.53306085
-0.9878599 2.2529712 0.50832838
-1.0588034 2.1931698 0.47881719
-0.80488402 2.2826669 0.45602962
-0.89875662 2.2764983 0.43587625
-0.98172617 2.2420673 0.41191241
-1.0043979 2.0825179 0.36685875
-0.80249292 2.2765191 0.36324647
-0.90758491 2.3022709 0.34762082
-0.9811759 2.2440078 0.32034802
-1.0619415 2.2068472 0.296976
-0.81754762 2.320518 0.27818719
-0.91524625 2.3218241 0.25795004
-0.97473818 2.2317245 0.22848883
-0.96599817 2.0099783 0.18836085
-0 0 0
-0.91223687 2.3163223 0.16583134
-0.92455506 2.118238 0.13225228
-0.95600152 1.9908687 0.10500038
-0.87075531 2.4752634 0.10360005
-0.90466738 2.3003988 0.073968627
-0.97313517 2.232621 0.050080582
-1.0093832 2.1042941 0.025459487
-0.81170726 2.3084393 0.0069614286
-0.91078913 2.3184597 -0.016999045
-0.96633124 2.2194431 -0.038956895
-1.0562949 2.2041638 -0.062680215
-0.80904406 2.3047209 -0.082736529
-0.89086103 2.2701764 -0.1055811
-0.98166829 2.2584369 -0.13017796
-1.0536227 2.1999671 -0.15218286
-0.78651601 2.2453089 -0.16794711
-0.87638897 2.2367408 -0.19244087
-0.96328199 2.2170899 -0.21663247
-0.9261378 1.935252 -0.21308495
-0.69070309 1.9735529 -0.22500615
-0.70287132 1.7961918 -0.22590132
-0.87475204 2.0147722 -0.27802449
-0.79127961 1.6544912 -0.25047335
-0.51695299 1.4809903 -0.22727154
-0.67033577 1.7158705 -0.28449044
-0.78957671 1.8205055 -0.32626683
-0.85617524 1.7909044 -0.34619462
-0 0 -0
-0 0 -0
-0.70956087 1.6387566 -0.36150318
-0.6631462 1.3882565 -0.32758218
-0 0 -0
-0 0 -0
-0 0 -0
-0.50395918 1.0540621 -0.29496333
-0 0 -0
-0 0 -0
-0 0 -0
-0 0 -0
-0.81586784 2.3665755 0.77335715
-0.86894095 2.2385902 0.71321893
-0.96553123 2.2323401 0.69664097
-1.0426753 2.1833229 0.66785508
-0 0 0
-0 0 0
-0.98400813 2.2797534 0.61049348
-1.0527488 2.2111609 0.57683915
-0.78332335 2.267421 0.54479998
-0.89270496 2.3006449 0.53454274
-0.97401732 2.2589903 0.50832838
-1.0478535 2.2049427 0.47997472
-0.77801877 2.2504117 0.44862354
-0.89651614 2.3122618 0.44166222
-0.97614038 2.2670696 0.41539755
-1.0068496 2.1207609 0.37250033
-0.78689414 2.276727 0.36250243
-0.88807863 2.2939441 0.34553429
-0.97130501 2.2590952 0.32164499
-1.0411563 2.1980698 0.29492956
-0.78804553 2.2813478 0.27290657
-0.91175562 2.3552248 0.26103434
-0.96613389 2.2495563 0.2297032
-1.0448357 2.208627 0.20637213
-0.84182423 2.4382753 0.19676138
-0.90736502 2.3460722 0.16755944
-0.97060353 2.261487 0.14082155
-0.968952 2.0499785 0.10780229
-0.8177582 2.3709843 0.099023655
-0.88333333 2.2872579 0.073370412
-0.95114696 2.2192523 0.049648855
-1.0028565 2.1240113 0.025623109
-0.80078685 2.3228302 0.0069898772
-0.90698367 2.3510606 -0.017196946
-0.96174562 2.2464716 -0.039326992
-1.04403 2.213316 -0.062757127
-0.79586309 2.3124769 -0.082838088
-0.88266253 2.2905157 -0.10627314
-0.96269035 2.2524805 -0.1294917
-1.0507436 2.2289603 -0.15373956
-0.76106048 2.2161291 -0.16541205
-0.87517625 2.2746375 -0.19523565
-0.95044267 2.2247906 -0.216811
-0.92357498 1.9607034 -0.2152593
-0.64792669 1.8884116 -0.21484181
-0 0 -0
-0.84211874 1.9726559 -0.27149457
-0.90391356 1.9201801 -0.28985086
-0.49696201 1.4522982 -0.22239633
-0.59289497 1.545557 -0.25564459
-0.87206155 2.044971 -0.36552915
-0.840137 1.7854276 -0.34413293
-0.39720434 1.1636877 -0.22485493
-0.40641332 1.0609319 -0.21886276
-0.5559082 1.3058064 -0.28729782
-0.81483608 1.733072 -0.40775961
-0 0 -0
-0.35261223 0.92173737 -0.22854722
-0 0 -0
-0.45991296 0.97730112 -0.27268809
-0 0 -0
-0 0 -0
-0 0 -0
-0 0 -0
-0.777475 2.3009338 0.75033355
-0.86645478 2.2734399 0.72261465
-0.96460682 2.2683012 0.70600289
-1.016957 2.1635079 0.65987271
-0 0 0
-0.90157038 2.3674397 0.64855564
-0.95900005 2.2598245 0.60356963
-1.0428787 2.2255116 0.5789026
-0.77502573 2.2888105 0.54878634
-0.85943443 2.2558477 0.52289921
-0.96243143 2.270334 0.50954252
-1.0297315 2.2015541 0.47785264
-0.77239609 2.2793422 0.45343751
-0.88406283 2.3223197 0.44253892
-0.94952554 2.2430484 0.4099209
