# .PCD v0.7 - Point Cloud Data file format
VERSION 0.7
FIELDS x y z
SIZE 4 4 4
TYPE F F F
COUNT 1 1 1
WIDTH 1523
HEIGHT 1
VIEWPOINT 0 0 0 1 0 0 0
POINTS 1523
DATA ascii
0.052431732 2.3851373 0.56193674
0.30950552 2.3011558 0.52730435
0.22133474 2.2939019 0.49918881
0.13701232 2.3100529 0.47817674
0.053773623 2.369025 0.46589187
0.30836502 2.2966204 0.43658864
0.224323 2.3185225 0.41483641
0.13937955 2.3300107 0.39282703
0.054745276 2.3716908 0.37641811
0.30970827 2.3050995 0.35000232
0.22298311 2.2925677 0.32355586
0.13999876 2.3199821 0.3040064
0.057244144 2.3878176 0.28963289
0.30936435 2.2994986 0.26234534
0.22517501 2.3146842 0.24036954
0.1428372 2.35132 0.22101578
0.058362104 2.3857887 0.20157474
0.30879974 2.2925766 0.17645398
0.22476189 2.3029299 0.15413341
0.14246914 2.3358312 0.133909
0.05929691 2.3915629 0.11373854
0.31138068 2.3062611 0.091882899
0.22862853 2.3307655 0.070080265
0.14446969 2.3490644 0.048394781
0.060136363 2.3851001 0.026026707
0.31194431 2.3080051 0.0066257319
0.22644462 2.2998252 -0.015770691
0.14542456 2.3491983 -0.037878782
0.060968563 2.3834367 -0.06114205
0.31230262 2.3015764 -0.078674182
0.22845575 2.3115623 -0.10056373
0.14561456 2.3291943 -0.12336817
0.061812419 2.3935468 -0.14938082
0.31632942 2.3197048 -0.16527121
0.23111829 2.3260581 -0.18725054
0.14641069 2.3360362 -0.2097595
0.062857144 2.4063358 -0.23907816
0.19398057 1.419536 -0.15417683
0.15327668 1.5358207 -0.18076757
0.14650528 2.3277838 -0.29522836
0.063249201 2.3988895 -0.32773986
0.17982008 1.3079115 -0.19128092
0.1475469 1.4700996 -0.22817233
0.14804101 2.3378649 -0.38516033
0.063287899 2.3861318 -0.41629261
0.1816183 1.3135146 -0.24248357
0.14433321 1.4312912 -0.27712527
0.1433364 2.2418554 -0.4547559
0.051036298 1.9016712 -0.40505233
0.17773199 1.2763759 -0.28579026
0.10623655 1.0487354 -0.24411461
0.10355762 1.6170354 -0.39161429
0 0 -0
0.29848084 2.1288393 -0.56234956
0 0 -0
0 0 -0
0 0 -0
0.31946439 2.2591226 0.70487666
0.23512013 2.2924759 0.68446237
0.14923289 2.3197334 0.66580153
0.06366612 2.3637161 0.65268862
0.32403502 2.3018758 0.62064976
0.23563862 2.29162 0.5897764
0.15023237 2.3082292 0.56871158
0.066709958 2.372122 0.55895627
0.32416302 2.303076 0.52819026
0.23530586 2.2915285 0.49897712
0.15150385 2.3140547 0.4791885
0.068195529 2.364727 0.46512017
0.32450226 2.3092825 0.43936595
0.23844413 2.316123 0.41466102
0.15289451 2.3173037 0.39083549
0.06903702 2.3624251 0.37500772
0.32563624 2.3158858 0.35193685
0.23541526 2.2753961 0.32133019
0.15423128 2.3190794 0.3040064
0.07186456 2.3864291 0.28951252
0.32305241 2.2946053 0.26200828
0.24111393 2.3300791 0.24211732
0.15706253 2.3474193 0.22073554
0.072176963 2.3584938 0.19930227
0.3232784 2.2936008 0.17668214
0.23960929 2.3084548 0.15459868
0.15626371 2.3269441 0.13345198
0.073784836 2.3851638 0.1134536
0.32580534 2.3062861 0.091961809
0.24261448 2.3263361 0.069990531
0.15813814 2.3371611 0.048168641
0.074550577 2.3776903 0.025950352
0.32694021 2.3119886 0.0066428017
0.24107227 2.3033652 -0.015804812
0.15929304 2.3402815 -0.037750054
0.075243257 2.3720267 -0.060860049
0.33021125 2.3263335 -0.079588212
0.24315673 2.3150852 -0.10078
0.1605193 2.3372235 -0.12384328
0.076434001 2.3911273 -0.14925627
0.33069775 2.3187077 -0.16534163
0.24632815 2.333518 -0.18796921
0.16080998 2.3360875 -0.20984876
0.077075467 2.3889971 -0.237398
0.20704742 1.4488311 -0.15749361
0.14929634 1.4084287 -0.1658781
0.16064876 2.3248618 -0.29497722
0.077677593 2.3895438 -0.32652199
0.19319269 1.3440083 -0.1967297
0.15352745 1.4406676 -0.22374624
0.16115189 2.3191938 -0.38224
0.077606127 2.3758523 -0.41457453
0.19867977 1.3746841 -0.25399613
0.15154503 1.4157332 -0.27428779
0.14749414 2.1040533 -0.42697853
0.055095501 1.670622 -0.35590461
0.18668495 1.2829902 -0.28752235
0 0 -0
0.068617538 0.97738475 -0.23680095
0.047872845 1.4671602 -0.37060121
0 0 -0
0 0 -0
0 0 -0
0 0 -0
0.33764714 2.2864211 0.71402711
0.2493894 2.2928963 0.68503183
0.1635313 2.3197329 0.66607684
0.077849746 2.3536468 0.65002787
0.33632588 2.2874177 0.61729628
0.24990532 2.2920573 0.59027249
0.16432355 2.3062952 0.5684728
0.080997109 2.3638856 0.55712211
0.33786279 2.2981493 0.52752584
0.24862142 2.2832403 0.49749523
0.16507 2.3042905 0.47736731
0.082703941 2.364264 0.46512017
0.33895105 2.3091924 0.43973622
0.25243747 2.312659 0.4143104
0.16625884 2.3045192 0.38884401
0.083566189 2.3629441 0.37516439
0.34098968 2.321671 0.35312736
0.25034395 2.282768 0.3225821
0.16867357 2.3210564 0.3043955
0.08614637 2.3760226 0.28830871
0.34059533 2.3161743 0.26470476
0.25616568 2.3354774 0.242837
0.17131793 2.3444252 0.2205487
0.086647049 2.3580065 0.19930227
0.33778125 2.2945335 0.17691033
0.25344187 2.3039658 0.15439929
0.1702466 2.3219585 0.13322346
0.087900378 2.3706913 0.11278874
0.34009615 2.305232 0.092001259
0.25666448 2.3228166 0.06993071
0.17254932 2.3371437 0.048189197
0.089175873 2.3781872 0.025961259
0.34082797 2.3079605 0.0066371122
0.25542128 2.3038304 -0.01581846
0.1727615 2.3272943 -0.037556957
0.089682847 2.3685236 -0.06078314
0.34374654 2.3193207 -0.07941895
0.25669453 2.3075919 -0.10052048
0.17441 2.3302195 -0.12352654
0.090458117 2.3736587 -0.14819771
0.34315607 2.3047953 -0.16449662
0.25986665 2.3250282 -0.18741025
0.17372547 2.3161857 -0.20815283
0.091121584 2.3725691 -0.23581666
0.20815858 1.3954142 -0.15182297
0.16391622 1.4607849 -0.1721596
0.17431512 2.315918 -0.29397261
0.092108496 2.3830817 -0.32571009
0.19717798 1.3144147 -0.19257142
0.17199987 1.5251377 -0.2370245
0.1735926 2.2945466 -0.37834617
0.091915205 2.3684409 -0.41337186
0.19860354 1.3170232 -0.24356288
0.15326728 1.3533071 -0.26237047
0.15824005 2.0747674 -0.42122462
0.043741908 1.1180625 -0.23824158
0.19133069 1.2605857 -0.28275916
0.11469527 1.0086336 -0.23509005
0.07498347 0.98179132 -0.23797555
0 0 -0
0.37439466 2.4511325 -0.64865077
0.15815084 1.3815465 -0.37788746
0 0 -0
0 0 -0
0.35036159 2.2758074 0.71137053
0.26389164 2.2951322 0.6861707
0.17754138 2.3158102 0.66525078
0.092101105 2.3483088 0.6486975
0.35372227 2.307276 0.62322932
0.26363167 2.2875936 0.58952844
0.17839666 2.3042755 0.56823409
0.094871305 2.3477829 0.5534538
0.35313967 2.3037441 0.52929753
0.26385576 2.292352 0.4998239
0.17950962 2.3071396 0.47817674
0.096967325 2.3578298 0.4639627
0.35251889 2.3031836 0.43899563
0.26572025 2.3032422 0.41290772
0.18108889 2.3123035 0.39033762
0.0978176 2.3564661 0.37422413
0.35657606 2.3283324 0.35446665
0.26856375 2.3175859 0.32772896
0.18221073 2.3110812 0.30322823
0.10026112 2.3645389 0.28698453
0.35495129 2.3150229 0.26481712
0.26923135 2.3229926 0.24170607
0.18546388 2.3403523 0.22026846
0.10081498 2.3504617 0.19871312
0.35533309 2.3150856 0.17865965
0.26768917 2.3033583 0.15446575
0.18456979 2.3218656 0.13328059
0.10192741 2.3581321 0.11221886
0.35575339 2.3129778 0.092395775
0.27207091 2.3311262 0.070229813
0.18664733 2.3330512 0.048127521
0.10394087 2.3815911 0.02600489
0.35589588 2.3117561 0.0066541815
0.26990137 2.3051994 -0.015838932
0.18719855 2.3281839 -0.037589144
0.10434601 2.3709247 -0.060860049
0.35659784 2.3082783 -0.079114273
0.27084881 2.3059733 -0.10052048
0.1883821 2.3251243 -0.12331538
0.10435901 2.3581026 -0.14726369
0.35989174 2.3194036 -0.16569373
0.27225909 2.3075509 -0.18613264
0.18801466 2.3160689 -0.2082421
0.10532334 2.3640122 -0.23502597
0.22297849 1.4343916 -0.15620968
0.17170826 1.4498885 -0.17099635
0.18046899 2.2159238 -0.28141505
0.10650738 2.3775227 -0.32503352
0.20600347 1.3180692 -0.19328836
0.17282997 1.4524142 -0.22588296
0.15700732 1.9187385 -0.31653234
0.10613626 2.3609433 -0.41216922
0.20576504 1.309949 -0.24248357
0.1664606 1.3932916 -0.27031535
0.12538697 1.5208856 -0.3089245
0.082890734 1.8310373 -0.39026636
0.20835958 1.3182107 -0.29596615
0.14849225 1.2381247 -0.28878623
0.13242479 1.6041994 -0.38903016
0.047556005 1.0586811 -0.26754764
0.29112098 1.8306204 -0.48490629
0 0 -0
0 0 -0
0 0 -0
0.37097058 2.3151248 0.72435826
0.27866137 2.2991796 0.68787903
0.19143012 2.3108451 0.6641494
0.10628989 2.3428845 0.64736706
0.36954769 2.315557 0.62606686
0.27813038 2.2897794 0.59052044
0.1919658 2.2963636 0.56656277
0.10932052 2.348129 0.5536831
0.36757585 2.3034599 0.52974051
0.27756324 2.2877791 0.49918881
0.19382648 2.3079462 0.47858143
0.11115487 2.3513098 0.46280521
0.36648971 2.3000069 0.4388105
0.27996653 2.302546 0.41308308
0.19535655 2.3121316 0.39050362
0.11189863 2.3479292 0.37297046
0.36992157 2.3202415 0.3535738
0.27965847 2.2903368 0.32411227
0.19714381 2.3188117 0.3043955
0.1143345 2.354955 0.2859011
0.37008902 2.3186889 0.26549125
0.28335935 2.3203094 0.24160327
0.20024423 2.3441305 0.22073554
0.11518643 2.3488038 0.19862896
0.36953151 2.3128617 0.17865965
0.28181726 2.3016725 0.15446575
0.19796084 2.3107421 0.13270931
0.11614842 2.352474 0.11198141
0.36978093 2.3097649 0.092356324
0.28429595 2.3125474 0.069721334
0.20104498 2.3328581 0.048148077
0.11790562 2.3679254 0.025863085
0.37039027 2.3115034 0.006659871
0.28465265 2.3084621 -0.015873054
0.20113547 2.3230069 -0.037524775
0.11859128 2.3642495 -0.060706232
0.37567246 2.3366361 -0.08016371
0.28523818 2.306251 -0.10060699
0.20255849 2.3229296 -0.12326258
0.11847439 2.3504403 -0.14682782
0.3744345 2.3191211 -0.16583455
0.28641281 2.3058369 -0.18613264
0.20300235 2.3238018 -0.20904543
0.11957473 2.3583524 -0.23453182
0.20748675 1.2828263 -0.13983977
0.17765278 1.4251537 -0.16820459
0.1371685 1.5654633 -0.19891185
0.12079109 2.3708873 -0.32422158
0.21376948 1.3148267 -0.19300158
0.17510757 1.3983727 -0.21764131
0.12820518 1.4567347 -0.24044129
0.12036934 2.3553283 -0.41131014
0.20444119 1.2513837 -0.23187041
0.16753601 1.332813 -0.25877637
0.12961172 1.4624863 -0.29721829
0.077901088 1.5149928 -0.32300061
0.20361888 1.2388756 -0.278429
0.15279399 1.2110932 -0.28269464
0.1255991 1.4155236 -0.34345534
0.052913658 1.0360981 -0.26191765
0 0 -0
0.14508021 1.1430429 -0.31311423
0 0 -0
0.039906569 0.78194326 -0.22984409
0.38265762 2.2977257 0.71963543
0.2928848 2.2983773 0.6881637
0.20594656 2.3134573 0.66525078
0.12051477 2.3393002 0.64656883
0.3864367 2.3294489 0.63045216
0.29291123 2.2937956 0.59200853
0.20613924 2.2961094 0.56680155
0.12300905 2.3338058 0.55047327
0.3815431 2.300199 0.52951902
0.2925849 2.2937889 0.50088245
0.20728059 2.2989109 0.47696257
0.12531841 2.3456843 0.4618406
0.3855736 2.327769 0.44455019
0.29296598 2.2919958 0.41150507
0.20927268 2.3079431 0.39000574
0.12582552 2.3383226 0.37156007
0.38382795 2.3159769 0.35327616
0.29471487 2.2964356 0.32522509
0.21100783 2.3136086 0.3038767
0.12796873 2.3393407 0.28409544
0.38528508 2.3222561 0.26616538
0.29632482 2.308661 0.24057518
0.21280724 2.3230281 0.21886727
0.12888238 2.3351185 0.19753483
0.38616627 2.325305 0.17980051
0.29568008 2.2979205 0.1543328
0.21286611 2.3174374 0.13316633
0.13030386 2.3467305 0.11174396
0.3854225 2.3163235 0.092711389
0.29771182 2.3048117 0.069541872
0.21544731 2.3325763 0.048168641
0.13209757 2.361167 0.025797637
0.38620916 2.3190513 0.0066883196
0.30009639 2.3165891 -0.015941296
0.21520068 2.3197379 -0.037492596
0.13287099 2.3594849 -0.060603689
0.38802639 2.322458 -0.079757482
0.29874012 2.2995038 -0.10039072
0.21652935 2.31866 -0.12310421
0.13266876 2.3456833 -0.14657874
0.39162797 2.3344879 -0.16710208
0.30068469 2.3050244 -0.18621248
0.2172571 2.3225124 -0.20904543
0.13330872 2.3446589 -0.23324698
0.20777471 1.2364254 -0.13491809
0.1858784 1.4200975 -0.16773929
0.1396367 1.4885355 -0.18924251
0.13465849 2.3582311 -0.32259777
0.21688882 1.2842149 -0.18869992
0.17711517 1.3472993 -0.20985749
0.13408737 1.4235013 -0.23508734
0.13442488 2.3476608 -0.41010749
0.20981188 1.2365282 -0.22935204
0.17776594 1.3473362 -0.26180297
0.13969308 1.4733725 -0.29959923
0.12857252 2.2331595 -0.47627491
0.21121666 1.2376028 -0.278429
0.17057979 1.2883618 -0.30096942
0.098185837 1.034434 -0.25113118
0.065750971 1.1490093 -0.29055724
0.28459659 1.6581402 -0.44011065
0.12865324 0.96612442 -0.26486209
0 0 -0
0.045032434 0.7874313 -0.23153411
0.39967823 2.3122809 0.72494853
0.3072359 2.2984374 0.68873316
0.2202289 2.3131068 0.66552609
0.13492168 2.3394792 0.64683497
0.39891908 2.3165605 0.62761462
0.30659437 2.2890747 0.59126449
0.21994573 2.2919016 0.56608528
0.13807024 2.3456388 0.5534538
0.3976354 2.3093472 0.53217655
0.30743146 2.2977626 0.50215262
0.22128862 2.2966211 0.47676021
0.13860008 2.326261 0.45817518
0.39934966 2.322454 0.44399473
0.30715469 2.2911305 0.4116804
0.22362016 2.3085785 0.39033762
0.14022997 2.3384924 0.3717168
0.39786366 2.3126035 0.35312736
0.30906415 2.2965469 0.32550329
0.2247193 2.3073356 0.30322823
0.1417775 2.3295932 0.283012
0.4008761 2.3276823 0.26706418
0.31021953 2.3048277 0.24036954
0.22870451 2.3385239 0.2204553
0.14314696 2.3332894 0.19745067
0.39907175 2.3150311 0.17919205
0.30870703 2.2881525 0.15380108
0.22649711 2.3101261 0.13282356
0.14445469 2.3418989 0.111554
0.40234882 2.3296695 0.093342617
0.31198242 2.3039322 0.069571786
0.22955954 2.3292203 0.048127521
0.14645898 2.3583162 0.025775822
0.40077198 2.3186088 0.00669401
0.31430507 2.3147042 -0.015941296
0.22913487 2.3153887 -0.03744432
0.14722137 2.3566298 -0.060552422
0.40278164 2.3229876 -0.079859041
0.31446147 2.3095067 -0.10090975
0.23124707 2.3222563 -0.12336817
0.14655933 2.3368564 -0.14608061
0.40474728 2.3251619 -0.16660917
0.31063738 2.2725198 -0.18373711
0.23150368 2.3211355 -0.20904543
0.14769277 2.3437967 -0.23324698
0.21860224 1.2537374 -0.13695095
0.1904052 1.3884262 -0.16413324
0.14077142 1.4076908 -0.17907089
0.14900069 2.3553829 -0.32232714
0.21861595 1.2477665 -0.18353792
0.18187337 1.320732 -0.20588928
0.14321354 1.426579 -0.23573628
0.1485156 2.341876 -0.40924847
0.23035358 1.3088461 -0.24302322
0.18320699 1.3257933 -0.25783053
0.14607146 1.4461583 -0.29424214
0.12385857 1.9434044 -0.41463196
0.21625429 1.2218635 -0.27518138
0.17527075 1.2641312 -0.29555467
0.11342952 1.1218168 -0.27250904
0.067709453 1.0682704 -0.27024028
0.3081561 1.7316085 -0.4601042
0 0 -0
0 0 -0
0 0 -0
0.41385859 2.3097851 0.72494853
0.32146588 2.2974582 0.68901789
0.23412675 2.3088427 0.66470003
0.1491511 2.3366833 0.64630276
0.41618216 2.3311894 0.63225794
0.32103756 2.2900283 0.59200853
0.23390575 2.2895429 0.5658465
0.15138654 2.3282351 0.54955626
0.41351148 2.3164637 0.53439122
0.32260886 2.3035762 0.50384623
0.23567598 2.2981427 0.47736731
0.15287115 2.3253667 0.45817518
0.41428238 2.3238299 0.44473538
0.32366943 2.3067522 0.41483641
0.23687127 2.2983346 0.38884401
0.15418504 2.3316751 0.37077653
0.41465059 2.3247211 0.35535949
0.32494497 2.3073552 0.32731166
0.23815744 2.2990096 0.30232036
0.15679918 2.3395753 0.28433621
0.41584954 2.3290913 0.2675136
0.32477203 2.3058357 0.24067798
0.24356404 2.3420279 0.22092235
0.1572597 2.3293846 0.19719817
0.41695261 2.3331513 0.18078926
0.32483312 2.3010349 0.15479806
0.24087456 2.3106787 0.13293782
0.15848352 2.3359854 0.11131655
0.41980547 2.344861 0.094052747
0.32779565 2.3138504 0.06993071
0.24436788 2.3327398 0.048230316
0.16085848 2.3563755 0.025764914
0.41640207 2.3239806 0.0067167687
0.32850191 2.312732 -0.015941296
0.24281465 2.3089671 -0.037363861
0.16058341 2.339725 -0.060142245
0.41791153 2.3253906 -0.080028303
0.32947156 2.3134682 -0.10116928
0.24486153 2.3148353 -0.12305143
0.16158108 2.34587 -0.14670329
0.42006916 2.3285248 -0.16703168
0.32513967 2.274518 -0.18405651
0.24532184 2.3157096 -0.20868839
0.1619339 2.3408608 -0.2330493
0.25563803 1.4147897 -0.15471178
0.20963523 1.4619516 -0.17297387
0.15904531 1.4975618 -0.19062385
0.16276406 2.3445401 -0.32097396
0.22909632 1.2619815 -0.18583213
0.19391692 1.3469807 -0.21016274
0.1510229 1.4168427 -0.23427613
0.16288228 2.3409207 -0.40924847
0.22655819 1.2425699 -0.23097099
0.18754819 1.298404 -0.25272313
0.1429271 1.3331633 -0.27142498
0.15487599 2.2158024 -0.47294286
0.22779638 1.2426 -0.28016105
0.1936422 1.336307 -0.31270134
0.1119097 1.0428158 -0.25348037
0 0 -0
0.20708118 1.1236295 -0.29889059
0 0 -0
0 0 -0
0.056089282 0.80692065 -0.23744923
0.4299404 2.3175356 0.72819543
0.33735934 2.3077734 0.69271922
0.2485977 2.3102303 0.66552609
0.16308208 2.3299544 0.64470631
0.43363962 2.3456929 0.6369012
0.33620593 2.2956839 0.59399271
0.2478451 2.2870991 0.56560779
0.16497833 2.3175535 0.54726356
0.42966703 2.3244309 0.53682727
0.33716172 2.3044543 0.50448132
0.24977268 2.2966533 0.47736731
0.1665031 2.315577 0.45643899
0.42996058 2.3289752 0.44621655
0.33610395 2.2930336 0.41273239
0.25150469 2.3017392 0.3896738
0.16813296 2.3257596 0.36999297
0.43016431 2.3289404 0.35640121
0.33938473 2.3072772 0.32758984
0.25236762 2.2984905 0.30245003
0.17035452 2.327678 0.283012
0.43537167 2.3548322 0.27077183
0.34209928 2.3254502 0.2429398
0.25738457 2.3355412 0.2204553
0.1720621 2.3353319 0.19778731
0.43253073 2.3374121 0.18132167
0.33865485 2.2970245 0.15466514
0.25450003 2.3041956 0.13265218
0.17274016 2.3339729 0.11126906
0.43072498 2.3235738 0.093303159
0.34169447 2.3098183 0.069870889
0.25768432 2.3222532 0.048045289
0.17472012 2.3473666 0.025677649
0.43211317 2.3292477 0.0067395279
0.34268638 2.3106728 -0.015941296
0.25631362 2.3014717 -0.03726732
0.17493667 2.3386955 -0.060142245
0.43180639 2.3208177 -0.0799606
0.34439516 2.316344 -0.10138554
0.25839368 2.3073349 -0.1227347
0.17515041 2.3338864 -0.14601833
0.43544745 2.3317866 -0.16745417
0.34350306 2.302057 -0.18645203
0.26274526 2.342865 -0.21127692
0.17195779 2.2822704 -0.22731698
0.26376581 1.4102625 -0.15439081
0.20243071 1.3525879 -0.16017823
0.16036265 1.4265606 -0.18170796
0.17625062 2.3316414 -0.31935015
0.22733274 1.2099744 -0.17837591
0.2017377 1.3428335 -0.20970486
0.15407276 1.365882 -0.22600181
0.17404324 2.2976377 -0.40186068
0.23946728 1.2691888 -0.23618764
0.19770662 1.3117934 -0.25556058
0.14878497 1.3118099 -0.26725841
0.15771249 2.0733981 -0.44274616
0.23032251 1.2143219 -0.27409884
0.19193541 1.2695913 -0.29735959
0.16095783 1.41781 -0.34486488
0.075323611 0.99484831 -0.25188154
0.22212477 1.1651024 -0.31027928
0.15090856 0.99316829 -0.27299154
0 0 -0
0 0 -0
0.44559276 2.3223608 0.73055685
0.35295799 2.3151367 0.69556642
0.26244217 2.3057957 0.66470003
0.17737535 2.3289099 0.64470631
0.44802436 2.342988 0.6369012
0.34955436 2.2887893 0.59275258
0.2624265 2.290359 0.56680155
0.17919546 2.3164976 0.54726356
0.4450202 2.3274977 0.53815609
0.34967369 2.2917147 0.50215262
0.26397184 2.2960503 0.47756964
0.18047895 2.3115771 0.45586023
0.44590181 2.3349805 0.44788295
0.34972113 2.2880085 0.41220638
0.26607567 2.3040712 0.39033762
0.18224588 2.322715 0.36967957
0.44667318 2.3379123 0.3581869
0.35488662 2.3139608 0.32884178
0.26623762 2.294929 0.30219066
0.18376981 2.3157032 0.28168786
0.4494392 2.3501647 0.27054715
0.35590911 2.3203576 0.24263138
0.27090442 2.3269954 0.21980141
0.18575366 2.3262858 0.19711399
0.447427 2.3376522 0.18154983
0.35516816 2.3106825 0.15572859
0.26851785 2.301599 0.13259505
0.18665871 2.3278906 0.11103161
0.4523119 2.3591599 0.094841778
0.35707951 2.3155811 0.070110172
0.27239397 2.3246002 0.048127521
0.18903966 2.3452537 0.025666742
0.44884664 2.3393195 0.0067765117
0.35685796 2.3085268 -0.015941296
0.27206507 2.3137579 -0.037492596
0.18855718 2.3286104 -0.059911516
0.44584966 2.317143 -0.079926744
0.35906047 2.3171492 -0.1015153
0.27371857 2.315623 -0.12326258
0.18979077 2.3367472 -0.14626741
0.44880122 2.3241739 -0.16710208
0.35945964 2.3117256 -0.18741025
0.26962307 2.2779062 -0.20556432
0.1265325 1.552189 -0.15467438
0.31602296 1.6341134 -0.17910616
0.20307457 1.3022528 -0.15436201
0.17074905 1.4393423 -0.18346603
0.14000873 1.7123368 -0.23464116
0.23871559 1.2289585 -0.18138708
0.2004986 1.2810338 -0.20024219
0.16664906 1.4001851 -0.23184249
0.12781158 1.5601456 -0.27300411
0.2338804 1.1991453 -0.22341588
0.20240141 1.2892143 -0.25139898
0.16125563 1.3478531 -0.27479798
0.1184043 1.4397563 -0.30758989
0.24603282 1.2550397 -0.28362519
0.19760036 1.2549167 -0.29420096
0.2463917 2.0576351 -0.50085282
0 0 -0
0.23525371 1.1940918 -0.31837791
0 0 -0
0 0 -0
0.066691704 0.81477839 -0.23998427
0.46132043 2.3270805 0.73291826
0.36595446 2.3053534 0.69328868
0.27647075 2.3031876 0.66442472
0.19166192 2.3277776 0.64470631
0.46257949 2.3411427 0.63715911
0.36724263 2.3095632 0.59870493
0.27787247 2.3002746 0.56966656
0.19243355 2.3037145 0.54451233
0.46326232 2.3448136 0.54280686
0.36464882 2.2953172 0.5034228
0.27852643 2.2982759 0.47837907
0.19457676 2.3094485 0.45566732
0.46155235 2.3389494 0.44917899
0.3670027 2.3062375 0.4158884
0.2799699 2.3004377 0.39000574
0.19607788 2.3166325 0.36889601
0.46254218 2.3428888 0.35937741
0.3693904 2.3136957 0.32912001
0.28175768 2.3050628 0.303747
0.19822904 2.3174994 0.28204897
0.46519947 2.3541863 0.27133363
0.37123773 2.3250058 0.24335104
0.28469273 2.3213365 0.21942776
0.19934073 2.3171601 0.19644068
0.46853286 2.3690984 0.18421187
0.36839372 2.3025482 0.15532979
0.28239158 2.2979262 0.13248079
0.20085292 2.3257065 0.11098412
0.46794394 2.3622212 0.095078491
0.37365687 2.3281503 0.070558831
0.28628498 2.3199084 0.048065845
0.20316695 2.3410611 0.025634017
0.46533099 2.3473113 0.006807805
0.37196901 2.312217 -0.01598224
0.28490546 2.3011296 -0.037315588
0.20214733 2.3194423 -0.059706423
0.46902242 2.3594549 -0.081483975
0.37327147 2.3149023 -0.1015153
0.28755191 2.3109269 -0.12310421
0.20386451 2.3325558 -0.14608061
0.46832225 2.3477888 -0.16900337
0.37459254 2.3153808 -0.18788937
0.28260982 2.268302 -0.20485024
0.13579336 1.5484095 -0.15437788
0.43569884 2.1810663 -0.23934318
0.20931166 1.290198 -0.15308246
0.17294011 1.3851078 -0.17668495
0.12898618 1.4666712 -0.20108233
0.24119054 1.2022419 -0.17765896
0.20597298 1.2651478 -0.19795285
0.16800217 1.3413693 -0.22227028
0.12311643 1.3974127 -0.24465565
0.24822611 1.2324033 -0.2298917
0.20856737 1.2772878 -0.24931817
0.16976765 1.3487831 -0.27519479
0.12671937 1.433157 -0.30634034
0.25547212 1.2621183 -0.28557375
0.20199053 1.2334911 -0.2894631
0.19425935 1.5420634 -0.37563962
0.089227445 1.0131658 -0.2567772
0.23949087 1.1774573 -0.31432861
0 0 -0
0 0 -0
0 0 -0
0.4776974 2.3345027 0.73616523
0.3825905 2.3181975 0.69784415
0.29144067 2.3081243 0.66635215
0.2057713 2.3246374 0.6441741
0.48137689 2.3600335 0.64309216
0.38156494 2.3082221 0.59895295
0.29161432 2.2956364 0.56895036
0.20647828 2.3015211 0.54428309
0.47822574 2.3447936 0.54347122
0.38095546 2.3065364 0.50638664
0.29287073 2.2984667 0.47878382
0.20918547 2.313097 0.45663187
0.47785684 2.3457026 0.45103052
0.38371754 2.3194828 0.41869369
0.29270333 2.2879167 0.3881802
0.21019946 2.3144021 0.36873931
0.47572428 2.334193 0.35848454
0.38439059 2.3162701 0.32981551
0.29614869 2.3052576 0.3040064
0.21253589 2.3172281 0.28216934
0.4842037 2.3736808 0.27391776
0.38533387 2.321703 0.24324824
0.29867628 2.3175709 0.21924092
0.21401231 2.3208547 0.19686152
0.48844561 2.3925567 0.18626542
0.38333333 2.3051658 0.15566212
0.29814816 2.3090222 0.13322346
0.21447507 2.3174679 0.11065169
0.4810282 2.3524528 0.094802327
0.38908625 2.3327153 0.070768207
0.30115697 2.3230658 0.048168641
0.21697222 2.3337965 0.025568567
0.48112833 2.3512697 0.006827719
0.38763344 2.3187678 -0.016043657
0.30056691 2.3112364 -0.037508685
0.21618956 2.3161678 -0.059655156
0.48509791 2.3643651 -0.081754804
0.3874684 2.3125684 -0.1015153
0.30198485 2.3110995 -0.1232098
0.21845196 2.3342421 -0.14626741
0.48372489 2.3497565 -0.16935547
0.38482681 2.2894461 -0.18597293
0.29548892 2.2586246 -0.20413616
0.14324531 1.5257506 -0.15220354
0.39446995 1.9134831 -0.21024112
0.21408801 1.2702807 -0.15087229
0.18375686 1.4017265 -0.1789453
0.13854021 1.4717709 -0.20189424
0.25036836 1.2094613 -0.17894946
0.21241359 1.2560645 -0.19673185
0.17918809 1.3628147 -0.22600181
0.13520265 1.4339005 -0.25118437
0.25338158 1.2192996 -0.22773308
0.20802711 1.2266099 -0.2396708
0.17367606 1.314679 -0.26844883
0.13035187 1.3778238 -0.29467818
0.25123832 1.203187 -0.27258331
0.21200527 1.2466348 -0.29284731
0.17849179 1.3500439 -0.32912514
0.092439957 0.98074436 -0.24869937
0.24750565 1.1797531 -0.31534094
0 0 -0
0.13296168 1.0036492 -0.28585577
0 0 -0
0.49240717 2.3333972 0.73675549
0.39777884 2.3214753 0.69955242
0.30622897 2.3110578 0.66772896
0.22021291 2.3252504 0.64470631
0.49823546 2.368381 0.64618772
0.39654005 2.3106112 0.60019302
0.30620772 2.2976542 0.56990534
0.22106089 2.3050554 0.54542941
0.49441069 2.3504033 0.54546434
0.39576161 2.3080087 0.50723344
0.30709806 2.2975972 0.47898617
0.22365753 2.3147001 0.45721063
0.49446353 2.3533051 0.45306718
0.39794239 2.3170848 0.41869369
0.30765417 2.2929192 0.38934189
0.22391956 2.3081536 0.36795574
0.49675053 2.3631647 0.36339527
0.4006131 2.3255787 0.33148476
0.31068504 2.3063452 0.3043955
0.22733055 2.3218083 0.28289163
0.49998662 2.3764992 0.27459186
0.40193662 2.3330185 0.24468757
0.31222442 2.3107615 0.21877384
0.2280536 2.3175144 0.19669318
0.5033223 2.3904903 0.18634146
0.40103436 2.3234186 0.1570579
0.3121765 2.30616 0.13316633
0.22927965 2.3220725 0.11093663
0.4981339 2.3621674 0.095315196
0.40356266 2.3312688 0.070798114
0.31459767 2.3152299 0.048045289
0.23158406 2.3354063 0.025601292
0.49657881 2.3531656 0.0068419441
0.40168291 2.3153605 -0.016036835
0.31474271 2.3093488 -0.037508685
0.23089227 2.3197713 -0.059783336
0.50125122 2.3691661 -0.082025625
0.4043889 2.3258963 -0.10220736
0.31697255 2.3151393 -0.12352654
0.23187865 2.3239195 -0.145707
0.4973051 2.3428407 -0.16907378
0.4040052 2.3165014 -0.18836847
0.3101536 2.2626896 -0.20467173
0.14269505 1.4258273 -0.14232019
0.45292202 2.1308191 -0.23442154
0.221194 1.2650297 -0.150407
0.18749475 1.3651897 -0.17442459
0.14380978 1.4334308 -0.19675218
0.25096834 1.1759627 -0.17421763
0.22336121 1.2732326 -0.19963171
0.18283455 1.3274763 -0.22032338
0.14114203 1.4046184 -0.24620195
0.25797361 1.2042558 -0.22521472
0.22286494 1.2668954 -0.24780485
0.18254545 1.3194139 -0.26963931
0.14184453 1.4071655 -0.30113402
0.25389168 1.1796709 -0.26760361
0.21761981 1.2337976 -0.29013991
0.16904145 1.2208669 -0.29788056
0.14768393 1.4702381 -0.37304905
0.25167313 1.1640282 -0.31154469
0.17237498 0.97301221 -0.26853347
0 0 -0
0.079089433 0.78763562 -0.23237914
0.51179063 2.3536727 0.7441349
0.41402796 2.3303168 0.70296907
0.32053569 2.3100874 0.66800427
0.2338956 2.3181009 0.6431098
0.51091594 2.3567812 0.64386606
0.4137651 2.3253028 0.60465729
0.32003176 2.2938085 0.56942785
0.23539799 2.3055923 0.54588795
0.51006275 2.3530438 0.54679316
0.41077125 2.3103478 0.5082919
0.32200426 2.3014889 0.48020032
0.23845823 2.3191407 0.45836812
0.51450896 2.3761592 0.45806631
0.41163453 2.3116918 0.41816771
0.32254025 2.2968476 0.39033762
0.23817933 2.3077188 0.36811247
0.51982474 2.3996966 0.36949649
0.41557142 2.3269763 0.33204117
0.32538426 2.3083227 0.30491427
0.24054466 2.3104959 0.28168786
0.51813835 2.3898957 0.27650189
0.41676888 2.333446 0.244996
0.32639712 2.3088021 0.21877384
0.24195831 2.3130982 0.19644068
0.52030629 2.3980758 0.18717812
0.41475582 2.3179677 0.1568585
0.3275809 2.3130977 0.13368049
0.2435233 2.320622 0.11093663
0.51580119 2.373713 0.09590698
0.41838908 2.3317003 0.070887849
0.32921982 2.3162255 0.048106965
0.24653813 2.3399081 0.025666742
0.50888348 2.3403027 0.006813495
0.41712093 2.3197415 -0.016084604
0.33017662 2.316283 -0.037653506
0.24396555 2.3073754 -0.059501339
0.51790738 2.3758109 -0.082364149
0.41688102 2.3135388 -0.10177482
0.33145505 2.3151278 -0.1236321
0.24613358 2.322453 -0.145707
0.51806438 2.3689802 -0.17118634
0.41927505 2.3198643 -0.18884756
0.32304215 2.2538421 -0.20404689
0.16532318 1.5555429 -0.15536621
0.51256543 2.3407028 -0.25785297
0.22912897 1.2646259 -0.15052332
0.19163747 1.3345532 -0.17065732
0.15323214 1.4384327 -0.19756407
0.25775421 1.1724675 -0.17393085
0.22233266 1.2232203 -0.19200052
0.19097635 1.3263295 -0.22032338
0.15163906 1.4213582 -0.2492945
0.26451012 1.198808 -0.22449517
0.22394411 1.2287949 -0.24061662
0.19218086 1.3289393 -0.27182183
0.14714602 1.3751478 -0.29446992
0.25373089 1.1447307 -0.26002586
0.22641191 1.2391477 -0.29171923
0.1811236 1.2515527 -0.30563301
0.11711548 1.0981218 -0.27880767
0.25796977 1.1586848 -0.31053239
0.21160699 1.1532251 -0.31862125
0 0 -0
0 0 -0
0.52643162 2.3514204 0.74443007
0.42745134 2.3230188 0.70154554
0.33649766 2.3204453 0.67158389
0.24780683 2.3137467 0.64231157
0.53904873 2.4148936 0.66063344
0.43100968 2.3389163 0.60887349
0.33480066 2.2966063 0.57062161
0.24995965 2.3079753 0.54680508
0.52810246 2.3660495 0.55055803
0.4256475 2.3116288 0.50913876
0.33569494 2.2965627 0.47959325
0.25247103 2.3156829 0.45798227
0.5325008 2.388304 0.46102872
0.42670372 2.3139634 0.41904435
0.33619803 2.2918983 0.38983977
0.25254956 2.3081772 0.36842588
0.53432393 2.3954968 0.36934769
0.43110219 2.3311989 0.33301491
0.34084156 2.3151116 0.30608153
0.25482592 2.309963 0.2818082
0.52932882 2.3711545 0.27470422
0.43198326 2.3357353 0.24551004
0.34317496 2.3244851 0.2204553
0.2564759 2.3145413 0.19669318
0.53696734 2.4035959 0.18786262
0.43406025 2.3428495 0.15871952
0.34264398 2.3169699 0.13402326
0.25742677 2.3161058 0.11079416
0.54104626 2.4182837 0.097840101
0.43579191 2.3457956 0.071396321
0.34313217 2.3121839 0.048065845
0.26011479 2.3313949 0.025590384
0.53240937 2.3781214 0.0069329794
0.43482387 2.3358173 -0.016214263
0.34585455 2.3241031 -0.03781442
0.25800756 2.3048418 -0.059475705
0.5357582 2.3872161 -0.082871951
0.43326715 2.3227227 -0.10229385
0.34624454 2.3170011 -0.12384328
0.25971162 2.3149481 -0.14533339
0.53762931 2.3881395 -0.17280595
0.43515128 2.3260663 -0.18956622
0.3376022 2.256743 -0.20449321
0.22024944 1.9579571 -0.19569027
0.51926571 2.3035662 -0.25410822
0.23908104 1.2749106 -0.15191922
0.19982253 1.3333523 -0.17065732
0.16760516 1.4866937 -0.20432997
0.26341453 1.1641071 -0.17292713
0.2320264 1.2334882 -0.19383201
0.20087042 1.3368423 -0.22227028
0.15759462 1.3959283 -0.24499929
0.26227608 1.1549548 -0.21658029
0.2289319 1.2138885 -0.23796831
0.19696823 1.3054447 -0.26725841
0.15349044 1.3557537 -0.29051313
0.26422381 1.1583816 -0.26348996
0.22803847 1.2061455 -0.28427395
0.18792886 1.244651 -0.30422345
0 0 -0
0.2633462 1.149536 -0.30850771
0.18196258 0.95849872 -0.26512435
0.14651947 0.96867901 -0.27661708
0.088533826 0.78469878 -0.23181579
0.54320878 2.3583879 0.74767703
0.44223481 2.3231771 0.70239961
0.3514483 2.3230894 0.67296064
0.26232466 2.3150561 0.6431098
0.54909825 2.3908246 0.65495831
0.44462729 2.3324213 0.60788143
0.35049182 2.305069 0.57324785
0.26433787 2.3083322 0.54726356
0.54937661 2.3922279 0.55742341
0.44165218 2.3185744 0.51125574
0.35007524 2.296396 0.47999799
0.2665627 2.3131154 0.45778939
0.55022144 2.3984013 0.46362087
0.44218522 2.3180711 0.42027169
0.35114914 2.2956409 0.39083549
0.26602685 2.3006976 0.36748558
0.55122435 2.4018111 0.37083581
0.4440957 2.3217013 0.33204117
0.3560935 2.3198371 0.3069894
0.26865005 2.3053977 0.28144708
0.55276561 2.4066 0.27919835
0.44929725 2.3486726 0.247155
0.35667399 2.3174155 0.21998823
0.27102029 2.3158932 0.19694567
0.5523755 2.4031713 0.1880908
0.44936648 2.345042 0.15905187
0.3562457 2.3108768 0.13379474
0.27174971 2.3154745 0.11084165
0.55609858 2.4158924 0.097879559
0.45130882 2.3489671 0.071575783
0.35914695 2.3218915 0.048312549
0.27558476 2.3396857 0.025699466
0.55215365 2.397223 0.0069984118
0.45028222 2.3389969 -0.016255209
0.36133435 2.3298416 -0.037943147
0.27320063 2.31215 -0.059706423
0.54949641 2.3799884 -0.082736529
0.44826788 2.3239446 -0.10246687
0.36137673 2.3207531 -0.12416
0.27508456 2.3232224 -0.14595607
0.55407292 2.39257 -0.17336929
0.44865835 2.3194377 -0.18924683
0.35803923 2.2969463 -0.20833135
0.22205377 1.8705983 -0.18709175
0.52597904 2.2683742 -0.25057745
0.24198394 1.2480682 -0.14889479
0.20218402 1.2948532 -0.16588545
0.1682976 1.414799 -0.19458708
0.25955981 1.1152375 -0.16590106
0.23713806 1.2194299 -0.19184791
0.20388077 1.3024387 -0.21675408
0.16219524 1.3616756 -0.23915778
0.26309365 1.1265022 -0.21154352
0.23299371 1.1951126 -0.23456335
0.20208332 1.285815 -0.26348859
0.16273423 1.3625557 -0.29217914
0.27177244 1.1586396 -0.26392299
0.23394012 1.1970745 -0.28246903
0.19571336 1.2444346 -0.30445835
0.13860756 1.1639962 -0.29594246
0.26906374 1.1422484 -0.30698922
0.22351335 1.1391782 -0.31547439
0.13329054 0.84607857 -0.24183616
0 0 -0
0.56251281 2.3754644 0.75417084
0.46147722 2.3458159 0.71008706
0.36614478 2.3237381 0.6737867
0.27572379 2.3067031 0.64124727
0.56464589 2.3911717 0.65599018
0.45986655 2.3344014 0.6091215
0.36645126 2.3143847 0.57611293
0.27907994 2.3114986 0.54840994
0.56807834 2.4058952 0.56140971
0.45832431 2.3282869 0.51400787
0.36538723 2.3019421 0.48161685
0.28027746 2.3075402 0.45701772
0.56718349 2.4045446 0.4654724
0.45944679 2.3307691 0.42307702
0.3656936 2.2963645 0.3913334
0.28061652 2.3029437 0.36811247
0.56981206 2.4147451 0.37336558
0.46255732 2.3403053 0.33510149
0.37063396 2.319567 0.3072488
0.28412116 2.3145447 0.28277126
0.56889212 2.4089656 0.27987248
0.4665933 2.3605089 0.24869716
0.37135914 2.3181326 0.22026846
0.28632227 2.3230875 0.19770317
0.579494 2.4521372 0.19219792
0.46801037 2.3637741 0.1605141
0.3716836 2.3165338 0.13425177
0.28595206 2.3137636 0.11084165
0.57827532 2.4435501 0.099142008
0.46454561 2.3402712 0.071396321
0.37449926 2.3265536 0.048456457
0.28858191 2.327035 0.025579475
0.57860416 2.4434173 0.0071435012
0.47164762 2.3714976 -0.016500879
0.3754639 2.3265936 -0.037927058
0.28861654 2.3203506 -0.05996279
0.57078278 2.4047718 -0.08371827
0.46896175 2.3534837 -0.10389423
0.37656802 2.3244066 -0.12447673
0.28970471 2.3244619 -0.14614287
0.57405621 2.4114444 -0.17498891
0.46737379 2.3391235 -0.1910834
0.37435839 2.3084705 -0.20958097
0.23562454 1.8859869 -0.18877192
0.56224853 2.3589194 -0.26095578
0.2476871 1.2368212 -0.14773156
0.20917088 1.2877127 -0.16513199
0.17168345 1.3714651 -0.18876842
0.27238438 1.1386491 -0.16962919
0.23936158 1.1917905 -0.18772706
0.20473224 1.2573365 -0.20945323
0.17336522 1.3831369 -0.24310939
0.26586813 1.1076493 -0.20830563
0.2428419 1.2061746 -0.23702249
0.20902047 1.2787471 -0.26229814
0.16218951 1.2906892 -0.27697664
0.27407235 1.1370192 -0.25937632
0.24089538 1.1937066 -0.2820178
0.20365919 1.2451289 -0.30492824
0 0 -0
0.27333632 1.1292925 -0.30395222
0.23605552 1.1652132 -0.32307935
0.13085532 0.79870886 -0.22852157
0 0 -0
0.57798123 2.3756816 0.75535148
0.477961 2.3532739 0.71321893
0.38132879 2.3271399 0.67543882
0.2907142 2.3116627 0.6431098
0.58272427 2.4017456 0.65985954
0.47765681 2.3486238 0.61358577
0.38017192 2.3092182 0.57539666
0.29472893 2.3213298 0.55116111
0.5899573 2.4317424 0.56827515
0.47688398 2.3465014 0.51866519
0.3803021 2.3044882 0.48262867
0.2949281 2.3096702 0.45778939
0.58933401 2.431581 0.47139722
0.47589907 2.3385179 0.42500564
0.38154861 2.3047795 0.39315897
0.29499277 2.3031375 0.36842588
0.59417129 2.4506054 0.37946683
0.47987798 2.3519773 0.33718801
0.3843722 2.3143146 0.3068597
0.29895258 2.3176806 0.28337315
0.58600563 2.415086 0.28099602
0.4854435 2.3790431 0.25095898
0.38737467 2.3266137 0.22129603
0.30031514 2.3193104 0.19753483
0.59735239 2.4601626 0.1931106
0.48710069 2.3833423 0.16204281
0.38736847 2.3230724 0.13476594
0.29988647 2.3099842 0.11074667
0.6022287 2.4768515 0.10064117
0.48331031 2.3589194 0.072054356
0.3904171 2.3340728 0.048662044
0.3028549 2.3252203 0.025579475
0.59760451 2.4563391 0.0071918643
0.48699424 2.3724773 -0.016528176
0.39006329 2.3262184 -0.03795924
0.30284852 2.318536 -0.05996279
0.58694804 2.4070501 -0.083921388
0.48278987 2.3476262 -0.10376447
0.39165196 2.3269763 -0.12474068
0.30422091 2.3246198 -0.14626741
0.58196998 2.3797767 -0.17294678
0.4839319 2.3469505 -0.19196175
0.39132878 2.3228269 -0.21109839
0.28692424 2.1874077 -0.21911378
0.57245576 2.3380418 -0.2590299
0.24984439 1.2090163 -0.1445908
0.21739835 1.2883615 -0.16538313
0.17609325 1.3399328 -0.18457356
0.27322593 1.1119683 -0.16590106
0.24827413 1.1980412 -0.18894805
0.22182302 1.3115139 -0.21870098
0.17799328 1.3527458 -0.23795514
0.27313045 1.1079074 -0.20866539
0.24644378 1.1863949 -0.23342839
0.21505833 1.2668114 -0.26011562
0.17816362 1.3507593 -0.29009658
0.28221676 1.1400543 -0.26045886
0.2476196 1.1893448 -0.28134099
0.20803963 1.2246901 -0.30022979
0 0 -0
0.27419311 1.1031832 -0.29737207
0.24063444 1.1514632 -0.31967023
0 0 -0
0 0 -0
0.61616582 2.4666402 0.78545928
0.49121204 2.3446672 0.7115106
0.39447179 2.3181224 0.67351133
0.30602813 2.3184364 0.64550453
0.61029601 2.4496875 0.67404729
0.49762768 2.372196 0.62053013
0.39580646 2.3154569 0.57754546
0.30845273 2.3156185 0.55024403
0.61688894 2.4763353 0.57956976
0.49307755 2.3521399 0.52057052
0.39542729 2.3079026 0.48384279
0.31052724 2.3185148 0.45991144
0.60804009 2.443177 0.47435966
0.49569961 2.3615689 0.42973965
0.39668542 2.3082261 0.3941547
0.3100394 2.3081362 0.36952284
0.61588591 2.4737813 0.38363349
0.49470827 2.3509269 0.33746624
0.39822841 2.3099582 0.3066003
0.31290188 2.3138349 0.28313237
0.61210406 2.4567618 0.28627661
0.50044155 2.3779664 0.25116459
0.40333861 2.3340037 0.22223015
0.31427246 2.315449 0.19736649
0.62280846 2.4980528 0.19638109
0.50006908 2.3724978 0.16151108
0.40297726 2.3285217 0.13522296
0.31472799 2.3130496 0.11098412
0.62225556 2.4924991 0.10143021
0.50025481 2.367645 0.072413273
0.40678322 2.3434541 0.048908748
0.31603464 2.3153925 0.025492212
0.62066263 2.484642 0.0072857453
0.49947155 2.3596613 -0.016459934
0.40518633 2.3287065 -0.038039695
0.31774685 2.3215861 -0.06009097
0.61893964 2.4722383 -0.086324945
0.49842906 2.3504837 -0.10402399
0.40557906 2.3225617 -0.1246351
0.31888551 2.3256757 -0.1464542
0.40248439 1.6031346 -0.11668275
0.50267655 2.3644125 -0.19363864
0.40025783 2.2899668 -0.20833135
0.30616581 2.2279971 -0.22336362
0.33035773 1.314293 -0.14583136
0.24732372 1.1608329 -0.13900724
0.221707 1.2664816 -0.16274604
0.18755461 1.3623841 -0.18782118
0.28076985 1.1131498 -0.16633123
0.25107798 1.1752329 -0.18559034
0.21622422 1.2323756 -0.20572168
0.18185154 1.3194233 -0.23228544
0.27557966 1.0890453 -0.20542748
0.24631688 1.1502939 -0.22661848
0.21534872 1.2229961 -0.25138557
0.18470839 1.3370454 -0.28738934
0.29185116 1.1487098 -0.26284045
0.2510286 1.1697049 -0.27705428
0.21504427 1.2205187 -0.29952502
0 0 -0
0.28526098 1.1183537 -0.30192757
0.24911752 1.1565684 -0.3215059
0 0 -0
0.1089431 0.79084456 -0.23435083
0.63152653 2.4637389 0.7857545
0.51165891 2.3697197 0.72005212
0.40935642 2.3194451 0.67461276
0.32117206 2.323199 0.64736706
0.62914449 2.4608734 0.67817467
0.51340204 2.3747792 0.62201822
0.41051489 2.3158531 0.57826173
0.32480633 2.3291068 0.55391234
0.63231337 2.4734483 0.57979119
0.51121569 2.3662655 0.52438116
0.4102661 2.3092899 0.48465228
0.32433885 2.3136506 0.45933267
0.64320344 2.5184286 0.48972732
0.51247025 2.3690677 0.43166828
0.40997604 2.3008945 0.39332491
0.3254334 2.3149927 0.37093323
0.63423538 2.4824109 0.38556802
0.51143241 2.3584926 0.33899638
0.41605797 2.3279691 0.30932394
0.32778877 2.3167863 0.28373429
0.63972014 2.5020576 0.29200667
0.51628798 2.3806837 0.25178146
0.41852996 2.336385 0.22269721
0.32819375 2.3115041 0.19719817
0.64380884 2.516402 0.19813041
0.51948792 2.3918109 0.16303979
0.41743347 2.326988 0.13528009
0.3300406 2.3189862 0.11136404
0.64497674 2.5176728 0.10261375
0.5220024 2.397738 0.07343024
0.42133176 2.341898 0.048929304
0.33108354 2.3193491 0.02555766
0.65004951 2.5360017 0.0074479035
0.51969379 2.3829315 -0.016644187
0.41982225 2.3281446 -0.038071878
0.33368546 2.3314679 -0.060398605
0.63558936 2.4742022 -0.08652807
0.52009213 2.3805664 -0.1054946
0.4242678 2.3445957 -0.12595484
0.33371618 2.3276272 -0.14670329
0.34512901 1.3398193 -0.09766987
0.51952076 2.3719945 -0.19451699
0.41607633 2.2972684 -0.20922394
0.3216705 2.2388813 -0.22464846
0.30440047 1.1803432 -0.13117334
0.26530084 1.2087697 -0.14493977
0.23053621 1.2709544 -0.1634995
0.19294646 1.3406131 -0.18497951
0.28982604 1.120029 -0.16762173
0.25573549 1.1620879 -0.18375885
0.22342891 1.229084 -0.2053972
0.19078688 1.3241329 -0.23331629
0.28818855 1.1101849 -0.20974468
0.24956341 1.1315007 -0.22321352
0.22355238 1.2255085 -0.25217921
0.18633877 1.2903893 -0.27760142
0.29446229 1.1298922 -0.25894332
0.25693947 1.1624351 -0.2757006
0.21711868 1.1895335 -0.29224247
0 0 -0
0.29138312 1.1137745 -0.30116832
0.25035796 1.1286392 -0.31416318
0 0 -0
0.1142039 0.79301035 -0.23519585
0.64906096 2.469058 0.78870624
0.52681375 2.3693428 0.72090632
0.42548236 2.3272922 0.67764163
0.3358345 2.3240469 0.64816535
0 0 0
0.5302794 2.3819859 0.62474632
0.4261198 2.3209314 0.58017176
0.33754748 2.3164749 0.55139041
0.65761834 2.5081966 0.58887124
0.5325169 2.3936126 0.53115553
0.42655447 2.3182867 0.48708054
0.33810249 2.3087044 0.45875394
0.65366381 2.4954219 0.48602429
0.52977961 2.378371 0.43394762
0.42569682 2.3070636 0.39481857
0.33977529 2.3139293 0.37108994
0.65446836 2.4976041 0.38854423
0.53452611 2.3939695 0.34456056
0.43051472 2.3263474 0.30945361
0.34301382 2.3216059 0.28457695
0.65430427 2.4952018 0.29166961
0.53717238 2.4056239 0.25476295
0.43376574 2.3386676 0.22316429
0.34310129 2.3143752 0.19761898
0.65620029 2.5008311 0.19721773
0.53938019 2.4119482 0.16463497
0.43498531 2.3420513 0.1363084
0.34514427 2.3228455 0.11164898
0.66269791 2.5223658 0.10296882
0.5384537 2.4022925 0.073669516
0.43679184 2.345166 0.049052656
0.34663492 2.326175 0.02565583
0.66559792 2.5319653 0.0074479035
0.53671515 2.3904305 -0.016719252
0.43428305 2.3265076 -0.038087968
0.34813249 2.3303652 -0.060424238
0.65916061 2.5021486 -0.08764521
0.53666222 2.3861029 -0.10588387
0.43680754 2.3321331 -0.12542695
0.34858277 2.329484 -0.14695236
0.3505412 1.3270676 -0.096895263
0.53559989 2.3755689 -0.19507594
0.43071485 2.2976091 -0.20949173
0.34115678 2.2752457 -0.22850297
0.29511482 1.1159739 -0.12421879
0.26505223 1.1732112 -0.14086843
0.2350354 1.251965 -0.16123913
0.20425904 1.35998 -0.18782118
0.29618534 1.1163164 -0.16733496
0.26176947 1.1556774 -0.18299572
0.22822966 1.2131439 -0.20296359
0.19802919 1.3170923 -0.23228544
0.29069415 1.0922356 -0.20668666
0.26302269 1.1586757 -0.22888844
0.22688635 1.2019622 -0.24761578
0.19235849 1.2766485 -0.27489412
0.29710567 1.1120298 -0.25526267
0.26233849 1.1532371 -0.27389571
0.22820176 1.2082366 -0.29717582
0.27686501 1.8418667 -0.47022784
0.29745981 1.1091623 -0.30040905
0.25985554 1.1383715 -0.31731007
0.14236873 0.75270456 -0.21629392
0 0 -0
0 0 0
0.54604548 2.3866241 0.72717011
0.44154125 2.3340836 0.68039519
0.34980083 2.3200359 0.64763314
0 0 0
0.55007648 2.4013507 0.63069874
0.4434334 2.3344915 0.58423054
0.35350984 2.3259077 0.55414158
0 0 0
0.54893857 2.3979216 0.53284913
0.44351798 2.3300564 0.49011597
0.35389158 2.3172562 0.46087605
0.67558903 2.5160403 0.4908382
0.55931932 2.4403303 0.44587022
0.44354239 2.323781 0.39813778
0.35396689 2.311801 0.37108994
0.6649071 2.4753959 0.38571683
0.55452645 2.4138079 0.34789905
0.44757697 2.3382699 0.31139904
0.35740361 2.3204386 0.28469732
0.66805464 2.4853823 0.29099548
0.54791373 2.3848324 0.25291234
0.44885764 2.3398733 0.22353794
0.35836077 2.3191197 0.19820814
0.66557622 2.4746113 0.19546841
0.56021005 2.4348476 0.16642953
0.45254922 2.3560057 0.13727959
0.35923761 2.3196969 0.11160149
0.67868209 2.5201819 0.10304773
0.55542976 2.4086833 0.073968627
0.45079508 2.3404782 0.049011536
0.36059469 2.3220282 0.025634017
0.68424326 2.5394204 0.0074820421
0.55362296 2.3968353 -0.016787494
0.44949758 2.3287079 -0.038168427
0.36350113 2.3350997 -0.060603689
0.67736685 2.5086706 -0.08801759
0.55309457 2.3905518 -0.1062299
0.45224822 2.3352911 -0.12574369
0.36348468 2.3312459 -0.14720143
0.35919866 1.3268174 -0.097036101
0.55286849 2.3838904 -0.19603416
0.44366747 2.2890561 -0.20895617
0.35541821 2.2750759 -0.22870064
0.32562438 1.2014695 -0.13395517
0.26460236 1.13867 -0.1369134
0.24025552 1.2378385 -0.15960665
0.20494139 1.3097565 -0.18105529
0.30276969 1.113523 -0.16719157
0.26055905 1.1184367 -0.17734866
0.24019031 1.2349671 -0.20685738
0.20382029 1.3012534 -0.2297083
0.29557875 1.0837883 -0.20542748
0.26945749 1.1541712 -0.22832094
0.23594654 1.2092053 -0.24940148
0.19988494 1.2735118 -0.27447763
0.29335436 1.0715789 -0.24638584
0.26474938 1.131685 -0.2691578
0.2322585 1.1896416 -0.29294723
0.19320758 1.2337801 -0.31528032
0.29580113 1.0765316 -0.29205734
0.25911719 1.1038742 -0.30813166
0 0 -0
0.11784173 0.75268269 -0.22364731
0.67651463 2.4507759 0.78545928
0.56572843 2.4046907 0.73371863
0.45917526 2.3483129 0.68535149
0.36507666 2.324512 0.64949572
0 0 0
0.5707972 2.4233899 0.63739508
0.46074229 2.3469729 0.5880506
0.36868766 2.3294632 0.5555172
0.68498284 2.4877155 0.58599216
0.5674485 2.410681 0.53644806
0.46158701 2.346509 0.49416319
0.36779514 2.313103 0.4604902
0.68971115 2.5071101 0.48991248
0.56976575 2.4176869 0.44236356
0.45912829 2.3277881 0.39929947
0.36892253 2.3144624 0.3718735
0.6926775 2.5170338 0.39285976
0.57365203 2.4286714 0.35054204
0.46307021 2.341316 0.31217721
0.37273481 2.3250637 0.28553998
0.6814453 2.4745305 0.290209
0.57191211 2.4211161 0.25712758
0.46707773 2.3566077 0.2254062
0.37210923 2.3139257 0.19795564
0.69558108 2.5243123 0.19972764
0.5778957 2.4430161 0.1672271
0.46971762 2.3668942 0.13807938
0.37441778 2.3233659 0.11188643
0.69227254 2.5092273 0.10277156
0.5755018 2.4275997 0.074656561
0.4680742 2.3523767 0.049319915
0.37515458 2.3217461 0.02565583
0.70247287 2.5448136 0.0075104912
0.57917738 2.439121 -0.017108232
0.47042552 2.3592451 -0.03871553
0.37878114 2.3387463 -0.060757507
0.68901688 2.4909816 -0.087543651
0.57491857 2.4172437 -0.10757075
0.46911511 2.345202 -0.12642995
0.37794188 2.3299568 -0.14726369
0.34680724 1.250573 -0.091613911
0.57372653 2.4066331 -0.19819014
0.46650276 2.3302391 -0.21297285
0.37144625 2.2856212 -0.22998548
0.3178302 1.1448414 -0.12785655
0.26373887 1.1041797 -0.13295838
0.24765123 1.2353684 -0.15948109
0.21233736 1.3045627 -0.18051402
0.29924119 1.0744624 -0.1615994
0.27109891 1.1321948 -0.17979065
0.24096204 1.1996101 -0.20117892
0.20530578 1.2601136 -0.22266413
0.2987828 1.0696378 -0.20308898
0.27218124 1.1343542 -0.22472684
0.23523022 1.1673808 -0.24106824
0.20454362 1.2529554 -0.27031258
0.30229592 1.0782191 -0.24833444
0.27487656 1.1433004 -0.2723164
0.24070624 1.1939111 -0.29435673
0.20077427 1.2325714 -0.31528032
0.30318719 1.0774902 -0.29281658
0.26769584 1.1097683 -0.3102296
0 0 -0
0.12477132 0.76615095 -0.22787237
0.70739228 2.5026636 0.80346495
0.58723021 2.4291275 0.74226016
0.47566852 2.3558166 0.6883803
0.38042054 2.3288877 0.65135825
0.69642752 2.4697995 0.68513954
0.58907431 2.4339654 0.64111525
0.47667766 2.3517158 0.58996069
0.38249987 2.324276 0.55482942
0.69944036 2.4806499 0.5853278
0.59486669 2.4594007 0.54809153
0.47617111 2.3445923 0.49436551
0.38342139 2.3195152 0.46222645
0.71200973 2.5274241 0.49472642
0.59988219 2.4772983 0.45393553
0.47753459 2.3452196 0.40278462
0.38376263 2.3160524 0.37250033
0.69523394 2.4670501 0.38571683
0.59461552 2.4501266 0.3541587
0.48020443 2.3520317 0.31399295
0.38715726 2.3237119 0.28566036
0.70767331 2.5095136 0.29481548
0.59356076 2.4455941 0.26010907
0.48791462 2.3849111 0.22839543
0.3877784 2.3204443 0.19871312
0.69562262 2.4652975 0.19539234
0.59428871 2.4452417 0.1676259
0.48783797 2.3815727 0.13910769
0.38949147 2.3259506 0.11212388
0.71363223 2.5260873 0.1036395
0.6007939 2.4667542 0.075972632
0.48491278 2.3612123 0.049566615
0.38955906 2.3203866 0.025666742
0.71698636 2.5366063 0.0074991118
0.59887242 2.454951 -0.017244715
0.48811728 2.3719838 -0.038972989
0.39312428 2.3363781 -0.060757507
0.74350613 2.6251776 -0.092418469
0.590451 2.4165819 -0.1077005
0.48813936 2.364773 -0.12764409
0.39306036 2.332515 -0.14757504
0.37218416 1.3107946 -0.096191086
0.54936105 2.243315 -0.18501472
0.48502365 2.3478165 -0.21484728
0.38877651 2.3029234 -0.23196214
0.36453748 1.2825006 -0.14347753
0.26624903 1.0851778 -0.13086456
0.259045 1.2522843 -0.16186702
0.22083351 1.3061659 -0.18091996
0.31342655 1.0992547 -0.16561429
0.27969301 1.1372278 -0.180859
0.24211024 1.1681564 -0.19614947
0.21878707 1.2928264 -0.22867745
0.30750397 1.0753505 -0.20452806
0.28195593 1.1441038 -0.22699681
0.23899727 1.1496023 -0.23769529
0.21026571 1.2401049 -0.2678135
0.30540493 1.0641447 -0.24551983
0.28025174 1.1349716 -0.27073708
