# .PCD v0.7 - Point Cloud Data file format
VERSION 0.7
FIELDS x y z
SIZE 4 4 4
TYPE F F F
COUNT 1 1 1
WIDTH 1491
HEIGHT 1
VIEWPOINT 0 0 0 1 0 0 0
POINTS 1491
DATA ascii
1.5705049 -0.58473843 -0.11830236
1.5735751 -0.52134156 -0.13279219
7.9569888 -2.3181303 -0.74272716
7.8446426 -1.9780905 -0.80351603
1.5670763 -0.58396018 -0.17996211
1.5865259 -0.52640063 -0.19577338
5.9916334 -1.74726 -0.78999645
0 -0 -0
1.5797553 -0.5901612 -0.24433485
2.8950722 -0.96236438 -0.47114915
2.9296517 -0.85555589 -0.50181168
4.5855937 -1.1582527 -0.82485378
4.1104894 -1.5391849 -0.80264223
4.0480881 -1.3477625 -0.82191759
3.0063288 -0.87994158 -0.63411862
3.7141669 -0.9393847 -0.81572753
1.6304967 -0.6123296 -0.38624987
3.333564 -1.1115509 -0.81379056
2.9170113 -0.85413027 -0.73459977
3.0956259 -0.78179413 -0.80606991
1.5182929 -0.57182509 -0.42441952
1.4744239 -0.49286503 -0.42246819
1.4009867 -0.41062129 -0.41220838
1.3368555 -0.33757055 -0.40476218
5.7547507 -2.1751273 1.9006284
6.0694561 -2.0322399 1.9010631
6.3580599 -1.8636996 1.8977269
6.6957073 -1.6941656 1.9064468
6.706543 -2.5300624 1.913799
7.0985479 -2.3788784 1.9166493
7.4915252 -2.2020521 1.9198194
7.9118104 -2.0118613 1.9228736
8.0091124 -3.0213006 1.9440058
8.4220867 -2.8211169 1.9239304
8.3865299 -2.4686279 1.8064678
8.3079052 -2.1189132 1.685699
8.4947281 -3.2022896 1.7104353
8.4374304 -2.8287137 1.5848293
8.3755846 -2.4700134 1.4695748
8.3041067 -2.1213408 1.3599318
8.5106487 -3.2091393 1.3687592
8.4469366 -2.8366575 1.2516575
8.1588278 -2.4107347 1.112788
7.8247089 -2.0062964 0.97952729
8.0075426 -3.0210276 0.96770042
7.9405375 -2.6667523 0.86576217
7.8753667 -2.3304164 0.77056599
7.8202624 -2.0092299 0.68198752
7.9825072 -3.013015 0.6508261
7.9198942 -2.6625886 0.55658185
7.8849769 -2.3353558 0.47056675
7.851161 -2.019944 0.38542879
8.0162745 -3.0286381 0.33833739
7.933537 -2.6714911 0.25050029
7.9017305 -2.3446689 0.16948453
7.8606505 -2.0258965 0.088551886
8.0192585 -3.031045 0.024389181
7.9520321 -2.6809645 -0.057268556
7.89856 -2.3471785 -0.13260792
7.852952 -2.0269821 -0.20798549
7.9925442 -3.0257316 -0.28947634
1.5874333 -0.5358386 -0.072535641
7.9359455 -2.363565 -0.43772739
7.8678188 -2.0328701 -0.5069856
1.5715508 -0.59613281 -0.11865445
1.5788451 -0.53386062 -0.13351084
8.0371132 -2.3950703 -0.75156379
7.7928596 -2.015969 -0.79946393
1.5671819 -0.59497619 -0.18039009
1.5785624 -0.53453273 -0.19519177
5.9760461 -1.7825731 -0.78936857
0 -0 -0
1.5714797 -0.5980832 -0.24361791
2.876946 -0.97598267 -0.46916503
2.9763482 -0.8890487 -0.51073492
4.4448915 -1.1517725 -0.80080062
1.6378136 -0.62476927 -0.32055321
4.0332336 -1.3703644 -0.82059348
3.8252683 -1.1451707 -0.80832273
3.6297545 -0.94176888 -0.79844248
1.6267089 -0.62232262 -0.38624987
3.3294477 -1.1329259 -0.81446743
3.2702093 -0.9793759 -0.82504457
3.1095424 -0.8056373 -0.81096554
1.5093362 -0.5790512 -0.42290106
1.479592 -0.50470662 -0.42482835
1.3846132 -0.41506472 -0.40813249
1.379344 -0.35731661 -0.41828242
5.7216802 -2.2028446 1.8941346
6.0450797 -2.065414 1.8973618
6.3658423 -1.9084743 1.9035093
6.6627932 -1.7294054 1.900061
6.685482 -2.5690861 1.9122514
7.0884008 -2.4239566 1.9178895
7.4890323 -2.2513328 1.9226844
7.9143872 -2.0643001 1.926542
7.9986157 -3.0735347 1.945999
8.437911 -2.8841207 1.9315517
8.3768511 -2.5217342 1.807682
8.3127823 -2.1745675 1.6893642
8.5217066 -3.2723179 1.719878
8.4264355 -2.8826621 1.5860566
8.3819857 -2.5279074 1.4733918
8.3281946 -2.1820161 1.3660434
8.5221834 -3.2733543 1.3738186
8.4499817 -2.8954957 1.2547178
8.3593435 -2.5258546 1.1422287
7.830493 -2.059067 0.9818145
8.0148258 -3.0800846 0.9708463
7.9381404 -2.7202613 0.86730438
7.8809309 -2.3847506 0.77252769
7.8347669 -2.0642848 0.68434411
8.0243645 -3.085197 0.65576988
7.9270024 -2.7192278 0.55824345
7.8934312 -2.3906386 0.47193787
7.8560047 -2.0726666 0.38628364
8.0292473 -3.0899701 0.33967876
7.9463005 -2.7301886 0.2514275
7.92068 -2.4032688 0.17020407
7.8616061 -2.0776672 0.088704601
8.0481043 -3.0985172 0.024534272
7.9742022 -2.7430432 -0.057548352
7.9107966 -2.4037383 -0.13305847
7.8538971 -2.0787098 -0.20834443
8.0008707 -3.0851436 -0.29045805
1.573725 -0.54199028 -0.072059862
7.9413548 -2.4183235 -0.43883595
7.88414 -2.0887759 -0.50885367
1.5706549 -0.60684294 -0.11886571
1.5670589 -0.54061246 -0.13279219
8.064188 -2.4571135 -0.75549126
7.7611055 -2.0586445 -0.79748726
1.5570103 -0.60207093 -0.17964114
1.5827631 -0.54680306 -0.19612236
5.9754348 -1.8223915 -0.79074991
1.6835001 -0.44699115 -0.2378888
1.5714713 -0.60914505 -0.24419145
2.9428163 -1.0185058 -0.48091707
2.9802742 -0.91017663 -0.51235735
1.5814391 -0.42015857 -0.28537434
1.6119432 -0.62625742 -0.31623599
3.9087758 -1.3548864 -0.79694796
3.8162949 -1.1680468 -0.80792582
2.9981835 -0.79756933 -0.66057891
1.6319565 -0.63583648 -0.38841495
3.31231 -1.1498194 -0.81198567
3.216738 -0.98490983 -0.81306362
2.9021316 -0.77093321 -0.75809246
1.5336891 -0.59921545 -0.43074659
1.4810244 -0.51536143 -0.42613956
1.4170053 -0.43426844 -0.41845807
1.354869 -0.35986191 -0.41152233
5.7471948 -2.2532558 1.9071224
6.0241456 -2.0996275 1.8947991
6.3374681 -1.9424276 1.8985531
6.630631 -1.7645533 1.8939413
6.6911855 -2.6185091 1.9184422
7.0706506 -2.4664476 1.9171455
7.4750772 -2.2972422 1.9226844
7.8837056 -2.1080458 1.922186
7.9877791 -3.1257536 1.9479922
8.4477406 -2.9454935 1.9379026
8.3761969 -2.5776947 1.8109198
8.3409843 -2.2367153 1.6978526
8.5417366 -3.3402922 1.7280245
8.4457703 -2.9472866 1.5930699
8.3870497 -2.5856824 1.4770429
8.3470802 -2.241786 1.3713716
8.523119 -3.333869 1.3772413
8.4572973 -2.9561117 1.2584738
8.3882151 -2.590852 1.1483245
7.8435922 -2.1140506 0.9850648
8.0503702 -3.1505706 0.97747517
7.9569802 -2.78139 0.87121105
7.8975387 -2.442771 0.77561033
7.8411922 -2.1175146 0.68602741
8.0340652 -3.1456449 0.65812767
7.9742107 -2.7902246 0.56276309
7.9043636 -2.4469981 0.47348028
7.8556738 -2.1242206 0.38690099
8.0399065 -3.1508455 0.34094119
7.9567547 -2.7884817 0.25229493
7.9181995 -2.4556739 0.17047134
7.8680139 -2.1310947 0.088922769
8.0391808 -3.1518559 0.024565564
7.974205 -2.7978795 -0.057671186
7.9169059 -2.4587572 -0.13341248
7.8699384 -2.1347125 -0.20911349
7.9789991 -3.1330819 -0.29035649
1.5826236 -0.55594075 -0.07262215
7.9492507 -2.4741275 -0.44010291
7.9097037 -2.1475737 -0.51134443
1.5733997 -0.61902529 -0.11935863
1.5721749 -0.5531953 -0.13351084
8.0556164 -2.508621 -0.75611609
7.8347516 -2.1297195 -0.80638224
1.5569872 -0.61307031 -0.18006912
1.571884 -0.55386382 -0.19519177
7.8186398 -2.4370689 -1.0366271
0 -0 -0
1.5677041 -0.61877596 -0.24419145
1.5973279 -0.56383228 -0.26159692
2.976517 -0.92903405 -0.51268178
1.6273084 -0.44305262 -0.29413658
1.6144732 -0.63866925 -0.31749517
3.9513075 -1.3968453 -0.80735195
3.7519951 -1.1735929 -0.79582286
1.5551225 -0.423924 -0.34320116
1.6080598 -0.63791806 -0.38365179
1.6255045 -0.57546967 -0.39933723
3.2950513 -1.0310435 -0.83444148
2.8636672 -0.77955759 -0.74928027
1.4913294 -0.59323841 -0.41986406
1.4851098 -0.52702099 -0.42823747
1.3996198 -0.4383527 -0.41411045
1.3776327 -0.37497237 -0.41912743
5.7181754 -2.2824559 1.9021044
6.0274076 -2.1423302 1.8999242
6.3401084 -1.9858747 1.9029586
6.632699 -1.8087555 1.8976663
6.693841 -2.6670258 1.9238595
7.0535579 -2.5091362 1.9166493
7.4886346 -2.3517938 1.929847
7.8565407 -2.1525214 1.9187468
7.9367423 -3.1620746 1.940241
8.4654226 -3.0100422 1.946159
8.4050646 -2.6431432 1.8206332
8.3441334 -2.2925317 1.7013251
8.5439062 -3.4017284 1.7326535
8.4507151 -3.0073051 1.5974531
8.3888969 -2.6427255 1.4801962
8.3607826 -2.3005593 1.3759164
8.5364943 -3.3996403 1.3827473
8.4557896 -3.0139337 1.2609775
8.4137659 -2.6554034 1.1540312
7.8764043 -2.1748207 0.99084294
8.0336561 -3.2010107 0.97781217
7.9725585 -2.8418503 0.8748095
7.9089828 -2.4995842 0.7782259
7.8559031 -2.1732924 0.68846816
8.0257273 -3.1993122 0.65904033
7.983254 -2.8484898 0.56462419
7.9206123 -2.5053885 0.47536552
7.8655949 -2.1787817 0.38804075
8.0417681 -3.2086349 0.34184858
7.9771457 -2.8507056 0.25349134
7.9058414 -2.5051188 0.17053302
7.8730969 -2.184411 0.089130022
8.0763435 -3.2237377 0.024739102
7.9870172 -2.8575351 -0.057889562
7.9397922 -2.5193844 -0.13405614
7.8894396 -2.19206 -0.20998511
8.0477867 -3.2172253 -0.29357255
1.5688366 -0.56193525 -0.072146364
7.9339199 -2.5228567 -0.44010291
7.8973384 -2.1963334 -0.51140666
1.5686458 -0.62829697 -0.11928821
1.5771953 -0.56586117 -0.1342295
1.6021298 -0.50972819 -0.1506698
7.8637161 -2.1894965 -0.81073087
1.5504276 -0.6215024 -0.17974813
1.5656518 -0.56249088 -0.19484279
1.5994655 -0.50934166 -0.212474
1.5853083 -0.44181526 -0.22476296
1.5556132 -0.6250627 -0.24290095
1.5938383 -0.57362264 -0.26159692
2.9829822 -0.95117718 -0.51479095
2.9824705 -0.83170027 -0.5399949
1.6232986 -0.65370786 -0.32001355
3.9389675 -1.419732 -0.80659539
3.7129807 -1.1864495 -0.78907692
2.9128067 -0.81325996 -0.64391869
1.6158836 -0.65252519 -0.38646638
1.6320227 -0.58907104 -0.40181899
1.6239624 -0.51911002 -0.41205245
1.5671732 -0.43696746 -0.41074562
1.5351876 -0.62162203 -0.43327746
1.4845703 -0.53710842 -0.42902416
1.4555664 -0.46570119 -0.43150091
1.3845487 -0.38599503 -0.42194414
5.7111444 -2.3203762 1.9044658
5.9943213 -2.1720886 1.8936603
6.3378758 -2.0279622 1.9059876
6.6521134 -1.8579762 1.9064468
6.6531763 -2.6982446 1.9168946
7.0362077 -2.5517085 1.9161533
7.4675908 -2.3956225 1.9281757
7.8516192 -2.2030544 1.9208102
7.9144797 -3.2096143 1.9395765
8.4394426 -3.0592637 1.9444653
8.4119978 -2.7021534 1.8256921
8.3459663 -2.3482049 1.7046047
8.5638571 -3.4706986 1.7409853
8.4765272 -3.0752175 1.6058692
8.4119501 -2.706836 1.4871665
8.3759794 -2.3601203 1.3807744
8.5521307 -3.4668152 1.3886998
8.483674 -3.0826705 1.2679328
8.4218512 -2.714889 1.1574032
7.8887048 -2.230401 0.99409324
8.0589838 -3.268544 0.98331755
7.9717989 -2.8968306 0.87666005
7.9181314 -2.5560179 0.78065461
7.85776 -2.2257996 0.68981481
8.0465994 -3.2649927 0.66238689
7.9853172 -2.904583 0.56601995
7.9373913 -2.5643768 0.47730792
7.8895555 -2.2376325 0.38989285
8.0543318 -3.2710776 0.34322941
7.9942532 -2.9122577 0.25459802
7.9217114 -2.5637398 0.17121144
7.8932109 -2.2422419 0.089511804
8.0971756 -3.2897947 0.024864279
7.9890618 -2.9136839 -0.05803287
7.9460607 -2.5751443 -0.13442624
7.8873792 -2.2437098 -0.21029274
8.0510378 -3.2759619 -0.29441884
1.5850668 -0.57874668 -0.073054686
7.8869481 -2.5613122 -0.43836084
7.8933129 -2.2474825 -0.51202935
1.5647612 -0.63791019 -0.11928821
1.5765021 -0.57655513 -0.13446906
1.6008666 -0.52016467 -0.15084833
7.8539619 -2.2387977 -0.81112629
1.5539496 -0.63400877 -0.18060407
1.5547098 -0.56935459 -0.19391219
1.6019709 -0.52098721 -0.21322747
1.6197258 -0.46213612 -0.23004036
1.5654889 -0.64021522 -0.24505179
1.5986389 -0.58645475 -0.26297051
2.9930398 -0.97465658 -0.51754904
2.9574182 -0.84430557 -0.53638697
1.6128856 -0.6610446 -0.31875437
3.9495378 -1.4509853 -0.8105678
3.7522194 -1.2244122 -0.79899746
2.9190466 -0.83434278 -0.64641768
1.6001104 -0.65760338 -0.38365179
1.6183202 -0.59537375 -0.39933723
1.5763932 -0.51458627 -0.40077624
1.5560714 -0.44417998 -0.40854254
1.5295556 -0.63029283 -0.43277127
1.4857737 -0.54787678 -0.43033537
1.4691477 -0.48000348 -0.43639198
1.3904582 -0.3968533 -0.42447922
5.6976824 -2.3557405 1.904761
6.0195484 -2.2231085 1.9059032
6.3362789 -2.0703955 1.9092919
6.6498561 -1.9014078 1.9091076
6.6230989 -2.7334878 1.9130251
7.0158749 -2.5931544 1.9149133
7.446291 -2.4392815 1.9265044
7.8463736 -2.2536077 1.9228736
7.9081583 -3.2636967 1.9428985
8.4030943 -3.1045542 1.940443
8.4259672 -2.7637899 1.8323699
8.3530874 -2.405616 1.7090417
8.5651112 -3.532547 1.7456141
8.4805832 -3.1357064 1.6102524
8.4251623 -2.76825 1.4924772
8.367034 -2.4131119 1.3817146
8.5672636 -3.5343094 1.3946521
8.4961729 -3.1463599 1.2726622
8.4248133 -2.7730236 1.1601268
7.8758245 -2.2790394 0.99421364
8.0672503 -3.3296833 0.98680043
7.9762611 -2.9539809 0.8791275
7.9249935 -2.6120346 0.78289658
7.8621387 -2.2792435 0.69141394
8.0568275 -3.3268628 0.66489679
7.9954114 -2.9639299 0.56801391
7.9338322 -2.6170971 0.47805056
7.9025369 -2.2937961 0.39122257
8.0821295 -3.3402827 0.34528092
8.0127792 -2.9748228 0.25576454
7.9362097 -2.6223361 0.17186932
7.8994679 -2.2964935 0.089740872
8.0999393 -3.348968 0.024935398
8.0216484 -2.9814615 -0.058401372
7.9443493 -2.6285634 -0.13466761
7.8993797 -2.299608 -0.21098493
8.0806484 -3.3459473 -0.29624689
1.5805495 -0.58811313 -0.073011428
1.5848327 -0.52545124 -0.0882634
7.8994961 -2.3017359 -0.51333696
1.5562106 -0.64558822 -0.11893613
1.5776049 -0.5879581 -0.13486831
1.5948087 -0.52903682 -0.15058054
7.870646 -2.2958634 -0.81428891
1.5481936 -0.64276922 -0.18039009
1.5604923 -0.58235598 -0.19507544
1.5874455 -0.52705562 -0.21172056
1.639686 -0.47873035 -0.23328799
1.5414294 -0.64144379 -0.24189723
1.5894562 -0.59417647 -0.26205477
2.9944942 -0.99549353 -0.51884699
2.9351609 -0.8574636 -0.53329438
1.6060754 -0.66979271 -0.31821471
3.8688302 -1.448339 -0.79581296
3.7437055 -1.2471025 -0.79879898
2.9232597 -0.85498363 -0.6485002
1.5861375 -0.663266 -0.3812702
1.6155487 -0.60563433 -0.39956281
1.6045597 -0.53469729 -0.40876359
1.5468019 -0.45181656 -0.40682909
1.5122764 -0.63405508 -0.42897502
1.4751574 -0.5542677 -0.42823747
1.447916 -0.48291919 -0.43095747
1.3824708 -0.4037635 -0.42278919
5.6751943 -2.3873222 1.9021044
5.9699063 -2.2464974 1.8945144
6.3207197 -2.1083226 1.9084657
6.5936561 -1.9291818 1.8963358
6.6062021 -2.774075 1.9130251
7.0061779 -2.6385441 1.9166493
7.4385519 -2.4873888 1.9284146
7.8370676 -2.303082 1.9240201
7.8807907 -3.3091383 1.9411268
8.3893747 -3.1581223 1.9417133
8.4255648 -2.8210351 1.8360124
8.3617001 -2.4637578 1.7138647
8.5768023 -3.5991044 1.7524647
8.5072479 -3.2050378 1.619019
8.439806 -2.830555 1.4981198
8.3766985 -2.471673 1.385789
8.5809755 -3.6017363 1.4004557
8.5054293 -3.2092695 1.2769744
8.4546366 -2.8404543 1.1666117
7.8807297 -2.3329573 0.99662119
8.0842304 -3.3948946 0.99140698
7.9840436 -3.0126996 0.88200617
7.933352 -2.6688662 0.78532529
7.8871741 -2.3390577 0.69486475
8.0895796 -3.3986359 0.66930813
8.0041447 -3.0231571 0.5699414
7.9479032 -2.6759231 0.47987869
7.8969321 -2.3448009 0.39165002
8.095562 -3.4041417 0.3467406
8.0121384 -3.0306513 0.25633284
7.9455485 -2.6796086 0.17242439
7.9082317 -2.3517611 0.090002671
8.1096563 -3.4114008 0.025029279
8.0125561 -3.0341668 -0.058469616
7.9621749 -2.688776 -0.13524689
7.918654 -2.3580198 -0.21188219
8.0756235 -3.4020624 -0.2968224
1.5769111 -0.59780014 -0.073011428
1.5891461 -0.53772628 -0.088685714
7.9493089 -2.3692632 -0.51750892
1.549463 -0.65396118 -0.11872487
1.5627848 -0.59338099 -0.13391009
1.592476 -0.53913182 -0.1506698
7.8487821 -2.3418374 -0.8134982
1.5451363 -0.6526435 -0.18049708
1.555033 -0.59121412 -0.19484279
1.5841817 -0.53678608 -0.21172056
1.6072872 -0.47999325 -0.22909313
1.538376 -0.65127558 -0.24204062
1.5811626 -0.60215938 -0.26129165
2.9967396 -1.0167019 -0.52030718
2.9836464 -0.89153367 -0.54308748
1.5865409 -0.67310357 -0.3151567
1.6239531 -0.61933184 -0.3348203
3.7341273 -1.2694191 -0.79840219
3.6441686 -1.0901493 -0.80989641
1.5775461 -0.67107505 -0.38018766
1.6145326 -0.61657846 -0.40023968
1.6012486 -0.5445326 -0.40876359
1.5449295 -0.46157661 -0.40707389
1.5243753 -0.65015399 -0.43353051
1.4744323 -0.56434351 -0.42902416
1.4768124 -0.50264728 -0.44046786
1.3983546 -0.41773143 -0.4284226
5.6516552 -2.4183409 1.8991528
5.9551148 -2.2827427 1.8942298
6.298564 -2.1439683 1.9057122
6.610323 -1.9781706 1.9045843
6.5988297 -2.8187325 1.9158628
6.993474 -2.6828716 1.9176414
7.4176345 -2.5311024 1.9269819
7.7966881 -2.3432815 1.9176005
7.8666153 -3.3601129 1.942677
8.371664 -3.2102389 1.9421368
8.4507265 -2.8872449 1.8453211
8.3680334 -2.521529 1.7183018
8.5834799 -3.6640089 1.7583896
8.5232697 -3.2709339 1.6258571
8.4362755 -2.8870769 1.5006093
8.3869047 -2.5307283 1.3900203
8.6187372 -3.6799483 1.4102772
8.5354929 -3.2805822 1.2844861
8.4642487 -2.901602 1.1703727
7.8824196 -2.3861582 0.99866766
8.0897474 -3.4557548 0.99466527
8.0071898 -3.0776913 0.88663262
7.9413109 -2.7258983 0.78775406
7.8888845 -2.3923244 0.69629556
8.0933304 -3.4587886 0.67136174
8.0496988 -3.0969336 0.57452744
7.9558835 -2.7330735 0.48136404
7.9148927 -2.4030778 0.39326465
8.081872 -3.4568949 0.34705624
8.0344305 -3.0955677 0.25764889
7.9667726 -2.7413232 0.17324674
7.9242663 -2.4095497 0.090351723
8.0996046 -3.4658175 0.02506342
8.033905 -3.0987475 -0.058763053
7.9871211 -2.7519114 -0.1359549
7.9164691 -2.4103489 -0.21221547
8.0610275 -3.4543052 -0.29705939
1.5657574 -0.60458565 -0.072665401
1.5952562 -0.5507257 -0.08921361
7.9470325 -2.4217768 -0.51831841
1.5270888 -0.655586 -0.11731651
1.57306 -0.60835207 -0.13510786
1.5900794 -0.54921812 -0.15075907
7.8618674 -2.3983729 -0.81636441
1.5392758 -0.661327 -0.1802831
1.5495237 -0.60002714 -0.19461015
1.5846087 -0.54779285 -0.21222286
1.6052594 -0.49013567 -0.22922845
1.529806 -0.65874559 -0.24132368
1.5571672 -0.60398728 -0.25793391
3.0062969 -1.0405573 -0.52306527
3.0026155 -0.91730767 -0.54755449
1.5950255 -0.68828207 -0.31767505
1.6265297 -0.63177329 -0.33614445
3.7234902 -1.291344 -0.79780698
3.6346049 -1.1116308 -0.80927163
1.5733988 -0.68074208 -0.38018766
1.6089031 -0.62576717 -0.39978844
1.6079787 -0.55785191 -0.41134769
1.5392864 -0.47019768 -0.40633953
1.5061567 -0.65333527 -0.42948118
1.46285 -0.57022554 -0.42666402
1.4718822 -0.51106805 -0.43992442
1.3939298 -0.42574316 -0.42785928
5.6349578 -2.4522107 1.8985623
5.9481397 -2.3220284 1.8965075
6.2571378 -2.1727993 1.8971763
6.6026692 -2.0201035 1.9059147
6.589385 -2.8626337 1.9181844
6.9624434 -2.7200918 1.9136733
7.404716 -2.5775263 1.9276983
7.79705 -2.3956509 1.9212687
7.8333282 -3.4028788 1.9395765
8.3700161 -3.2686563 1.9463706
8.4661427 -2.9506462 1.8526061
8.3711586 -2.5786037 1.72216
8.6023016 -3.7346089 1.7669065
8.5443029 -3.3392968 1.6337471
8.4519176 -2.9504869 1.5065837
8.403306 -2.5920393 1.3953483
8.6195784 -3.7430034 1.4141463
8.53088 -3.3390293 1.2868508
8.4724932 -2.9626472 1.1740042
7.8856487 -2.4400547 1.0009549
8.0884409 -3.5140381 0.99713695
8.0316887 -3.1438053 0.89146465
7.94135 -2.7804961 0.78943545
7.9035621 -2.4498303 0.69890469
8.1185923 -3.5286534 0.67524064
8.0472689 -3.1528192 0.57572389
7.971941 -2.7933936 0.48336354
7.9314799 -2.4613671 0.39483181
8.1081543 -3.5271456 0.34910768
8.0432005 -3.15576 0.2585462
7.9856501 -2.8027365 0.17402796
7.9351149 -2.4661396 0.090646245
8.1212816 -3.5342047 0.025197128
8.045455 -3.1600482 -0.058988251
7.9927254 -2.8088238 -0.13634109
7.9187112 -2.4642246 -0.21267691
8.0754118 -3.5192735 -0.29837963
1.571316 -0.61783743 -0.073097937
1.6003243 -0.5634886 -0.089688711
7.9539399 -2.4773192 -0.51975054
1.5312651 -0.66853583 -0.11795027
1.5702251 -0.61835796 -0.13518772
1.5876189 -0.55929524 -0.15084833
7.8280039 -2.4406435 -0.8143878
1.5406555 -0.67314786 -0.18092506
1.5430409 -0.60843056 -0.19426116
1.575604 -0.55552626 -0.21146941
1.6183007 -0.50499362 -0.23152885
1.5112303 -0.6617682 -0.23902945
1.5764116 -0.6226064 -0.26174951
3.0110211 -1.0629255 -0.52501214
3.0006921 -0.93688858 -0.54824173
1.5736576 -0.6905458 -0.31425726
1.6180569 -0.63993591 -0.33519861
3.7210407 -1.3161275 -0.79899746
3.5987763 -1.1248658 -0.80281579
1.567405 -0.68959713 -0.37975463
1.60141 -0.63419265 -0.398886
1.6072745 -0.56868047 -0.41205245
1.5530318 -0.48483455 -0.41074562
1.5030048 -0.66295499 -0.42973429
1.4943043 -0.5930742 -0.43689138
1.4732546 -0.52169591 -0.44128305
1.394955 -0.43543178 -0.42898598
5.6215529 -2.4875135 1.8991528
5.9524875 -2.3659172 1.9024866
6.2889977 -2.2271976 1.910944
6.5763497 -2.0562637 1.9019235
6.5504856 -2.8936419 1.9119933
6.9258184 -2.754884 1.908217
7.3768649 -2.6186893 1.9245945
7.7979908 -2.4484046 1.9251664
7.8363857 -3.461518 1.9455562
8.3543434 -3.3217578 1.9474292
8.4718704 -3.011065 1.8578674
8.4029131 -2.6449444 1.7319988
8.6214781 -3.805974 1.7756087
8.5584126 -3.4054925 1.6404097
8.4587393 -3.0112209 1.5110648
8.4041996 -2.6488967 1.3981692
8.6217785 -3.8070059 1.4183129
8.5332289 -3.4004755 1.2903284
8.469099 -3.0199063 1.1760794
7.9046044 -2.4991677 1.0052886
8.1049023 -3.5804663 1.0018559
8.0473614 -3.2070208 0.89537144
7.9897761 -2.8526053 0.79597443
7.9206791 -2.5085084 0.70176625
8.1159401 -3.5868661 0.67683786
8.0537214 -3.2124877 0.57758492
7.9753346 -2.8496466 0.48462036
7.9352717 -2.5160255 0.39578164
8.1311369 -3.5966363 0.35104084
8.0533895 -3.2169182 0.25950336
8.0059557 -2.8651578 0.1748503
7.9522376 -2.5250714 0.091017127
8.1405945 -3.6021786 0.025325147
8.0574837 -3.2219784 -0.059220277
7.9941649 -2.8645589 -0.13666292
7.9405961 -2.524579 -0.21367671
0 -0 -0
1.5684229 -0.62783849 -0.073141187
1.5902575 -0.57093531 -0.089319184
7.9490519 -2.5294063 -0.52043551
1.528046 -0.67832363 -0.11802069
1.56085 -0.62575549 -0.1347086
1.5841572 -0.56902617 -0.15084833
1.6090362 -0.51252472 -0.16772039
1.5237752 -0.67693722 -0.17942715
1.5438871 -0.61973703 -0.19484279
1.5702983 -0.56451225 -0.21121825
1.6208357 -0.51671946 -0.23234077
1.5369767 -0.68431216 -0.24376129
1.585399 -0.63742876 -0.26388624
2.9635911 -1.0666772 -0.51787353
2.9864399 -0.9525885 -0.54669547
1.5738826 -0.70219254 -0.3151567
1.6241198 -0.65388614 -0.33727944
3.7423987 -1.3495742 -0.80534649
3.5890112 -1.1460338 -0.80219108
1.5631442 -0.69920158 -0.37975463
1.5956813 -0.64327818 -0.39843476
1.6010119 -0.57754225 -0.41134769
1.5758922 -0.50260371 -0.41759953
1.4856675 -0.66622692 -0.42593804
1.4942161 -0.60367781 -0.43794033
1.4709309 -0.53105265 -0.44155478
1.4151108 -0.45127082 -0.43602777
5.6096692 -2.5235276 1.9003333
5.9351926 -2.4013181 1.9016324
6.2625542 -2.2611735 1.9070889
6.5663638 -2.0974567 1.9027218
6.5317264 -2.9333847 1.9117354
6.9051929 -2.7958741 1.9072249
7.3615708 -2.6642339 1.9248332
7.8004313 -2.5018542 1.9295225
7.8141088 -3.5091362 1.9453346
8.3274622 -3.3703897 1.9459473
8.4698086 -3.068996 1.8615098
8.434165 -2.7117712 1.7418374
8.6347218 -3.8753004 1.7831999
8.5492182 -3.4627464 1.642689
8.4679127 -3.0731585 1.5160434
8.4300928 -2.7140338 1.405221
8.6415596 -3.8792753 1.4254559
8.544322 -3.4657986 1.2951971
8.5025959 -3.090785 1.1833423
7.9099035 -2.5543337 1.0079368
8.1154127 -3.6447852 1.0059005
8.049654 -3.265312 0.89783889
7.9852204 -2.9063432 0.79728222
7.9345288 -2.5665686 0.70437533
8.1365261 -3.6558037 0.68041253
8.0662155 -3.2749815 0.57991117
7.9924078 -2.911171 0.48673409
7.9434409 -2.5723615 0.39696887
8.1399002 -3.6603935 0.35238218
8.0612774 -3.2775664 0.26040065
8.0051317 -2.9203956 0.17522037
7.9518127 -2.5787532 0.091191649
8.1466103 -3.6647785 0.02541334
8.0866499 -3.2913368 -0.059581954
8.0055523 -2.924191 -0.13716175
7.9601364 -2.5846772 -0.21462525
1.6538899 -0.74504912 -0.061443049
1.5617654 -0.6363194 -0.073011428
1.5745333 -0.57622075 -0.088632934
1.5889544 -0.5163669 -0.10423654
1.5238551 -0.6876868 -0.11802069
1.5551353 -0.63456768 -0.1345489
1.5815713 -0.57907808 -0.15093759
1.6124852 -0.52454281 -0.16841222
1.5141562 -0.68381888 -0.1787852
1.5428138 -0.63032538 -0.19519177
1.5593529 -0.57140607 -0.21021365
1.6100975 -0.52420115 -0.23125821
1.502094 -0.67985541 -0.23888607
1.581458 -0.64714462 -0.26388624
1.6267152 -0.59679872 -0.28489533
2.9805388 -0.97089505 -0.54669547
1.5695443 -0.71183652 -0.3151567
1.6173511 -0.66272229 -0.33671194
3.8104029 -1.4005774 -0.8218146
3.5884209 -1.1701565 -0.80364883
1.5579358 -0.70837563 -0.37953815
1.5944082 -0.6541664 -0.3991116
1.6010873 -0.58869678 -0.41228738
1.5580281 -0.5074594 -0.413683
1.4947561 -0.68134928 -0.42973429
1.4994088 -0.61650449 -0.44056273
1.4450655 -0.53175932 -0.43476161
1.4260005 -0.46440211 -0.44025284
5.5906043 -2.5563111 1.8991528
5.9061637 -2.4318507 1.8970768
6.213377 -2.2866087 1.8963503
6.5891113 -2.1493664 1.9130988
6.5206356 -2.9766171 1.913799
6.9076128 -2.8463104 1.9126812
7.3368855 -2.7063289 1.9226844
7.7858591 -2.5499728 1.9297519
7.7995276 -3.5602565 1.9471064
8.2921667 -3.4154673 1.9425601
8.484808 -3.1334605 1.8689971
8.4378777 -2.7702048 1.7460816
8.6572723 -3.9494185 1.7928278
8.5605783 -3.528645 1.649001
8.482193 -3.1373744 1.5220181
8.4479971 -2.7771211 1.4110194
8.6472816 -3.9457726 1.4303666
8.5796471 -3.5415866 1.3038214
8.5122948 -3.1535761 1.1873629
7.9299083 -2.6146326 1.0125113
8.1353798 -3.7139065 1.0111811
8.0680828 -3.3305833 0.90215689
7.9812388 -2.9604785 0.79868335
7.9366088 -2.6211429 0.70597446
8.1502209 -3.7222288 0.68345487
8.0883894 -3.3419404 0.58296865
7.9996653 -2.969537 0.48827654
7.960701 -2.6320276 0.39863101
8.1472769 -3.723978 0.35368407
8.0798063 -3.3430178 0.26165691
8.0236092 -2.9830468 0.17602214
7.9557748 -2.6340961 0.091420718
8.1557999 -3.7292504 0.025512911
8.1088009 -3.3584957 -0.059895869
8.0230675 -2.9865119 -0.13777322
7.9820833 -2.6460533 -0.21565071
0 -0 -0
1.5439883 -0.64015073 -0.072362632
1.5690967 -0.58517313 -0.088527344
1.6028073 -0.53176385 -0.10535736
1.51598 -0.69536048 -0.11773901
1.5539742 -0.64524466 -0.13478845
1.5751889 -0.58772701 -0.1506698
1.6092364 -0.53442693 -0.16841222
1.5045102 -0.69060796 -0.17814323
1.5389172 -0.63978004 -0.19519177
1.5613939 -0.5830456 -0.21096709
1.6002691 -0.53188312 -0.23031098
1.5176743 -0.6981585 -0.24204062
1.5665091 -0.65227735 -0.26205477
1.6267197 -0.60815102 -0.28554431
2.9969606 -0.99662566 -0.55081886
1.565147 -0.72145367 -0.3151567
1.6050973 -0.66923273 -0.33500946
1.6245956 -0.60848826 -0.35118586
3.653558 -1.216249 -0.81989259
1.5562186 -0.71915019 -0.38018766
1.5903642 -0.66393721 -0.3991116
1.6010859 -0.5998739 -0.41322708
1.5824865 -0.52618742 -0.42102647
1.5054703 -0.69742131 -0.43403667
1.4884759 -0.62271357 -0.43846479
1.4408745 -0.54027826 -0.43448991
1.4431553 -0.47980288 -0.44644961
5.5774126 -2.5917742 1.9000381
5.8752165 -2.4613771 1.891952
6.2226329 -2.3334663 1.9035093
6.575799 -2.1897559 1.9130988
6.5153952 -3.02267 1.9176685
6.9087801 -2.896507 1.9178895
7.3374124 -2.7577875 1.9272207
7.7017531 -2.5748596 1.9127859
7.7678041 -3.6035321 1.9446701
8.2773638 -3.4689271 1.944042
8.4975023 -3.197535 1.8760798
8.44491 -2.8300328 1.7510974
8.6676464 -4.0185847 1.8000487
8.5714493 -3.5948126 1.6553128
8.5163031 -3.2095313 1.5316436
8.4560785 -2.8373873 1.4152505
8.6785288 -4.0245504 1.439593
8.5924501 -3.6087353 1.3091074
8.5233974 -3.2173028 1.1916429
7.9419417 -2.6727395 1.0161226
8.1575079 -3.7846642 1.0167989
8.0759249 -3.3919663 0.90534401
7.9936576 -3.0210099 0.80176598
7.9487038 -2.6793401 0.70849943
8.1679277 -3.7910576 0.68687749
8.1026831 -3.4062002 0.58549428
8.0018377 -3.0263362 0.48953339
7.9756336 -2.6913633 0.40019819
8.178647 -3.7991564 0.35605121
8.0858583 -3.4037781 0.26252431
8.0416183 -3.0460346 0.17682393
7.9669347 -2.6921456 0.091737062
8.1799212 -3.8011367 0.025660845
8.1000204 -3.4132349 -0.05998458
8.0401182 -3.0491574 -0.13838468
7.9751658 -2.6981843 -0.21590705
1.889277 -0.8791334 -0.070583336
1.548316 -0.65310699 -0.072751909
1.5766786 -0.59904605 -0.089160822
1.5947876 -0.5399881 -0.10504603
1.5008354 -0.69959199 -0.116894
1.5444763 -0.65244013 -0.13430935
1.571553 -0.59738111 -0.1506698
1.6040419 -0.54365212 -0.16821456
1.4885308 -0.6943624 -0.17675233
1.5340477 -0.64882368 -0.19507544
1.554078 -0.59120423 -0.21046481
1.601667 -0.54328352 -0.23098759
1.4909484 -0.69697988 -0.23845589
1.5652074 -0.66303337 -0.26251262
1.6201912 -0.61706728 -0.28505757
3.0327682 -1.0292426 -0.55855024
1.5615816 -0.73146093 -0.31533659
1.5919209 -0.67523444 -0.33311781
1.6345673 -0.62368619 -0.35416201
3.6265783 -1.2320369 -0.81551921
1.5491257 -0.72744054 -0.37953815
1.5674298 -0.66568559 -0.39437369
1.5955588 -0.60899347 -0.41275722
1.5672922 -0.53183717 -0.41784433
1.4836564 -0.69840479 -0.42897502
1.4739718 -0.62730026 -0.43531793
1.4519166 -0.55460364 -0.43883753
1.4538136 -0.49327329 -0.45067465
5.5726366 -2.6312511 1.9038755
5.8794041 -2.5056486 1.8982158
6.1938291 -2.3661146 1.8991038
6.5485482 -2.2254105 1.9091076
6.4809952 -3.0551753 1.9130251
6.9095902 -2.9468248 1.9230977
7.3149109 -2.8006737 1.9257882
7.7097611 -2.6302395 1.9187468
7.7217312 -3.6399002 1.9386908
8.2424364 -3.5139015 1.9408664
8.5051556 -3.2601299 1.8821505
8.4403849 -2.8862412 1.7537982
8.6890535 -4.0934711 1.8096766
8.584547 -3.6624055 1.6621509
8.5203857 -3.270915 1.5359586
8.460001 -2.8965778 1.418855
8.6814013 -4.0907917 1.4442061
8.599287 -3.6738396 1.3135588
8.5331116 -3.2809277 1.195793
7.9507437 -2.730125 1.0193729
8.1997442 -3.8655779 1.0250006
8.0915489 -3.4570878 0.90945643
8.0316496 -3.0918198 0.80746418
7.9547291 -2.7358398 0.71051937
8.1769791 -3.8564155 0.68961555
8.1018143 -3.464484 0.5869565
8.0390158 -3.0969114 0.49296111
7.9655809 -2.7425265 0.40053061
8.1831951 -3.8624899 0.3572742
8.0877924 -3.4631641 0.26327205
8.039566 -3.1017973 0.17719398
7.9663363 -2.7465196 0.091922484
8.18538 -3.8649189 0.025751879
8.117528 -3.4794178 -0.060271204
8.0399122 -3.105639 -0.13870651
8.0057077 -2.7633772 -0.21718885
0 -0 -0
1.5387708 -0.66023141 -0.072492391
1.5776298 -0.61051106 -0.089424767
1.5867275 -0.54813391 -0.10473469
1.5091357 -0.71476549 -0.11787985
1.528538 -0.65678877 -0.13327129
1.5706444 -0.60809153 -0.15093759
1.6044378 -0.55478489 -0.1686099
1.5013129 -0.71157366 -0.1787852
1.528213 -0.65743923 -0.19484279
1.5411705 -0.59714442 -0.20920905
1.5964305 -0.55245286 -0.23071694
1.482174 -0.70399207 -0.23773895
1.5556639 -0.67027849 -0.26159692
1.6136146 -0.62592638 -0.28457084
2.992883 -1.0362288 -0.55236512
1.5499582 -0.73764706 -0.31389752
1.5922558 -0.68693447 -0.33406362
1.6206604 -0.62979877 -0.35197949
3.4969633 -1.2119874 -0.78802985
1.5455141 -0.73735249 -0.37975463
1.5633157 -0.67529064 -0.39437369
1.5972278 -0.62088525 -0.41416678
1.5722454 -0.54429859 -0.42004734
1.4819615 -0.70874739 -0.42973429
1.4780654 -0.63978255 -0.43767807
1.4700117 -0.57187599 -0.44535893
1.4453193 -0.5003013 -0.44898465
5.5529408 -2.6637416 1.9026947
5.8700762 -2.5443454 1.9002088
6.1944251 -2.4100006 1.9037848
6.508358 -2.256393 1.9013914
6.4699693 -3.0986404 1.9153467
6.8407202 -2.9671924 1.9089611
7.2921605 -2.8433878 1.9243557
7.7072668 -2.6822953 1.922186
7.7071671 -3.6910021 1.9406838
8.2153406 -3.5620773 1.9395963
8.516921 -3.3247192 1.8892331
8.4456778 -2.9460554 1.7586211
8.6859331 -4.1573157 1.8143055
8.6115875 -3.7365639 1.6717942
8.5378122 -3.3378551 1.5427631
8.4644461 -2.9562483 1.4226159
8.6828947 -4.1567926 1.4486704
8.6156368 -3.7435036 1.3195403
8.5589848 -3.3513002 1.2022779
7.9507065 -2.7847652 1.0215397
8.199172 -3.9269776 1.0279218
8.0783949 -3.5102391 0.91038167
8.0394087 -3.151581 0.81017321
7.9565983 -2.7911949 0.71220273
8.1945267 -3.9263353 0.69311428
8.0941296 -3.5200996 0.58795351
8.058898 -3.1614931 0.49536049
7.9863009 -2.8045893 0.40243021
8.1917753 -3.9281819 0.35869443
8.1012154 -3.5278897 0.26440868
8.0492296 -3.1624024 0.17783129
7.9644275 -2.8006561 0.092097022
8.1948719 -3.9310739 0.025857141
8.126276 -3.542347 -0.060496401
8.0411749 -3.1629643 -0.13906051
7.9952021 -2.8147709 -0.2173683
0 -0 -0
1.5081358 -0.65807348 -0.071238048
1.5710669 -0.61908144 -0.089266397
1.5927477 -0.56117624 -0.10535736
1.5038228 -0.72357941 -0.11780944
1.5317866 -0.66934842 -0.13391009
1.5668837 -0.61771739 -0.15093759
1.5934958 -0.56197137 -0.16781923
1.494231 -0.71947813 -0.17846422
1.5323398 -0.67038667 -0.19588971
1.5457832 -0.6098665 -0.21033922
1.5883392 -0.56058919 -0.23004036
1.4840658 -0.71608377 -0.23874266
1.5433749 -0.67624164 -0.26022327
1.604237 -0.63364059 -0.28359741
3.0189807 -1.0660539 -0.55837846
1.5462885 -0.74757165 -0.31407738
1.5835148 -0.6947189 -0.33311781
1.6295247 -0.64477974 -0.35475725
3.6499171 -1.2901381 -0.8242659
1.5435964 -0.74809903 -0.38040417
1.5564669 -0.6836949 -0.39369687
1.5915804 -0.62995851 -0.41369691
1.5560763 -0.54941612 -0.41662037
1.474104 -0.71613622 -0.42872196
1.4696958 -0.64689595 -0.43636689
1.4458961 -0.57273352 -0.43910924
1.4413174 -0.50884074 -0.44870296
5.501277 -2.6806045 1.8905926
5.865757 -2.5853417 1.9039102
6.1857777 -2.4504418 1.9057122
6.4825759 -2.2921076 1.8979324
6.4447532 -3.1353223 1.9135411
6.8277035 -3.011456 1.9104491
7.273674 -2.8877196 1.9241168
7.6851592 -2.7275822 1.9208102
7.6948977 -3.7433419 1.9433415
8.196907 -3.6139956 1.940443
8.5318527 -3.391022 1.8971251
8.4764395 -3.0152509 1.7688457
8.7062178 -4.2328773 1.8239335
8.6425419 -3.8131778 1.682314
8.5510702 -3.4036729 1.5489036
8.4684772 -3.0160823 1.4263769
8.7025795 -4.2320471 1.4562596
8.6314545 -3.8135064 1.3255217
8.568656 -3.4158711 1.2065579
7.9755402 -2.8485231 1.0269568
8.2204933 -3.9993837 1.0336519
8.1131153 -3.5846655 0.91675591
8.0365639 -3.2074935 0.8118546
7.9712214 -2.8513739 0.71506429
8.1971769 -3.9896326 0.69539595
8.1161804 -3.5890677 0.59114385
8.056036 -3.2175472 0.49638879
7.9915118 -2.8616214 0.40356997
8.207943 -3.9980624 0.36046976
8.1342535 -3.6018136 0.26620331
8.0621643 -3.2247274 0.17855084
8.0110989 -2.8724217 0.092838772
8.2137461 -4.0023079 0.025993695
8.1382122 -3.6071346 -0.060748894
8.0726671 -3.2326882 -0.13994554
8.0078897 -2.8745837 -0.21818867
0 -0 -0
1.514115 -0.67177176 -0.071713835
1.580214 -0.63391483 -0.090005443
1.5808208 -0.56790167 -0.10479696
1.4805343 -0.72359484 -0.11633065
1.5176303 -0.67428267 -0.13303174
1.5612153 -0.62657803 -0.15075907
1.5881449 -0.57106489 -0.16762157
1.4576344 -0.71290714 -0.17461248
1.5118629 -0.67251027 -0.19379587
1.5438532 -0.62007928 -0.21059036
1.5820727 -0.56931806 -0.22963439
1.4858648 -0.72822517 -0.23974639
1.5464187 -0.68891627 -0.26144427
1.6085585 -0.64678514 -0.28505757
3.0160902 -1.0858927 -0.5590657
1.5293108 -0.75097525 -0.31155902
1.5783256 -0.70402211 -0.33292866
1.6328108 -0.65769577 -0.35634452
3.6364114 -1.3105196 -0.82301635
1.5267142 -0.75151998 -0.37737304
1.5602484 -0.69680768 -0.3957274
1.5849805 -0.63862264 -0.41299215
1.5891665 -0.57209015 -0.42641172
1.4636091 -0.72217107 -0.42695037
1.4824346 -0.66339093 -0.44134945
1.4441397 -0.58231437 -0.43965268
1.4372654 -0.51734996 -0.44842133
5.5044208 -2.7240562 1.8973817
5.8576565 -2.6248126 1.9064726
6.1510105 -2.4804409 1.8996544
6.4711099 -2.3328214 1.8987305
6.4193306 -3.1718118 1.9117354
6.8241239 -3.0600317 1.9146652
7.2666221 -2.9366622 1.9269819
7.6682782 -2.7746861 1.9208102
7.6595445 -3.7844391 1.940241
8.1834955 -3.6682205 1.9425601
8.5608158 -3.4635096 1.908255
8.4974432 -3.081589 1.7771411
8.7135649 -4.302752 1.8309692
8.637845 -3.8745971 1.6859961
8.5629272 -3.4694083 1.5548781
8.5017986 -3.0868628 1.4351526
8.713686 -4.3037572 1.4625096
8.6367998 -3.8793805 1.3299731
8.5686674 -3.476958 1.2095407
7.9644413 -2.8997838 1.0277995
8.2296515 -4.0664759 1.0379213
8.1072998 -3.6417153 0.91860646
8.0361032 -3.2646141 0.81381637
7.9854054 -2.9118371 0.71792591
8.2038279 -4.0553193 0.69805801
8.1258574 -3.65312 0.59347016
8.0509405 -3.2729335 0.49730289
7.9953847 -2.9184804 0.40466228
8.2172909 -4.065187 0.36196893
8.1338758 -3.6615038 0.26692116
8.0737095 -3.2869527 0.17924984
8.0064716 -2.9263284 0.092991486
8.2356386 -4.0756955 0.026141629
8.1587763 -3.6763098 -0.06106963
8.0767536 -3.2919724 -0.1403639
8.016387 -2.9332836 -0.21890648
0 -0 -0
1.5063217 -0.67940646 -0.071540818
1.5282199 -0.62397009 -0.08726041
1.5979248 -0.58514094 -0.10616685
1.469812 -0.72956109 -0.11583773
1.5198236 -0.68645418 -0.1335907
1.5416664 -0.62974274 -0.14924166
1.5799394 -0.57908654 -0.1671274
1.4567945 -0.72360677 -0.17504044
1.5230927 -0.68873107 -0.19577338
1.5418561 -0.63029134 -0.21084154
1.5869216 -0.58208555 -0.23085226
1.4654207 -0.7293908 -0.23716539
1.5421624 -0.69839191 -0.26144427
1.5899478 -0.65066326 -0.2824617
2.9548059 -1.0843545 -0.54892898
1.5317165 -0.76385677 -0.31299809
1.5659273 -0.71004367 -0.33122617
1.6269307 -0.66695857 -0.35594767
3.4446831 -1.2653577 -0.78136569
1.5185813 -0.75912744 -0.37650704
1.5568306 -0.70677084 -0.395953
1.5774348 -0.64686066 -0.41205245
1.5601398 -0.57247823 -0.41955781
1.4608803 -0.73200488 -0.42745656
1.4730659 -0.67007709 -0.439776
1.4565654 -0.59774107 -0.44454375
1.4295599 -0.52450663 -0.44701296
5.4841881 -2.7560632 1.8962009
5.8484201 -2.6638842 1.9087504
6.1365643 -2.518501 1.8999298
6.4774852 -2.3801303 1.9048504
6.3962936 -3.2094073 1.9107035
6.8246126 -3.1106858 1.9201217
7.2323012 -2.9745455 1.9226844
7.652935 -2.8223591 1.9212687
7.6405373 -3.8335526 1.9413483
8.1546087 -3.715528 1.9410782
8.5674753 -3.5275309 1.9145281
8.4949408 -3.1397934 1.7806135
8.7221375 -4.3737564 1.8383753
8.6578035 -3.9475386 1.6945875
8.5742989 -3.5354171 1.5608528
8.5077076 -3.1482253 1.439384
8.7436848 -4.3855162 1.4720336
8.6524706 -3.9503982 1.3360937
8.5874977 -3.5461211 1.2152475
7.9846587 -2.9627576 1.032735
8.2152014 -4.1222425 1.0392694
8.1372824 -3.7153542 0.92456943
8.0766478 -3.3389664 0.81998163
7.984201 -2.9670277 0.71944082
8.216218 -4.1243682 0.7012524
8.1559258 -3.7269633 0.59732515
8.0749874 -3.3405907 0.500045
8.0260077 -2.9855931 0.4071317
8.2323723 -4.135716 0.36374426
8.1430683 -3.7258992 0.26796803
8.0884876 -3.3509712 0.18003105
8.0202246 -2.9872668 0.093362354
8.2417488 -4.1418676 0.0262412
8.1551571 -3.7350461 -0.061212935
8.0933456 -3.356791 -0.14100756
8.0328941 -2.9953389 -0.21985501
0 -0 -0
1.4966756 -0.68613821 -0.071281299
1.5437284 -0.64138126 -0.088368982
1.5933694 -0.59458566 -0.10610458
1.4661986 -0.73901492 -0.11590814
1.5201124 -0.69784611 -0.13398995
1.5442114 -0.64186645 -0.14986648
1.5903395 -0.59399265 -0.1686099
1.465643 -0.73924822 -0.17664532
1.4989841 -0.68893868 -0.19321425
1.5324637 -0.63745397 -0.21008807
1.5861043 -0.59285247 -0.23125821
1.4724001 -0.7441721 -0.23902945
1.5387459 -0.70825452 -0.26159692
1.5904801 -0.66230333 -0.28327292
1.643368 -0.61455065 -0.30599141
1.5199801 -0.76968569 -0.31155902
1.5677837 -0.72251564 -0.33255032
1.6146666 -0.67353272 -0.35416201
1.6478947 -0.61683363 -0.37464738
1.509542 -0.76622158 -0.3754245
1.5515801 -0.71590191 -0.3957274
1.572539 -0.65615314 -0.41181755
1.5702202 -0.587134 -0.42322955
1.4529122 -0.73920006 -0.4264442
1.4671748 -0.67829311 -0.43925151
1.4688554 -0.61334199 -0.44943482
1.4263147 -0.53326833 -0.44701296
5.4995141 -2.8061635 1.9074175
5.8154359 -2.6920679 1.9033407
6.1458344 -2.5664797 1.9076397
6.42033 -2.403944 1.8923447
6.3816462 -3.2512252 1.9122514
6.7983651 -3.1492445 1.9181374
7.2031636 -3.0143673 1.9198194
7.6473188 -2.8737147 1.9242494
7.6264291 -3.885231 1.9437844
8.1325436 -3.7659042 1.9412898
8.5808964 -3.5947909 1.9224201
8.4938803 -3.1987743 1.7844718
8.7345448 -4.447257 1.8467072
8.6682558 -4.0167308 1.7014253
8.5779066 -3.5986431 1.5654995
8.5085611 -3.208034 1.4428316
8.7571459 -4.4597268 1.478879
8.6657963 -4.0209203 1.341936
8.5994005 -3.6129568 1.2200462
7.9895434 -3.0204711 1.0357444
8.2233973 -4.189714 1.0435389
8.1639585 -3.7882414 0.930224
8.0853758 -3.4008131 0.82297081
7.9872785 -3.0240767 0.7213766
8.2520542 -4.2059469 0.70650041
8.1591482 -3.7891247 0.59925264
8.1058683 -3.4117639 0.50324416
8.0224829 -3.0404477 0.4078916
8.2504559 -4.2083983 0.36567739
8.1753407 -3.8015027 0.26979256
8.1073895 -3.4172361 0.18091507
8.0307255 -3.0474193 0.093700506
8.245574 -4.2073588 0.026335081
8.1855745 -3.8099108 -0.061615564
8.0983906 -3.4172719 -0.14145811
8.0311861 -3.0509617 -0.22031647
0 -0 -0
1.4879093 -0.69319922 -0.071065038
1.5370045 -0.64967501 -0.08821062
1.5962214 -0.60683388 -0.10654046
1.4669645 -0.75072402 -0.11633065
1.5049618 -0.70210308 -0.13303174
1.5411612 -0.65171736 -0.14995573
1.5792245 -0.60090846 -0.16781923
1.4593096 -0.74732095 -0.17643134
1.5100268 -0.70526838 -0.19519177
1.5294371 -0.64723158 -0.21021365
1.5657698 -0.59622687 -0.2288225
1.4554791 -0.74686706 -0.23702201
1.5209432 -0.711402 -0.25930756
1.5836606 -0.67089516 -0.28278619
1.6368045 -0.62357044 -0.30547598
1.5038557 -0.77315062 -0.30922052
1.5553175 -0.72837365 -0.33084783
1.6077968 -0.68227881 -0.35356677
1.6285428 -0.62100899 -0.37110707
1.5056801 -0.77591681 -0.37564102
1.5462761 -0.7249952 -0.39550179
1.5640094 -0.66389066 -0.41064292
1.5738367 -0.59951884 -0.4251878
1.4457705 -0.74676913 -0.42568496
1.4629852 -0.6872828 -0.43925151
1.4641786 -0.6219669 -0.44916311
1.430189 -0.54474223 -0.44926631
5.4881306 -2.8429313 1.9094838
5.7962055 -2.7264757 1.9024866
6.1458974 -2.6109073 1.912596
6.42167 -2.4494767 1.8971341
6.3744493 -3.296979 1.9161208
6.7517424 -3.1781094 1.9104491
7.1845326 -3.0585084 1.9198194
7.6213613 -2.9174519 1.922186
7.5903196 -3.9256809 1.9406838
8.1066303 -3.8144855 1.9406548
8.5821009 -3.657357 1.9276814
8.5217314 -3.2691066 1.7945035
8.7559795 -4.5260372 1.8570757
8.6772928 -4.0857797 1.7080879
8.5946646 -3.6678524 1.5726359
8.5200644 -3.2722204 1.4481597
8.7498198 -4.5238214 1.4823015
8.6920166 -4.0980887 1.349865
8.6089821 -3.6792922 1.2245855
8.0144014 -3.0862041 1.0414023
8.2398996 -4.2620058 1.048932
8.1837473 -3.8586254 0.93515891
8.0963936 -3.4640675 0.8262403
7.9992533 -3.0848606 0.72415406
8.2482309 -4.2679572 0.7084018
8.1637182 -3.8523173 0.60131311
8.1077261 -3.4712601 0.50467241
8.0269718 -3.0986083 0.40907881
8.2608585 -4.277782 0.36729491
8.1834927 -3.8665392 0.27083942
8.1101608 -3.4771609 0.18144959
8.0594444 -3.1150229 0.094256826
8.2693272 -4.2836318 0.026494395
8.1991072 -3.8775933 -0.061895356
8.1131039 -3.4822791 -0.14208567
8.0468092 -3.1135299 -0.221265
0 -0 -0
1.4845308 -0.70274323 -0.071108289
1.5430806 -0.66343236 -0.088791296
1.5775764 -0.61085051 -0.10554417
1.4455121 -0.75097346 -0.11499272
1.4925189 -0.70748138 -0.13231307
1.5325586 -0.65919375 -0.14950943
1.5680847 -0.60771036 -0.16702856
1.4599897 -0.75901276 -0.17707331
1.5011845 -0.71239138 -0.19461015
1.5172356 -0.65307373 -0.20908347
1.5676244 -0.60797262 -0.22963439
1.4631571 -0.76218468 -0.23902945
1.5120864 -0.71859992 -0.25854445
1.5849515 -0.68294257 -0.28375965
1.6246816 -0.6303947 -0.30392969
1.4973394 -0.78145331 -0.30886075
1.5579126 -0.74127841 -0.33236116
1.60448 -0.69251966 -0.35376519
1.6301721 -0.6331144 -0.37235659
1.4982955 -0.78378326 -0.37499148
1.5479552 -0.73740214 -0.39708108
1.5607989 -0.67386007 -0.41087785
1.576456 -0.61161929 -0.42690128
1.4428749 -0.75652468 -0.42619115
1.4578696 -0.69583088 -0.43898928
1.4727029 -0.63628292 -0.45296726
1.4330816 -0.55593669 -0.45123804
5.4359117 -2.8583212 1.8973817
5.7810974 -2.7628162 1.903056
6.1165242 -2.6428492 1.9084657
6.4038243 -2.4877863 1.8963358
6.3686414 -3.3436646 1.920506
6.726871 -3.2169697 1.9089611
7.1754327 -3.1067784 1.9224455
7.6141992 -2.9684033 1.9249372
7.5522747 -3.9649279 1.9371405
8.0716095 -3.858675 1.9379026
8.6026287 -3.7286408 1.9373949
8.5398989 -3.3363299 1.802606
8.7654619 -4.5993114 1.8650372
8.6653824 -4.1453185 1.710718
8.6108952 -3.737402 1.579772
8.5338583 -3.3377478 1.453958
8.7525434 -4.5935078 1.4875098
8.6845703 -4.1599007 1.3526471
8.6208 -3.7470665 1.2295139
8.0211926 -3.1454697 1.044773
8.2725391 -4.3434334 1.0564597
8.187727 -3.9220889 0.93834603
8.0987225 -3.5240092 0.82866901
8.0033627 -3.1429911 0.72625822
8.276618 -4.3472338 0.71311742
8.2056084 -3.9338243 0.60616505
8.0862741 -3.5209429 0.50467241
8.0422039 -3.1613233 0.41083592
8.2742567 -4.3493104 0.36907023
8.2064724 -3.9391716 0.27239478
8.1170826 -3.5392461 0.18208691
8.0736752 -3.1775994 0.094649509
8.2995338 -4.3640766 0.026676469
8.1994953 -3.9395213 -0.062079605
8.1447344 -3.5551944 -0.14301896
8.0619669 -3.1764042 -0.22221352
8.2907562 -4.3650036 -0.3173711
1.4774898 -0.71053988 -0.070978522
1.5097018 -0.66008639 -0.087102041
1.5737985 -0.62051886 -0.10554417
1.4391122 -0.7588982 -0.11485187
1.499825 -0.72224832 -0.13335113
1.5230098 -0.66619003 -0.14897387
1.575434 -0.62170386 -0.16821456
1.4482703 -0.76424462 -0.17621736
1.4788916 -0.71296281 -0.19228366
1.5295589 -0.66953182 -0.21134382
1.5620214 -0.6168521 -0.22936377
1.4295813 -0.75588238 -0.2342976
1.5040886 -0.72614568 -0.25793391
1.5762123 -0.69067466 -0.28294843
1.6180344 -0.63926578 -0.30341426
1.48817 -0.78832376 -0.30796134
1.5524508 -0.75039625 -0.33217198
1.5930208 -0.69920015 -0.35217792
1.6308044 -0.64490342 -0.37339786
1.4917337 -0.79204625 -0.37455848
1.5293704 -0.74009645 -0.39347124
1.5539647 -0.68225199 -0.41017309
1.5780841 -0.62341821 -0.42836997
1.4416219 -0.76718169 -0.42720345
1.457046 -0.70644712 -0.44003826
1.4731765 -0.64724284 -0.45432588
1.4216118 -0.5615468 -0.44870296
5.4275427 -2.8965695 1.9006284
5.7485137 -2.7907007 1.8979311
6.0843506 -2.6733687 1.9035093
6.4000916 -2.531642 1.8997949
6.3548265 -3.3863139 1.9225698
6.7026482 -3.2560678 1.9077209
7.1704555 -3.1570086 1.9262658
7.5940318 -3.014349 1.9244785
7.5278044 -4.0111933 1.9371405
8.0697603 -3.9188025 1.9431952
8.6037846 -3.7920196 1.9428586
8.5420589 -3.3977332 1.8074288
8.7891178 -4.6807241 1.8761462
8.6911421 -4.2233672 1.7208872
8.6347132 -3.8108718 1.5884019
8.5315685 -3.3973553 1.4570922
8.7817965 -4.6778092 1.4973314
8.7025146 -4.2343402 1.3594632
8.6366444 -3.8171282 1.2350909
8.0201797 -3.2019889 1.0471805
8.2764244 -4.4104667 1.060392
8.2037573 -3.9918389 0.94297248
8.109725 -3.5881383 0.83203191
8.0348148 -3.2123849 0.73088723
8.2770643 -4.412477 0.7154752
8.1956692 -3.9910884 0.60722852
8.1384621 -3.603231 0.50929981
8.0616055 -3.2261975 0.41283056
8.2967834 -4.4263372 0.37127951
8.2207804 -4.0082884 0.27368093
8.1537094 -3.6149187 0.18340266
8.0855856 -3.2397239 0.095020391
8.3025951 -4.4309273 0.026773194
8.2192039 -4.0112491 -0.062413998
8.1474409 -3.6160538 -0.14345342
8.082221 -3.2418144 -0.22331588
8.2611732 -4.4143801 -0.31726956
1.4722046 -0.71915376 -0.070935279
1.5138355 -0.67298824 -0.087577142
1.5718139 -0.63090736 -0.10566871
1.4405849 -0.77100909 -0.11534481
1.4953651 -0.73143744 -0.13335113
1.511613 -0.67228454 -0.1482598
1.5678961 -0.62987506 -0.16781923
1.4409243 -0.77170843 -0.17589638
1.4780571 -0.72377086 -0.19274895
1.5217965 -0.67729086 -0.21084154
1.5628036 -0.62827271 -0.23004036
1.4406132 -0.77306312 -0.23687862
1.4916188 -0.73144484 -0.25656033
1.570142 -0.69952995 -0.28262398
1.6168234 -0.65028459 -0.30392969
1.4859041 -0.79883748 -0.30850098
1.5434099 -0.75774407 -0.33122617
1.5860155 -0.70776337 -0.35158268
1.6313533 -0.65672398 -0.37443912
1.4739538 -0.79423767 -0.37131083
1.5221776 -0.74817735 -0.3927944
1.5621758 -0.697321 -0.41346201
1.5634344 -0.62874818 -0.42543256
1.4368874 -0.7760129 -0.42720345
1.4440267 -0.71111083 -0.43741587
1.4709346 -0.6570549 -0.45486933
1.4341636 -0.57670271 -0.45377305
5.3827834 -2.9152577 1.891183
5.7123671 -2.8165939 1.8916674
6.0502777 -2.7028091 1.8980023
6.3996387 -2.5769856 1.9043183
6.3398781 -3.4284596 1.9243754
6.6973124 -3.3044202 1.9119372
7.1465178 -3.1989627 1.925072
7.5853209 -3.0648997 1.9270006
7.5013351 -4.0563798 1.9366976
8.0534515 -3.9721346 1.9451005
8.5919724 -3.8499455 1.9454892
8.5747108 -3.4718089 1.8188109
8.7991352 -4.7555909 1.8844781
8.7153864 -4.3014517 1.7308812
8.6372595 -3.875489 1.5932149
8.573719 -3.4752398 1.4679052
8.7851152 -4.7490044 1.5028374
8.7180958 -4.3082781 1.366001
8.641098 -3.8826478 1.2391114
8.0390091 -3.2668366 1.0522364
8.2719316 -4.4734569 1.0633132
8.2058611 -4.0553217 0.94605672
8.1220608 -3.6533513 0.83558166
8.0435638 -3.2732687 0.73349637
8.289299 -4.4845319 0.71889782
8.2148504 -4.0629759 0.61048532
8.1562576 -3.6711299 0.51181346
8.0768099 -3.2899201 0.41463512
8.285285 -4.4857254 0.37198967
8.2175293 -4.0693002 0.27439877
8.1459589 -3.6714537 0.18373159
8.0877762 -3.2983377 0.09528219
8.3060274 -4.4984555 0.026872763
8.2240038 -4.0762606 -0.062639192
8.1715822 -3.6869497 -0.14427407
8.0816135 -3.2992795 -0.22385424
0 -0 -0
1.4668692 -0.72772944 -0.070892021
1.5023978 -0.67897427 -0.087154828
1.5632936 -0.63865268 -0.10535736
1.4323207 -0.77792943 -0.11506313
1.481029 -0.73572087 -0.13247277
1.5129048 -0.6840089 -0.14879535
1.554791 -0.63571751 -0.1668309
1.4344149 -0.77958566 -0.1756824
1.4646952 -0.72840381 -0.19158572
1.5076693 -0.68211728 -0.2094602
1.545164 -0.632222 -0.22801058
1.4280202 -0.77762836 -0.23558812
1.4685249 -0.73133165 -0.25335523
1.5613259 -0.70711553 -0.28181276
1.6091561 -0.65870023 -0.30324244
1.459386 -0.79616225 -0.30400386
1.5299437 -0.76281852 -0.32933453
1.5753949 -0.71464735 -0.3501938
1.6146221 -0.66153002 -0.37152356
1.4750489 -0.80654544 -0.3728264
1.5288898 -0.76315939 -0.3957274
1.5437052 -0.70046687 -0.40970325
