# .PCD v0.7 - Point Cloud Data file format
VERSION 0.7
FIELDS x y z
SIZE 4 4 4
TYPE F F F
COUNT 1 1 1
WIDTH 1546
HEIGHT 1
VIEWPOINT 0 0 0 1 0 0 0
POINTS 1546
DATA ascii
0.10114812 -1.2450893 0.28369462
0.14832519 -1.2451169 0.27161121
0.1927914 -1.2296833 0.25719959
0.23749419 -1.2213038 0.24461733
0.10333212 -1.2684073 0.23977198
0.15419851 -1.297312 0.23266605
0.19320302 -1.236398 0.21060309
0.23406264 -1.2061286 0.19494759
0.1047503 -1.2872036 0.19434653
0.15025167 -1.2695886 0.17958322
0.1936142 -1.2432967 0.16458367
0.23851797 -1.2349639 0.15252073
0.10125337 -1.2469242 0.14145301
0.14903037 -1.2594572 0.13108262
0.19283885 -1.2415957 0.11788754
0.22957125 -1.1917685 0.10251275
0.10350104 -1.2770908 0.097734205
0.15014851 -1.2723318 0.085341655
0.19184133 -1.2371665 0.071639031
0.23463657 -1.2202425 0.059077557
0.10436408 -1.2927839 0.05120825
0.1493244 -1.2706835 0.038285419
0.19133474 -1.2380373 0.025759839
0.23757881 -1.2383409 0.013755104
0.10522825 -1.3057616 0.0037267967
0.15055066 -1.2851819 -0.0088304952
0.18811166 -1.2204279 -0.019872684
0.2331132 -1.217476 -0.031788737
0.10241129 -1.2791711 -0.043467149
0.1472775 -1.2612407 -0.054974835
0.1886443 -1.228869 -0.065722451
0.22906618 -1.1979244 -0.076091431
0.10034254 -1.2638679 -0.089501366
0.14824246 -1.2753003 -0.10284807
0.18645141 -1.2158574 -0.11023531
0.21366477 -1.1191812 -0.11316432
0.10138814 -1.2815738 -0.13834187
0.14509679 -1.2530054 -0.14773156
0.19320601 -1.2621098 -0.16161586
0.22694267 -1.19031 -0.16549374
0.099255346 -1.2678422 -0.18425485
0.14334126 -1.2439249 -0.19337414
0.17649357 -1.1559035 -0.19225568
0.21531849 -1.1303065 -0.20067263
0.094343007 -1.2171056 -0.22323598
0.13982435 -1.2184534 -0.23626584
0.16281819 -1.0707229 -0.21924314
0.18327406 -0.96373737 -0.20887788
0.091951437 -1.2012165 -0.26717061
0.13585201 -1.1885997 -0.27705428
0.15493542 -1.0196028 -0.24925181
0.20125127 -1.0562606 -0.27146417
0.087298818 -1.154736 -0.30293989
0.12453904 -1.0969161 -0.30000225
0.14822736 -0.97718054 -0.27906263
0.16812398 -0.88222551 -0.2636447
0.09118142 -1.2253122 0.37959439
0.14082834 -1.24593 0.37241134
0.18105222 -1.1937962 0.3458423
0.23039411 -1.2121569 0.34057948
0.09348838 -1.2457365 0.33354121
0.14264046 -1.2649291 0.32588992
0.18618269 -1.2338703 0.30679864
0.2284815 -1.2099204 0.29002449
0.095185377 -1.2680525 0.28878829
0.14123076 -1.2508595 0.27266973
0.18611705 -1.2366536 0.25841373
0.23217256 -1.2343098 0.24693233
0.097318128 -1.2925359 0.24421561
0.14116624 -1.2532309 0.22460076
0.18517418 -1.2346345 0.21010521
0.22720417 -1.2104542 0.19541773
0.092104092 -1.2247128 0.18482266
0.13859664 -1.2360429 0.1747146
0.18598184 -1.2444614 0.16458367
0.22801957 -1.2207905 0.15059465
0.093972206 -1.2524765 0.14201477
0.14074557 -1.2554054 0.13056858
0.18242839 -1.2240453 0.11611268
0.22353169 -1.200012 0.10310189
0.096481912 -1.2886392 0.098570831
0.13989998 -1.2514138 0.083879419
0.18527509 -1.2452327 0.072038934
0.23006637 -1.2373719 0.059837397
0.095018215 -1.2744672 0.050458666
0.14240937 -1.2795233 0.038524702
0.18740059 -1.2639126 0.026273804
0.22942889 -1.2368258 0.01372238
0.095952705 -1.2894297 0.0036784338
0.1424416 -1.2840937 -0.0088168466
0.18252097 -1.2344177 -0.02008187
0.22727624 -1.2277302 -0.032019462
0.094707802 -1.2817688 -0.043534853
0.14085333 -1.2740369 -0.05549388
0.18328249 -1.2448227 -0.066514291
0.22243729 -1.2032331 -0.076340504
0.091565885 -1.2505319 -0.08851552
0.13943341 -1.2672683 -0.10212941
0.18072669 -1.2288035 -0.11130643
0.21925537 -1.1879929 -0.11998384
0.093884289 -1.2871299 -0.13887684
0.13892047 -1.2676942 -0.14936008
0.1845936 -1.257382 -0.16086242
0.22125109 -1.2004497 -0.16671161
0.091545328 -1.2694143 -0.18439823
0.13741972 -1.2605003 -0.19581613
0.17297155 -1.1813732 -0.1963117
0.21605049 -1.1732665 -0.2080604
0.085683167 -1.2009814 -0.22017796
0.13287522 -1.2241695 -0.23721166
0.16925396 -1.1609296 -0.23749687
0.18124743 -0.98600692 -0.21345946
0.08649832 -1.2290264 -0.27323282
0.12887041 -1.1923167 -0.27773115
0.16338982 -1.1215295 -0.27391857
0 -0 -0
0.080211848 -1.15525 -0.30293989
0.12408777 -1.1561886 -0.31599885
0.13558121 -0.93235844 -0.26601976
0.16635805 -0.9030568 -0.26955977
0.082034945 -1.202018 0.37221503
0.13114442 -1.2277068 0.36671698
0.17925642 -1.2329383 0.35685638
0.22260375 -1.2116517 0.34004733
0.08624126 -1.2520698 0.33508894
0.13651864 -1.2811934 0.32985812
0.17777434 -1.2292229 0.30536613
0.22472291 -1.231408 0.29483908
0.086464591 -1.2549926 0.2856878
0.1342788 -1.2585052 0.27415162
0.17880519 -1.2397108 0.25881845
0.22670019 -1.2472959 0.24924731
0.08836893 -1.2784032 0.24143833
0.1337865 -1.2570105 0.22512676
0.18012017 -1.2533174 0.21309249
0.21942019 -1.2098819 0.19510429
0.088061064 -1.2755674 0.192412
0.1351821 -1.2762607 0.18027875
0.17693709 -1.2357637 0.16328672
0.22122978 -1.2260745 0.15107618
0.086899757 -1.2619513 0.14302595
0.13555402 -1.2799854 0.13303602
0 -0 0
0.21969357 -1.2209749 0.10478519
0 -0 0
0.13578096 -1.2859858 0.086139239
0 -0 0
0 -0 0
0 -0 0
0.13946569 -1.3270946 0.039930493
0 -0 0
0 -0 0
0 -0 0
0.1357055 -1.2958835 -0.0088919131
0 -0 -0
0 -0 -0
0 -0 -0
0.13614401 -1.3046873 -0.056791473
0 -0 -0
0 -0 -0
0.08542604 -1.2739617 -0.090135135
0.13443425 -1.29487 -0.10428539
0.17623885 -1.2515874 -0.11327013
0.216676 -1.2157669 -0.12265233
0.085454889 -1.2797452 -0.13802089
0.13328424 -1.2892697 -0.1518029
0.17770344 -1.2643856 -0.16161586
0.21822122 -1.2261715 -0.17009455
0.083494112 -1.2660022 -0.18382469
0.13018823 -1.2662354 -0.19657925
0.16517168 -1.1785035 -0.19566275
0 -0 -0
0.080359854 -1.2328959 -0.22593424
0.12616111 -1.2327765 -0.23872498
0 -0 -0
0.18920949 -1.0660684 -0.23053619
0.079143219 -1.2324569 -0.27388236
0.12165082 -1.1940541 -0.27795675
0.16120301 -1.1562055 -0.28214082
0.173674 -0.97655505 -0.25041282
0.071777932 -1.1344792 -0.29737207
0.11000084 -1.0878005 -0.29711759
0.13370447 -0.96081531 -0.27389982
0.15930153 -0.89555848 -0.26702476
0.074065901 -1.1929626 0.36926329
0.12485648 -1.2408878 0.37041831
0.1710255 -1.229254 0.3554796
0.21937403 -1.2367231 0.34669927
0.080129437 -1.2776463 0.34179589
0.12875156 -1.2829709 0.33010617
0.170761 -1.2341383 0.30632114
0.21783838 -1.2365981 0.29575619
0.078579299 -1.2525798 0.28502342
0.1264565 -1.258333 0.27393991
0.17079353 -1.2378742 0.25821137
0.22005989 -1.2544621 0.2504048
0.079411618 -1.2612674 0.2381056
0.12666023 -1.2636853 0.22617877
0.17363517 -1.2631916 0.21458614
0.21301402 -1.2170426 0.19604456
0.080604978 -1.2820051 0.19330485
0.12695551 -1.2731246 0.17972234
0.17244504 -1.259421 0.1662697
0.21523507 -1.2362109 0.15215959
0.078719676 -1.2555187 0.14223948
0.12671079 -1.2708951 0.13200791
0.17156848 -1.2567726 0.1190085
0.21032284 -1.2115006 0.10385939
0.079540774 -1.2718134 0.097201802
0.12729569 -1.2808374 0.085740454
0.16984543 -1.2464235 0.071981803
0.21588774 -1.2460072 0.060122333
0.079743735 -1.2815211 0.050695378
0.12856589 -1.3000737 0.039093003
0.16972451 -1.2502658 0.025944866
0.21423386 -1.2395481 0.01372238
0.079874329 -1.2865176 0.003667054
0.12794764 -1.2986821 -0.0089055607
0.16628622 -1.2286378 -0.019953139
0.21100375 -1.2235309 -0.031840011
0.078357309 -1.2728591 -0.043196324
0.12686737 -1.2925723 -0.056229182
0.1689261 -1.2539058 -0.06688381
0.20765501 -1.2058722 -0.076340504
0.076879978 -1.2625136 -0.089290112
0.12406527 -1.2708682 -0.1022891
0.16603224 -1.2338899 -0.1115742
0.21106654 -1.2278614 -0.1237395
0.076939195 -1.2693286 -0.13684396
0.12373774 -1.2732579 -0.14982538
0.16835743 -1.2536532 -0.16010897
0.20532973 -1.1962386 -0.16576438
0.076315172 -1.2763696 -0.18525858
0.12222621 -1.2650428 -0.19627398
0.16212812 -1.2107915 -0.20085445
0.19614181 -1.1437879 -0.20239072
0.072213866 -1.2235459 -0.2241354
0.11887649 -1.2364597 -0.23929247
0.15732558 -1.1804067 -0.24106824
0.1945453 -1.1366214 -0.24553043
0.067675181 -1.1656692 -0.25894332
0.11255886 -1.1763521 -0.27367008
0.1511544 -1.1350123 -0.27673763
0.17718543 -1.0330285 -0.26461026
0.065036193 -1.1387616 -0.2983844
0.10523926 -1.1086293 -0.30262464
0.11994538 -0.90247053 -0.25705281
0.1599686 -0.93245548 -0.27772829
0.064930625 -1.1609603 0.35922733
0.11705995 -1.2397217 0.36984885
0.16322647 -1.2283744 0.35492891
0.21129391 -1.2351954 0.34590104
0.071306407 -1.2607508 0.33715263
0.11933308 -1.2673403 0.32588992
0.16229492 -1.2284237 0.30464986
0.20780194 -1.2235172 0.29231715
0.070561633 -1.2471967 0.28369462
0.1188249 -1.2600583 0.27415162
0.16421804 -1.2466663 0.25983027
0.21006803 -1.242244 0.24770398
0.071336746 -1.2558442 0.2369947
0.11918054 -1.2673793 0.22670476
0.16087773 -1.2261008 0.20811369
0.20734972 -1.2290394 0.19776838
0.072569244 -1.2795137 0.19285841
0.11868031 -1.2689497 0.17902681
0.16587046 -1.269304 0.16743696
0.20846716 -1.2424035 0.15276147
0.071463227 -1.2639148 0.1431383
0.1186325 -1.2686775 0.13169949
0.16243908 -1.2469414 0.11798094
0.20716 -1.2383209 0.10604768
0.071791708 -1.273273 0.097277857
0.11850837 -1.2716596 0.085075796
0.1645114 -1.2652627 0.073010117
0.20758039 -1.2433674 0.059932377
0.071711153 -1.2789932 0.050577022
0.1219703 -1.3157674 0.039541658
0.16410434 -1.2671479 0.026273804
0.2072811 -1.2447848 0.013766012
0.072202265 -1.2909774 0.0036784338
0.12025248 -1.30243 -0.008926034
0.16271292 -1.2603759 -0.020451969
0.20316464 -1.2228302 -0.031788737
0.070324577 -1.2693244 -0.043060914
0.11902539 -1.2943213 -0.056272436
0.16377415 -1.2747279 -0.067939594
0.2041721 -1.230754 -0.077834934
0.069786139 -1.274914 -0.090135135
0.11599276 -1.2686275 -0.10204956
0.16035962 -1.2497042 -0.1129131
0.20515418 -1.2389507 -0.12472784
0.069149293 -1.2697768 -0.13684396
0.11502282 -1.2641019 -0.14866215
0.16255213 -1.2694232 -0.16199259
0.20412749 -1.2346222 -0.17090644
0.068164051 -1.2708843 -0.18439823
0.11383872 -1.2588791 -0.19520561
0.15157188 -1.1872933 -0.19679843
0.18751453 -1.1352502 -0.20067263
0.064964622 -1.2288775 -0.22503482
0.10952798 -1.2176058 -0.23550917
0.15341489 -1.207602 -0.24642533
0.17261297 -1.047079 -0.22595464
0.063405879 -1.2216356 -0.27128425
0.10803087 -1.2071011 -0.28066412
0.14896084 -1.1735251 -0.28589955
0.16341555 -0.9891355 -0.25310546
0.059770878 -1.172956 -0.3072423
0.099629045 -1.1227114 -0.30629599
0 -0 -0
0.15314911 -0.92679274 -0.27575657
0.060940798 -1.2243183 0.3787089
0.10970373 -1.2432814 0.37070301
0.15604858 -1.232214 0.35575497
0.20449442 -1.2412242 0.34723142
0.064006984 -1.2698491 0.33947426
0.1111301 -1.2632235 0.32464984
0.15851411 -1.2592642 0.31205121
0.20186156 -1.2343752 0.29460984
0.063447848 -1.2583194 0.28613073
0.11117687 -1.2617371 0.27436331
0.15595587 -1.242792 0.25881845
0.20228416 -1.2425412 0.24751107
0.065866664 -1.3004236 0.24532653
0.10967864 -1.248472 0.2231981
0.1555527 -1.2446783 0.21110097
0.20217942 -1.2449117 0.20011903
0.064966612 -1.284873 0.19360249
0.11089194 -1.2696542 0.17902681
0.15734437 -1.2643943 0.1666588
0.20068172 -1.2426792 0.15264109
0.064256705 -1.275246 0.14437421
0.1111054 -1.2723544 0.13200791
0.15503006 -1.2498909 0.11816778
0.20003302 -1.2425201 0.10630016
0.064878091 -1.2916148 0.098646894
0.11027095 -1.2673926 0.08474347
0.15613154 -1.2612942 0.072724469
0.20200701 -1.2574388 0.060549747
0.063812234 -1.2784111 0.050537568
0.11156847 -1.2896036 0.038734075
0.15852794 -1.2859918 0.026643855
0.20280319 -1.2657802 0.013984174
0.064379044 -1.2933936 0.0036841235
0.11097129 -1.2881991 -0.0088236714
0.15619566 -1.2712746 -0.020612881
0.19613104 -1.2270151 -0.031865645
0.062977284 -1.2787158 -0.04336559
0.11091057 -1.2930363 -0.056185927
0.15449542 -1.2638142 -0.067306124
0.19630192 -1.2300125 -0.077710398
0.062736623 -1.2912596 -0.091261819
0.10702106 -1.2554104 -0.10093164
0.15051591 -1.2328687 -0.11130643
0.19723518 -1.2382208 -0.12453017
0.062028408 -1.2840807 -0.13834187
0.10835537 -1.2776493 -0.15017435
0.15428016 -1.2664574 -0.16149029
0.19732624 -1.240744 -0.17158304
0.061162747 -1.2880841 -0.18683586
0.10586334 -1.2565995 -0.19474775
0.14820923 -1.2205263 -0.20215239
0.17822658 -1.1217854 -0.19809549
0.058249384 -1.2469401 -0.22827274
0.1030385 -1.2299973 -0.23777916
0.14670761 -1.2143588 -0.24761578
0.1785914 -1.1263649 -0.24282314
0.054347169 -1.1878676 -0.26370648
0.10102663 -1.2125956 -0.28179219
0.14350465 -1.1888922 -0.28942341
0 -0 -0
0.051143553 -1.141407 -0.29889059
0.093929328 -1.1377276 -0.3102296
0.11323453 -0.94018233 -0.26737839
0.14068151 -0.88507229 -0.26308134
0.054176942 -1.2418507 0.38402203
0.099799514 -1.2162244 0.36244616
0.14974912 -1.2436473 0.35878384
0.19913748 -1.2567366 0.35122257
0.056384992 -1.2740787 0.34050611
0.10432471 -1.2754681 0.32762602
0.15020759 -1.2553922 0.31085745
0.19624931 -1.2480907 0.29759035
0.055768881 -1.2596593 0.28635219
0.10391176 -1.26824 0.27563351
0.14937106 -1.2524773 0.26063973
0.19829753 -1.2670249 0.25214106
0.057624046 -1.2949128 0.24421561
0.10169555 -1.2451965 0.22249678
0.15105222 -1.2720491 0.21558188
0.19270891 -1.2344189 0.19823851
0.057081554 -1.2852474 0.19360249
0.10205799 -1.2574792 0.17721847
0.14725508 -1.2456419 0.16406488
0.19305299 -1.2438872 0.15264109
0.056167237 -1.26966 0.14370008
0.10208956 -1.2581406 0.13046576
0.14794038 -1.2557626 0.11863484
0.19377637 -1.2525867 0.10705765
0.056424744 -1.2800349 0.097734205
0.10337654 -1.2789853 0.085474588
0.14862259 -1.2642117 0.072838731
0.19352579 -1.2537186 0.060312297
0.056141611 -1.2827717 0.050695378
0.10245289 -1.2753187 0.038285419
0.15168034 -1.2958775 0.026828883
0.19122942 -1.2422932 0.013711472
0.056441721 -1.2937642 0.0036841235
0.10274611 -1.2848685 -0.0087963743
0.14908737 -1.278168 -0.020709429
0.18966061 -1.2351121 -0.032045096
0.054699678 -1.2690933 -0.043027058
0.10337093 -1.2986721 -0.056402192
0.14570208 -1.2558107 -0.066831023
0.19026344 -1.2410592 -0.07833308
0.054474078 -1.2836474 -0.090698481
0.10033745 -1.2689617 -0.1019697
0.14512637 -1.2525673 -0.11300235
0.18858036 -1.232522 -0.12383833
0.054064509 -1.2824503 -0.13812788
0.10066954 -1.2802706 -0.150407
0.14593679 -1.2624527 -0.16086242
0.19150484 -1.2536848 -0.17320687
0.052317973 -1.2656922 -0.18353792
0.098227918 -1.2582108 -0.19490038
0.14342788 -1.2449392 -0.20604618
0.17862165 -1.1705769 -0.20651412
0.049161822 -1.2118905 -0.22179691
0.094653808 -1.2198373 -0.23569834
0.14103898 -1.2308161 -0.25079036
0.16181201 -1.0626554 -0.2288702
0.045203045 -1.141354 -0.25331411
0.092310622 -1.1966801 -0.27795675
0.13244808 -1.1569164 -0.28143606
0.14278015 -0.93547469 -0.23890805
0.042905692 -1.1097974 -0.29053882
0.080552377 -1.0545712 -0.28741473
0 -0 -0
0 -0 -0
0.045160461 -1.2049236 0.37251022
0.092697702 -1.2215933 0.36386979
0.13993406 -1.22544 0.35327682
0.18750708 -1.2322044 0.34403849
0.048787087 -1.2801934 0.34205386
0.095254794 -1.2596622 0.32340977
0.14359631 -1.2659391 0.313245
0.18829687 -1.2473464 0.29713178
0.048001554 -1.2590033 0.28613073
0.094503753 -1.2474138 0.27097613
0.14234319 -1.2592089 0.26185384
0.18920757 -1.2594849 0.2504048
0.047530737 -1.2392688 0.23366196
0.095164992 -1.2605227 0.22512676
0.14379559 -1.2778517 0.21641168
0.18630181 -1.243392 0.19949217
0.048362467 -1.2638344 0.19032864
0.094562478 -1.2610443 0.17763577
0.14115427 -1.2603174 0.16588062
0.18761045 -1.2597768 0.1544468
0.048148755 -1.2640231 0.14302595
0.09451656 -1.260727 0.13067138
0.14133658 -1.2665415 0.11956898
0.18067408 -1.2172829 0.10394354
0.048115965 -1.2684003 0.096821502
0.095452607 -1.2786006 0.085408129
0.14053129 -1.2621231 0.072667345
0.18802431 -1.269704 0.061024647
0.048757948 -1.2960727 0.05120825
0.093812563 -1.2649584 0.037956402
0.1427349 -1.2878404 0.026643855
0.1841875 -1.2474 0.013755104
0.048389908 -1.2910883 0.0036755889
0.093535714 -1.2675239 -0.0086735385
0.14113212 -1.2780647 -0.020693336
0.18368083 -1.2471317 -0.032327097
0.047206912 -1.277395 -0.043297883
0.094376244 -1.2853327 -0.055796649
0.14115483 -1.2854676 -0.068361908
0.18424192 -1.2530651 -0.079018027
0.046271138 -1.2749857 -0.090064712
0.092621833 -1.2705476 -0.10204956
0.13863221 -1.264325 -0.1139842
0.18404795 -1.2543317 -0.12591383
0.045836706 -1.2728218 -0.13705795
0.092453152 -1.2759111 -0.14982538
0.13926652 -1.2731863 -0.16211817
0.18782958 -1.2822858 -0.17699575
0.044585649 -1.2669784 -0.18368129
0.090860203 -1.2637185 -0.1956635
0.13621405 -1.2497196 -0.20669514
0.16829802 -1.1502063 -0.20273434
0.043247685 -1.256409 -0.2298917
0.087377116 -1.2233335 -0.23626584
0.1339066 -1.235556 -0.25158396
0.16263622 -1.1139545 -0.23969935
0.039243732 -1.1728333 -0.26024234
0.085173085 -1.2001392 -0.27863359
0.127858 -1.1809 -0.28707418
0.15332474 -1.0476186 -0.26730284
0.037604511 -1.1564527 -0.30268681
0.0790819 -1.1262803 -0.30682048
0.11822324 -1.0945907 -0.31085455
0.13787071 -0.94179678 -0.27941829
0.036299974 -1.1583842 0.35804665
0.082933716 -1.1896251 0.35418937
0.13261868 -1.2281871 0.35382751
0.18105623 -1.2409626 0.34616712
0.040838446 -1.2775717 0.34127998
0.087322503 -1.2573237 0.32266575
0.134066 -1.2503821 0.30918619
0.17980346 -1.2426983 0.29575619
0.040119685 -1.2544007 0.28502342
0.08759433 -1.2586949 0.27330482
0.13471818 -1.2610325 0.26205623
0.17476496 -1.2140043 0.24114484
0.041887324 -1.3004335 0.2451414
0.086203143 -1.2434043 0.22197077
0.13490956 -1.2689039 0.21475208
0.17852865 -1.2435341 0.19933549
0.040733814 -1.2680608 0.1909239
0.087502971 -1.2714802 0.17902681
0.13529612 -1.2789088 0.16821514
0.17959666 -1.2589387 0.15420602
0 -0 0
0 -0 0
0.13658859 -1.2960991 0.12227795
0 -0 0
0 -0 0
0 -0 0
0.13664684 -1.2996986 0.07478109
0 -0 0
0 -0 0
0 -0 0
0.13909563 -1.3294607 0.027486755
0 -0 0
0 -0 0
0 -0 -0
0.13556761 -1.3007854 -0.021047344
0 -0 -0
0 -0 -0
0 -0 -0
0.13439667 -1.2972358 -0.068942592
0 -0 -0
0.03886795 -1.2892045 -0.091050565
0.085222386 -1.2770596 -0.10252866
0.13271655 -1.2829849 -0.11559088
0.17676333 -1.2583938 -0.12621033
0.03787753 -1.2681099 -0.13652298
0.083965562 -1.266544 -0.14866215
0.13165542 -1.2759907 -0.16236933
0.17899503 -1.2765458 -0.17604853
0.03729929 -1.2840455 -0.18611892
0.082521044 -1.2553767 -0.19428986
0.12854335 -1.2505318 -0.20669514
0.16479 -1.1765832 -0.20720136
0 -0 -0
0.079037935 -1.2111084 -0.23380671
0.12702022 -1.2431797 -0.25297287
0.15525663 -1.1110569 -0.23886634
0.02999372 -1.0979064 -0.24357124
0.078689598 -1.2142497 -0.28179219
0.12218891 -1.1971341 -0.29083291
0.14743187 -1.0523806 -0.268282
0 -0 -0
0.072046317 -1.1248183 -0.30629599
0.10799584 -1.0608282 -0.30107242
0.12383378 -0.88371098 -0.26195467
0.030659581 -1.2168487 0.37605229
0.076848716 -1.2092453 0.35988373
0.12498282 -1.2280213 0.35355213
0.16690615 -1.1952704 0.33312932
0.032973699 -1.2768323 0.34102201
0.081441715 -1.2868404 0.33010617
0.12814808 -1.2685721 0.31348374
0.17204155 -1.2428139 0.29552689
0.032522839 -1.2585226 0.28590924
0.079807609 -1.2582333 0.27309313
0.12658589 -1.2579377 0.26124677
0.17360364 -1.2607398 0.25021189
0.033779174 -1.2957541 0.24421561
0.078448005 -1.2419447 0.22162011
0.12643351 -1.2628392 0.21359037
0.1706264 -1.2426492 0.19902207
0.032798268 -1.2623556 0.19003102
0.079328105 -1.2660631 0.17819218
0.12833071 -1.288595 0.16938241
0.16811189 -1.2324756 0.15083541
0.032889977 -1.2744522 0.1441495
0.078603081 -1.2548428 0.12995172
0.12666793 -1.2770975 0.12040969
0.16974819 -1.2490298 0.1064685
0.03254712 -1.2688953 0.096821502
0.080003284 -1.283659 0.085673988
0.12621206 -1.2756747 0.073352881
0.17108707 -1.2620175 0.060549747
0.032672312 -1.2895811 0.050932083
0.079022773 -1.277986 0.038315326
0.12789971 -1.2994449 0.026849443
0.16886611 -1.2495663 0.013755104
0.032164808 -1.2765898 0.0036329157
0.07877174 -1.2815515 -0.0087622534
0.12612046 -1.2866663 -0.020805977
0.16996495 -1.2611804 -0.032634728
0.031207303 -1.2648895 -0.042857796
0.077316657 -1.2654527 -0.05488833
0.12430461 -1.2761701 -0.067781225
0.168851 -1.2552317 -0.079018027
0.030837098 -1.2844326 -0.090698481
0.076963007 -1.2705935 -0.1019697
0.12281734 -1.2629571 -0.11371643
0.16625883 -1.2387432 -0.12413483
0.030614737 -1.2901862 -0.13887684
0.076848418 -1.2779409 -0.1499417
0.12296173 -1.2678874 -0.16123913
0.17102735 -1.2766379 -0.17591321
0.029533161 -1.2891972 -0.18683586
0.074640334 -1.2528999 -0.19383201
0.12257551 -1.2689762 -0.20961547
0.15782882 -1.179525 -0.20754498
0.025583701 -1.1555501 -0.21136364
0.068592705 -1.1605983 -0.22397017
0.11817252 -1.2312524 -0.25039354
0.14364812 -1.076118 -0.23116097
0.024042085 -1.1351602 -0.25179857
0.068556935 -1.1689999 -0.27118832
0.1139135 -1.1881856 -0.28848371
0.14084318 -1.0523043 -0.2680372
0 -0 -0
0.062633403 -1.0818866 -0.2944952
0.093332939 -0.97620833 -0.27688882
0.11688124 -0.87304181 -0.2585746
0.021736197 -1.1405923 0.35243833
0.067505039 -1.1761978 0.3499186
0.11726253 -1.2268511 0.35300145
0.16326503 -1.2239811 0.34084556
0.025404802 -1.2905343 0.34463346
0.072881214 -1.2757097 0.32712999
0.11926182 -1.2577337 0.31061873
0.16607071 -1.2563908 0.29850739
0.024857707 -1.2616235 0.28657365
0.07152693 -1.248942 0.27097613
0.11969359 -1.2674655 0.26306802
0.16714345 -1.2715098 0.25214106
0.025005519 -1.2546715 0.23643924
0.073179506 -1.2836851 0.22898409
0.11582378 -1.233155 0.20844561
0.16659211 -1.2710923 0.20340995
0.025365869 -1.2783519 0.192412
0.070831999 -1.2536728 0.17638384
0.11894631 -1.2735621 0.16730727
0.1643903 -1.2630167 0.1544468
0.024991306 -1.2706561 0.14370008
0.07157515 -1.2672188 0.13118543
0.1204888 -1.2956949 0.12209113
0.16413112 -1.2658585 0.10781512
0.024916317 -1.2770464 0.097429968
0.072349213 -1.2881107 0.085939854
0.11746031 -1.2664841 0.0727816
0.16346836 -1.264034 0.060597233
0.024548018 -1.2787679 0.05049812
0.071235277 -1.2794449 0.03834524
0.12120961 -1.3141431 0.027137261
0.16579768 -1.2862815 0.014147795
0.024502676 -1.2857614 0.0036585194
0.070299342 -1.2710278 -0.008687187
0.11749179 -1.2794504 -0.020677246
0.16247818 -1.2641826 -0.032686003
0.023501059 -1.268055 -0.042959355
0.070153408 -1.2768764 -0.055364117
0.11810463 -1.2948095 -0.068731427
0.16343163 -1.2740632 -0.080138847
0.022901919 -1.2816056 -0.090487227
0.069002859 -1.2680559 -0.10173015
0.11515599 -1.2646788 -0.11380569
0.160676 -1.2555329 -0.12571616
0.023169868 -1.3171905 -0.14176564
0.068042055 -1.2605366 -0.14784786
0.11491069 -1.265654 -0.16086242
0.16381848 -1.2825774 -0.1765898
0.021223979 -1.2656054 -0.18339452
0.068111062 -1.2750456 -0.19718973
0.11363194 -1.2569288 -0.20750634
0.15619808 -1.2244457 -0.21527636
0.018603068 -1.1625702 -0.21262284
0.065311998 -1.2335597 -0.23796831
0.11122902 -1.2387877 -0.25178239
0.15605558 -1.2263979 -0.26323196
0.015094203 -1.0035032 -0.22256999
0.062097743 -1.1830189 -0.27434692
0.10714173 -1.194671 -0.28989324
0.15144247 -1.1868361 -0.30206203
0 -0 -0
0.054448202 -1.0523754 -0.28636575
0.097026825 -1.0850788 -0.30759385
0 -0 -0
0.014650847 -1.1340166 0.35037211
0.059943378 -1.1698883 0.34792554
0.11016048 -1.2323351 0.35437822
0.15307687 -1.2039224 0.33499184
0.017459579 -1.2887337 0.34411755
0.064411089 -1.2635555 0.32390583
0.1104277 -1.245867 0.30751491
0.15762874 -1.2515918 0.29713178
0.017539337 -1.2929548 0.29366049
0.064460926 -1.26107 0.27351651
0.11079517 -1.2554944 0.26043734
0.15787554 -1.2608281 0.24982606
0.017211663 -1.2479229 0.23514318
0.065301582 -1.28411 0.22898409
0.10877225 -1.2397367 0.20944138
0.1602577 -1.283851 0.20529047
0.017453816 -1.2735395 0.19166794
0.061993022 -1.2313362 0.17318444
0.11069891 -1.2693288 0.1666588
0.15883504 -1.2817351 0.15661363
0.017234566 -1.2737663 0.14403714
0.063898303 -1.2696211 0.13139106
0.11176138 -1.2874829 0.12125041
0.15379758 -1.2460741 0.10604768
0.017146705 -1.2821604 0.097810254
0.06289909 -1.2576375 0.083879419
0.10994539 -1.270165 0.072952986
0.1555873 -1.264022 0.060549747
0.016936043 -1.2968791 0.05120825
0.06343285 -1.2808564 0.03837515
0.11108673 -1.2909554 0.026643855
0.15558895 -1.2684171 0.013940542
0.016600013 -1.2848877 0.0036556746
0.062842816 -1.2784266 -0.0087349564
0.10776193 -1.2582302 -0.020323237
0.15629576 -1.2780554 -0.033019271
0.01575714 -1.2711734 -0.043060914
0.061440986 -1.2593211 -0.054585561
0.10888851 -1.2805845 -0.067939594
0.15597378 -1.2780142 -0.080325656
0.015072812 -1.2847143 -0.090698481
0.061989781 -1.2843858 -0.10300777
0.10680428 -1.2584145 -0.11318087
0.15260839 -1.2535317 -0.12541966
0.014745703 -1.287482 -0.13855585
0.060306266 -1.2609303 -0.14784786
0.10806266 -1.2772093 -0.16224374
0.15654315 -1.2884762 -0.17726639
0.013521104 -1.2716495 -0.18425485
0.059726313 -1.2635933 -0.19535825
0.10616587 -1.2605522 -0.20799306
0.14808878 -1.2204913 -0.21441732
0.011129704 -1.1282351 -0.2063269
0.050030645 -1.0691507 -0.20618877
0.10362587 -1.2394469 -0.25178239
0.14852761 -1.2273324 -0.26323196
0.008806142 -0.98893332 -0.21932237
0.047847703 -1.032536 -0.23937672
0.099485822 -1.1914313 -0.28895354
0.14240502 -1.1733053 -0.2983903
0 -0 -0
0 -0 -0
0.081027023 -0.97344398 -0.27580193
0.096329346 -0.79344648 -0.23463251
0.0076599726 -1.1293081 0.34889624
0.053670697 -1.1903445 0.35390463
0.10187949 -1.2243656 0.35190007
0.14857976 -1.2287635 0.34164378
0.0095517291 -1.2888166 0.34411755
0.056960519 -1.2707014 0.3256419
0.10158413 -1.232004 0.30393359
0.15156595 -1.266066 0.30034155
0.0092144068 -1.2403804 0.28170145
0.056414619 -1.2546074 0.27203462
0.10405073 -1.2678628 0.26286566
0.15036814 -1.2637217 0.25021189
0.0095767956 -1.250953 0.23569861
0.056058217 -1.2539971 0.22354877
0.10268638 -1.2590553 0.2125946
0.1502834 -1.2671562 0.20246968
0.0097215166 -1.2844998 0.19330485
0.055748247 -1.2613729 0.17735757
0.10386937 -1.281844 0.16821514
0.14853063 -1.2619811 0.15408565
0.0094259065 -1.2748417 0.1441495
0.055931237 -1.2660142 0.13097982
0.10217911 -1.2673037 0.11928874
0.1476568 -1.2598599 0.10714181
0.0091348831 -1.2622999 0.096289106
0.055574711 -1.2669712 0.084477603
0.10238972 -1.2738012 0.073124371
0.14736469 -1.2609843 0.060359783
0.0088675534 -1.2809713 0.050577022
0.055529155 -1.2802228 0.03834524
0.10300428 -1.2896196 0.026602739
0.15023184 -1.2902057 0.014169611
0.0086072544 -1.2689657 0.0036101565
0.055212189 -1.2837834 -0.0087690772
0.099564299 -1.2528875 -0.020226691
0.14764401 -1.2720393 -0.032839816
0.0079695815 -1.2732449 -0.043128621
0.053883024 -1.263667 -0.054758571
0.10110744 -1.2822241 -0.067992382
0.14709564 -1.2700242 -0.079765238
0.0071115205 -1.2708175 -0.08971262
0.053688329 -1.2747828 -0.10220926
0.10033102 -1.2749331 -0.11460902
0.14582756 -1.2623527 -0.12621033
0.0067240028 -1.2646806 -0.13609502
0.053147245 -1.2751696 -0.14947641
0.099137813 -1.2640017 -0.1604857
0.14931503 -1.2953182 -0.17807831
0 -0 -0
0.051931322 -1.2629485 -0.19520561
0.09942738 -1.2739688 -0.2101022
0.14296302 -1.2419291 -0.21802531
0.0042104414 -1.1292658 -0.20650677
0.046101615 -1.1341925 -0.21867359
0.094808176 -1.2244242 -0.24860783
0.14054786 -1.2243339 -0.26239896
0 -0 -0
0.041354779 -1.0289164 -0.23847425
0.092623092 -1.197834 -0.29036307
0.13620128 -1.1828258 -0.30059332
0 -0 -0
0.041035432 -1.0404291 -0.28295663
0.082151122 -1.0660377 -0.3018876
0.094094113 -0.8168996 -0.24139263
0 -0 0
0.044463489 -1.1417992 0.33938402
0.09488187 -1.2316772 0.35382751
0.14092758 -1.2286944 0.34137774
0.0014981405 -1.1748446 0.31367835
0.050360739 -1.302004 0.33357835
0.095056817 -1.24616 0.30727616
0.14181885 -1.2495633 0.2962147
0.0016374367 -1.2667431 0.28768095
0.048867069 -1.2588363 0.27288142
0.09493532 -1.2509004 0.25922316
0.14470039 -1.2831463 0.25387731
0.0019337639 -1.2726079 0.23977198
0.048021395 -1.2454634 0.22197077
0.09466251 -1.2557282 0.21193077
0.14228484 -1.2660917 0.20215626
0.0017618936 -1.2301478 0.18512028
0.047216844 -1.2409104 0.17443639
0.096224234 -1.2854235 0.16860422
0.1404545 -1.2599089 0.15372452
0.0016059469 -1.2768629 0.14437421
0.047973048 -1.2613637 0.13046576
0.093735836 -1.2589709 0.11844801
0.13981375 -1.2597519 0.10705765
0.0014091386 -1.28028 0.097658142
0.047461208 -1.2583147 0.083879419
0.093463629 -1.2594711 0.07226745
0.14138234 -1.2777498 0.061119623
0.00099806336 -1.269011 0.050103605
0.047784369 -1.283536 0.038434971
0.093693182 -1.2712827 0.026212128
0.14603736 -1.3248966 0.014540487
0.00082992145 -1.2829946 0.003649985
0.047481343 -1.2880952 -0.0087963743
0.092021033 -1.2554692 -0.020258874
0.14169191 -1.2898141 -0.03327563
0.00015744095 -1.2772676 -0.043264035
0.045946114 -1.2589818 -0.054542303
0.09280362 -1.2768444 -0.06767565
0.14049631 -1.2818161 -0.080450192
-0.00070559327 -1.3067479 -0.092247672
0.045722067 -1.2711035 -0.10188985
0.09099333 -1.2546633 -0.11273457
0.14034985 -1.2839973 -0.12828584
-0.0010947033 -1.3362848 -0.14379852
0.045568842 -1.2824197 -0.15029068
0.091380179 -1.2645862 -0.1604857
0.14071977 -1.2903003 -0.17726639
-0.0020850101 -1.2717197 -0.18425485
0.043662883 -1.2484282 -0.19291626
0.091608584 -1.2745548 -0.2101022
0.13416684 -1.23201 -0.2161354
-0.0027802554 -1.1548462 -0.21118376
0.038633581 -1.1197336 -0.21583612
0.081720069 -1.1467718 -0.23273504
0.13345517 -1.2290626 -0.26323196
-0 -0 -0
0.037759077 -1.1089903 -0.25697464
0 -0 -0
0.13041104 -1.1971337 -0.30402029
-0 -0 -0
0 -0 -0
0 -0 -0
0.097083613 -0.89090908 -0.26308134
-0 -0 0
0.039656345 -1.2091174 0.35931429
0.085080124 -1.2005912 0.3447409
0.13400957 -1.2352859 0.34297416
-0 -0 0
0.041331265 -1.2703364 0.32539389
0.087340817 -1.245751 0.30703738
0.13695243 -1.2765408 0.30240494
-0 -0 0
0.040727146 -1.2464138 0.27012932
0.088348031 -1.2670903 0.26246095
0.13620062 -1.2781558 0.25271979
-0.0057659699 -1.2490109 0.23532832
0.040314682 -1.2437667 0.22162011
0.08525338 -1.231691 0.20778178
0.13691188 -1.2895297 0.2057606
-0 -0 0
0.040422965 -1.2669109 0.1780531
0.086772352 -1.2632376 0.16562124
0.13615096 -1.293327 0.15769704
-0.038623199 -7.9174552 0.89523238
0 -0 0
0 -0 0
0.13685796 -1.3061733 0.11092923
-0.039949462 -7.9338517 0.60519147
0 -0 0
0 -0 0
0.13685986 -1.3103842 0.062639304
-0.028661201 -5.3577495 0.21153979
0 -0 0
0 -0 0
0.14007774 -1.3466537 0.014769557
-0.02902589 -5.287899 0.015043741
0 -0 -0
0 -0 -0
0.13593939 -1.3115404 -0.033813987
-0.031560197 -5.2488952 -0.17779554
0 -0 -0
0 -0 -0
0.13468167 -1.3025094 -0.081695549
-0 -0 -0
0.038040742 -1.2753456 -0.10220926
0.084612131 -1.2750746 -0.11451977
0.13195847 -1.2798849 -0.12779167
-0.012011629 -1.7269876 -0.18584673
0.037144803 -1.2638123 -0.14808051
0.082899369 -1.254234 -0.15910436
0.13310412 -1.2940962 -0.17767234
-0.010011217 -1.2875172 -0.18654908
0.035688542 -1.237806 -0.1912374
0.082945243 -1.2622929 -0.20799306
0.12761123 -1.2426099 -0.21785349
-0 -0 -0
0 -0 -0
0.078183785 -1.2010442 -0.24364758
0.12581165 -1.2288853 -0.26302367
-0 -0 -0
0.029948208 -1.073169 -0.24862689
0 -0 -0
0.12108142 -1.1786212 -0.29912463
-0 -0 -0
0 -0 -0
0 -0 -0
0.09553884 -0.92966741 -0.2743482
-0.012794992 -1.1005964 0.34004101
0.030678406 -1.1508834 0.34194648
0.07864289 -1.2154807 0.34887117
0.12662365 -1.2380028 0.34350631
-0.074465565 -6.7713771 1.8080359
0.033714775 -1.2773451 0.32712999
0.078703843 -1.230758 0.30321735
0.13019395 -1.2880098 0.3049269
-0 -0 0
0.033415534 -1.2593412 0.27288142
0.080758013 -1.2705406 0.26306802
0.12874736 -1.2828727 0.25349146
-0.10259786 -9.5415611 1.7978269
0.033509713 -1.275484 0.22723074
0.080548845 -1.2774632 0.21541592
0.12791619 -1.2795353 0.20403679
-0 -0 0
0.032316994 -1.2542658 0.17624474
0.078153327 -1.2498915 0.16380548
0.12733185 -1.2852471 0.15661363
-0 -0 0
0.033002626 -1.2817448 0.13252196
0.078649677 -1.2659887 0.1190085
0.12717903 -1.2901306 0.10949843
-0 -0 0
0.032320607 -1.270772 0.084677003
0.07861755 -1.2704877 0.072838731
0.12686367 -1.2913176 0.061689503
-0.061707333 -5.3724599 0.21213156
0.031905182 -1.2790295 0.038285419
0 -0 0
0.13064398 -1.3355455 0.014638659
-0.061192293 -5.2636232 0.014975465
0.031646293 -1.2875813 -0.0087895505
0.077337734 -1.2684801 -0.020451969
0.12614411 -1.2944406 -0.033352539
-0.0641426 -5.279583 -0.17884499
0.030589739 -1.263446 -0.05471532
0.076285511 -1.263932 -0.066936597
0.12475588 -1.2834438 -0.080450192
-0 -0 -0
0.030285468 -1.2785447 -0.10244881
0.076547422 -1.2715929 -0.11416272
0.12218314 -1.2608612 -0.125815
-0.024781594 -1.8929085 -0.20371455
0.029989755 -1.2898329 -0.15110494
0.076448418 -1.2755154 -0.16174145
0.12430325 -1.2860126 -0.17645448
-0.017621974 -1.2666506 -0.18353792
0.0282722 -1.2459059 -0.19245839
0.074846447 -1.2568679 -0.20701961
0.11913271 -1.2345444 -0.21630722
-0 -0 -0
0.024104515 -1.084782 -0.20902622
0.069947861 -1.186825 -0.24067144
0.11845627 -1.2315813 -0.26344022
-0 -0 -0
0 -0 -0
0.064736344 -1.1003617 -0.26640108
0.11571056 -1.1986438 -0.30402029
-0 -0 -0
0 -0 -0
0 -0 -0
0.087526947 -0.90635943 -0.26730642
-0.020006036 -1.1262901 0.34801072
0.022672281 -1.1050463 0.32828
0.070677713 -1.207303 0.34639299
0.11828746 -1.2310803 0.34137774
-0 -0 0
0.025699934 -1.2688109 0.32489786
0.071878888 -1.2438208 0.30632114
0.11971392 -1.2616521 0.29850739
-0.13958955 -8.155117 1.85232
0.025986658 -1.2741795 0.27605692
0.071613632 -1.2475474 0.25821137
0.12041343 -1.278754 0.25252688
-0.16004655 -9.4759026 1.7856069
0.025088351 -1.2461363 0.22197077
0.070580348 -1.2405208 0.20910946
0.11969385 -1.2763628 0.20340995
-0 -0 0
0.024989564 -1.273252 0.17888771
0.069924608 -1.2404478 0.16250853
0.11806618 -1.2711769 0.15480793
-0 -0 0
0.024883848 -1.2689946 0.13118543
0.069990061 -1.2505423 0.11751388
0.11806885 -1.2779877 0.10840429
-0 -0 0
0.024176216 -1.2529894 0.083480626
0.069431864 -1.2460256 0.071410514
0.11838856 -1.2861037 0.061404567
-0.094565324 -5.3659859 0.21189484
0.023887454 -1.2702068 0.038016222
0.069229886 -1.2538248 0.025821514
0.12299422 -1.3422967 0.014704108
-0.093328282 -5.2541499 0.01494986
0.02407709 -1.3057477 -0.0089123854
0.069553033 -1.2689307 -0.020451969
0.11747238 -1.287226 -0.033147451
-0.096097752 -5.2551074 -0.1780325
0.022656277 -1.2536209 -0.054282788
0.068907052 -1.2713563 -0.067306124
0.11714987 -1.287167 -0.080636993
-0.053901561 -2.8444097 -0.20083235
0.022684759 -1.2926594 -0.10356672
0.069227368 -1.2809898 -0.11496606
0.11732119 -1.2933003 -0.12897767
-0.034885675 -1.8141887 -0.1952621
0.022193883 -1.2969443 -0.15191922
0.067555025 -1.2561474 -0.15922992
0.11587447 -1.2808306 -0.17564258
-0.025076242 -1.250687 -0.18124369
0.019890843 -1.2015892 -0.18559034
0.066817373 -1.2513915 -0.20604618
0.11235289 -1.2440823 -0.21785349
-0.024384789 -1.1713185 -0.2142418
0.018537475 -1.152655 -0.22207853
0.059564687 -1.1285064 -0.22876681
0.11045887 -1.2274144 -0.26239896
-0 -0 -0
0.01616757 -1.0344919 -0.23960233
0 -0 -0
0.10346813 -1.1452551 -0.29031247
-0 -0 -0
0 -0 -0
0 -0 -0
0.073067993 -0.80845094 -0.23829423
-0.02636853 -1.1032221 0.34092656
0.016070591 -1.1176252 0.33198133
0.062162064 -1.1865934 0.34033525
0.11193975 -1.245224 0.34510279
-0.15595916 -6.7013745 1.7897207
0.018269721 -1.2941298 0.33134621
0.063444398 -1.2287217 0.30250108
0.1128303 -1.2720585 0.30080009
-0.18837883 -8.1004868 1.8401394
0.017833572 -1.2508614 0.27097613
0.064007603 -1.2489414 0.25841373
0.11196292 -1.2726268 0.25117648
-0.22228156 -9.652566 1.8191195
0.017469283 -1.2482356 0.22232144
0.064066753 -1.2625976 0.21276057
0.11280794 -1.2878958 0.20513375
-0.279915 -12.109382 1.82278
0.017083071 -1.2664502 0.17791398
0.063654773 -1.2675917 0.16601032
0.10949249 -1.2629764 0.15372452
-0 -0 0
0.017297959 -1.2840425 0.13272758
0.064445585 -1.2937073 0.12153066
0.10988273 -1.274717 0.10806762
-0 -0 0
0.016841993 -1.2800523 0.085275196
0.063861065 -1.2883081 0.073809914
0.11100767 -1.2927772 0.061689503
-0.12865169 -5.4142523 0.21382797
0.016359061 -1.2913184 0.038644344
0.061241295 -1.2482344 0.025698163
0.11203156 -1.3111442 0.014355049
-0.12513529 -5.2354841 0.014898653
0.015781801 -1.2828732 -0.0087554296
0.06157133 -1.2653389 -0.020387603
0.10753807 -1.2640167 -0.032532185
-0.12870672 -5.2694058 -0.17854029
0.01508301 -1.2637262 -0.05471532
0.061200708 -1.2737501 -0.067411706
0.10789994 -1.2719498 -0.079640701
-0.13117337 -5.2283392 -0.36920193
0.014593479 -1.27882 -0.10244881
0.06117548 -1.2774109 -0.11460902
0.10770706 -1.2741644 -0.127001
-0.047655623 -1.8785467 -0.20221666
0.014464466 -1.3179121 -0.15436201
0.059940577 -1.2585202 -0.15948109
0.10859576 -1.2884285 -0.1765898
-0.030210692 -1.1535555 -0.16719157
0.012486772 -1.198724 -0.18513246
0.057694204 -1.2212226 -0.20101669
0 -0 -0
-0.030245988 -1.1219803 -0.20524758
0.010732164 -1.0791049 -0.20789126
0.049808629 -1.0681493 -0.21646541
0.097125746 -1.1588682 -0.24761295
-0 -0 -0
0.0097735114 -1.0297008 -0.23847425
0.050821766 -1.0923345 -0.26428679
0 -0 -0
-0 -0 -0
0 -0 -0
0 -0 -0
0.068830587 -0.81748921 -0.24082927
-0.030870745 -1.0275935 0.31760776
0.009457604 -1.1474187 0.34080759
0.055013299 -1.1898335 0.34116131
0.1031713 -1.2324392 0.34137774
-0.19733074 -6.7089834 1.7920424
0.010065889 -1.2612809 0.32291377
0.056962863 -1.2523696 0.30823115
0.10302177 -1.2484752 0.29506838
-0 -0 0
0.010158096 -1.2509472 0.27097613
0.056651887 -1.2561588 0.25983027
0.10479208 -1.2811134 0.25271979
-0.27680549 -9.4899244 1.7887545
0.0099414466 -1.2650554 0.2253021
0.055615515 -1.2472044 0.21010521
0.10065601 -1.2363912 0.19682811
-0 -0 0
0.0091663441 -1.246726 0.1751319
0.055395592 -1.257062 0.16458367
0.10229865 -1.2705511 0.15456717
-0 -0 0
0.0093897134 -1.2801459 0.13231635
0.055594243 -1.27319 0.11956898
0.1044437 -1.3051654 0.11059257
-0 -0 0
0.0087492513 -1.2462075 0.083015367
0.055262011 -1.2727169 0.072895855
0.10220043 -1.2824812 0.061167117
-0.16288593 -5.4473195 0.21516934
0.0083178515 -1.2734029 0.038105953
0.053709716 -1.2515833 0.025759839
0.10248313 -1.2928674 0.014147795
-0.15707709 -5.2286205 0.014881583
0.0078852819 -1.2789459 -0.0087281326
0.055419959 -1.3036536 -0.02099907
0.10095962 -1.2796015 -0.032916725
-0.16140318 -5.2805042 -0.17894654
0.0073344409 -1.264794 -0.054758571
0.053007733 -1.2651221 -0.066936597
0.099545568 -1.265623 -0.079204828
-0.16596031 -5.314178 -0.37532833
0.0068516806 -1.2988213 -0.10404583
0.0536686 -1.2857233 -0.1153231
0.10019784 -1.2787696 -0.12739633
-0.060559038 -1.9219447 -0.20692435
0.0063103526 -1.3040713 -0.15273349
0.052916281 -1.2757152 -0.16161586
0.10076523 -1.2900585 -0.17672513
-0.039590739 -1.2245672 -0.17751557
0.0052412916 -1.2244732 -0.18910068
0.050564483 -1.2304269 -0.20247686
0.096924514 -1.2434031 -0.21750988
-0 -0 -0
0.004204209 -1.1036988 -0.21262035
0.040399145 -0.99792403 -0.20217988
0.094328426 -1.2150254 -0.2594834
-0 -0 -0
0.0031904234 -0.95083022 -0.22019951
0 -0 -0
0 -0 -0
-0 -0 -0
0 -0 -0
0 -0 -0
0 -0 -0
-0.039662927 -1.0961317 0.3388603
0 -0 0
0.04855876 -1.2112812 0.34721905
0.096725032 -1.247465 0.34536889
-0.23907618 -6.7240605 1.7964276
0.0022712292 -1.2312875 0.31522533
0.050269812 -1.2779242 0.31443876
0.09587799 -1.2558776 0.29667324
-0.28964031 -8.1501913 1.8520986
0.0024938716 -1.2568499 0.2722463
0.048638232 -1.2486541 0.25821137
0.097447284 -1.2885811 0.25407019
-0.33506405 -9.4890299 1.7889397
0.0021790254 -1.2650926 0.2253021
0.048984647 -1.2741282 0.21458614
0.092030384 -1.2231976 0.19463417
-0.42957911 -12.135671 1.8273932
0.0015742177 -1.2942921 0.18180889
0.047005031 -1.239543 0.16224915
0.09531036 -1.2820449 0.15589134
-0 -0 0
0.0015466339 -1.2901263 0.13334444
0.046474531 -1.2386847 0.1162995
0.094451882 -1.2789507 0.10832012
-0 -0 0
0.0011166249 -1.2622024 0.084078819
0.046931099 -1.2590647 0.072096065
0.094256103 -1.2820879 0.061119623
-0.19544315 -5.4222517 0.21422249
0.00050859584 -1.284425 0.038434971
0.046800572 -1.2728707 0.026191568
0.09542308 -1.3054392 0.014278692
-0.19291703 -5.3314891 0.01517745
3.7757138e-05 -1.2819703 -0.0087486049
0.045712002 -1.2570063 -0.020242782
0.092091061 -1.2662383 -0.032557823
-0.19530389 -5.3203635 -0.18033449
-0.00043373567 -1.2867947 -0.055710144
0.044744555 -1.251452 -0.066197552
0.091994435 -1.2691963 -0.079391636
-0.20042707 -5.3629007 -0.37884921
-0.0011212977 -1.302826 -0.10436523
0.044892732 -1.2611439 -0.11309162
0.091418192 -1.2664576 -0.12611149
-0.075231291 -1.9980408 -0.2151628
-0.001759671 -1.3567256 -0.15889865
0.045192745 -1.2789903 -0.16199259
0.091852374 -1.276817 -0.17483068
-0.046685267 -1.213423 -0.17593831
-0.0021931815 -1.1819862 -0.18253787
0.042427849 -1.2139496 -0.19971877
0.090280764 -1.2577308 -0.21991521
-0 -0 -0
-0.0026023097 -1.118433 -0.2154578
0.035385232 -1.030478 -0.2087274
0.07522811 -1.0526582 -0.22470511
-0 -0 -0
-0.002549012 -0.91673446 -0.212303
0.037945416 -1.1084191 -0.26804551
0.074244298 -1.0338163 -0.26167285
-0 -0 -0
-0 -0 -0
0 -0 -0
0 -0 -0
-0.046670776 -1.1025498 0.34092656
-0 -0 0
0.040440682 -1.1913797 0.34143665
0.083442062 -1.1691915 0.32355052
-0.2828255 -6.7823167 1.8124212
-0.0054833991 -1.2777781 0.32712999
0.042782042 -1.2888846 0.31706506
0.087557033 -1.2477036 0.29460984
-0.33529794 -8.0440083 1.8284019
-0.0051287948 -1.2353405 0.26758891
0.041393183 -1.2616533 0.26084206
0.088247113 -1.2705566 0.2504048
-0.39657834 -9.5663261 1.8039368
-0.034608874 -7.8415403 1.3965223
0.040306211 -1.247793 0.21010521
0.085952386 -1.2444303 0.19792508
-0.50017589 -12.039933 1.8134049
-0.038828224 -7.8924189 1.1086587
0.039744884 -1.2507098 0.1636758
0.086496763 -1.2687395 0.15420602
-0 -0 0
-0.038835548 -7.8660002 0.81302071
0.040278289 -1.2837278 0.12050311
0.085795127 -1.267576 0.10731015
-0 -0 0
-0 -0 0
0.039577525 -1.2713035 0.0727816
0.085447855 -1.2686894 0.060454763
-0.29231048 -6.9284339 0.2737945
-0.030769421 -5.3605127 0.16040993
0.03856105 -1.2591435 0.02590375
0.085942172 -1.2840506 0.014038715
-0.2261766 -5.3431935 0.015214434
-0.03219847 -5.272779 -0.035983928
0.03851179 -1.2742531 -0.020516334
0.084253438 -1.265782 -0.032532185
-0.22674721 -5.2911067 -0.17938662
-0.034080498 -5.2649584 -0.22794446
0.037330963 -1.2606864 -0.066672653
0.083412535 -1.2577863 -0.078644417
-0.22652037 -5.2051077 -0.36779356
-0.01632658 -2.3334677 -0.18693115
0.037622839 -1.2773249 -0.11451977
0.085677773 -1.2977759 -0.12917534
-0.087663643 -2.0015147 -0.21559076
-0 -0 -0
0.037373103 -1.2802352 -0.16211817
0.084211327 -1.2803226 -0.17523663
-0.055188585 -1.236842 -0.17937963
-0.0095957275 -1.2007272 -0.18543771
0.032506324 -1.1283753 -0.1856038
0.080239721 -1.2228725 -0.2137301
-0 -0 -0
-0 -0 -0
0.031492688 -1.116892 -0.22618751
0 -0 -0
-0 -0 -0
-0 -0 -0
0.030952506 -1.1018296 -0.26640108
0 -0 -0
-0 -0 -0
-0 -0 -0
0 -0 -0
0.052639589 -0.80138361 -0.23575918
-0.048901133 -1.0087191 0.31199944
-0.01188835 -1.1694454 0.34735611
0.03422517 -1.2310053 0.35272607
0.081785746 -1.2543294 0.34696534
-0.32628277 -6.819056 1.8227395
-0.074789919 -7.1722836 1.836293
0.034610193 -1.2794156 0.31467751
0.078904755 -1.2326752 0.29094154
-0.39023954 -8.1586857 1.8549775
-0.085280366 -8.2893143 1.7956401
0.03362494 -1.2609047 0.26063973
0.08013957 -1.2661779 0.24944024
-0.45980135 -9.658927 1.8218967
-0.10618457 -10.065063 1.7925982
0.032881241 -1.256889 0.21159886
0.080671363 -1.2823908 0.20388009
-0.57672721 -12.092939 1.8218871
-0.14443515 -13.063937 1.8351988
0.03217157 -1.2548949 0.16419458
0.078587405 -1.2672647 0.15396528
-0 -0 0
-0 -0 0
0.032526311 -1.2889272 0.12097017
0.078811273 -1.281008 0.10840429
-0 -0 0
-0 -0 0
0.03225011 -1.2904855 0.073867045
0.079064876 -1.2921211 0.061547033
-0.33250129 -6.878603 0.2719008
-0.063506015 -5.3472295 0.16002108
0.031005666 -1.2663528 0.02604766
0.077697836 -1.2785652 0.013973265
-0.26370287 -5.43959 0.015493232
-0.0640736 -5.2334862 -0.035717782
0.031486787 -1.3074516 -0.021047344
0.076907068 -1.2732601 -0.032711636
-0.25935531 -5.2926102 -0.17948817
-0.066158287 -5.2466683 -0.22716589
0.030157207 -1.2848517 -0.067939594
0.076292649 -1.268237 -0.079267092
-0.26671788 -5.3700004 -0.37955341
-0.030604891 -2.3303335 -0.1866916
0.029993545 -1.2864933 -0.1153231
0.076583438 -1.279404 -0.12729751
-0.093445517 -1.8708532 -0.20157468
-0.023084929 -1.7012144 -0.1992631
0.029539891 -1.2814322 -0.16224374
0.075882144 -1.2729027 -0.17415409
-0.057608001 -1.1346756 -0.16461055
-0.016767612 -1.1868112 -0.18330099
0.026409527 -1.165054 -0.19160673
0 -0 -0
-0.058227349 -1.1297415 -0.20686655
-0.01553861 -1.0643157 -0.20505379
0.022628952 -1.0259352 -0.20773536
0.066231243 -1.1198953 -0.23886634
-0 -0 -0
-0 -0 -0
0 -0 -0
0 -0 -0
-0.044715349 -0.836613 -0.21916954
-0 -0 -0
0 -0 -0
0 -0 -0
-0 -0 0
-0.018376164 -1.1271771 0.3348285
0.024422595 -1.1273915 0.32298806
0.071701527 -1.2143921 0.3357901
-0.36723191 -6.8005247 1.8183541
-0 -0 0
0.025723748 -1.2300897 0.30250108
0.071789458 -1.2409101 0.29277569
-0.43151444 -7.9935217 1.8179932
-0.13529037 -8.2368441 1.7844201
0.025425265 -1.2385678 0.25598544
0.07248088 -1.268605 0.24982606
-0.51879501 -9.6510181 1.8209709
-0.16950111 -10.157738 1.8092546
0.025168497 -1.2570671 0.21159886
0.073192947 -1.289764 0.20497705
-0.65272486 -12.122746 1.8269466
-0.21871813 -12.72121 1.7872078
0.02466437 -1.2649823 0.16549154
0.070810139 -1.2677231 0.15396528
-0 -0 0
-0 -0 0
0.024255812 -1.270189 0.11919532
0.070508987 -1.2735081 0.10773097
-0 -0 0
-0 -0 0
0.024218326 -1.2846699 0.073524274
0.070147105 -1.2746294 0.060692217
-0.37627804 -6.9053683 0.27304491
-0.095936745 -5.3257523 0.15939297
0.023106519 -1.2595218 0.02590375
0.07023295 -1.286007 0.014049623
-0.3866443 -7.0774183 0.020164531
-0.096901156 -5.271987 -0.035983928
0.02344588 -1.3066205 -0.021031253
0.069905259 -1.288681 -0.033096176
-0.3128508 -5.6721215 -0.19242001
-0.098518528 -5.2551532 -0.22755517
0.022497915 -1.2979925 -0.068625852
0.068509452 -1.2686813 -0.079267092
-0.304277 -5.4509277 -0.38539809
-0 -0 -0
0.021979474 -1.2796822 -0.11469828
0.068091363 -1.2679256 -0.12611149
-0.10447756 -1.862303 -0.20071875
-0 -0 -0
0.021995388 -1.3004363 -0.16462968
0.068440564 -1.2802701 -0.1751013
-0 -0 -0
-0.023769088 -1.1728528 -0.18116425
0.019195158 -1.1612475 -0.19095775
0.062657915 -1.1755621 -0.20531146
-0.069974251 -1.2128376 -0.22215667
-0.021967039 -1.0592915 -0.20410796
0.0159903 -1.0044949 -0.20337035
0.054028086 -1.0196799 -0.21741626
-0 -0 -0
-0 -0 -0
0 -0 -0
0.062535346 -1.1724925 -0.29643202
-0 -0 -0
-0 -0 -0
0 -0 -0
0.042085502 -0.7885552 -0.23181579
-0 -0 0
-0.025464103 -1.1347101 0.33710626
0 -0 0
0.066081576 -1.249463 0.34536889
-0.40947437 -6.8068233 1.8206758
-0.16257937 -7.1611409 1.833813
0.017874323 -1.2098339 0.29748723
0.065128841 -1.2597964 0.29713178
-0.47932431 -7.9702816 1.8133425
-0.18721706 -8.2974148 1.7977573
0.01831826 -1.2729728 0.26306802
0.064845376 -1.2719657 0.2504048
-0.57265472 -9.5583868 1.8041221
-0.23481259 -10.287413 1.8325739
0.017482184 -1.2591699 0.21193077
0.064628936 -1.2773659 0.20293982
-0 -0 0
-0.30543184 -13.090881 1.8393718
0.016994845 -1.2720501 0.16639942
0.063670851 -1.2810233 0.1555302
-0 -0 0
-0 -0 0
0.01655193 -1.2772828 0.11984922
0.06421192 -1.3047694 0.11034007
-0 -0 0
-0.33532569 -14.17062 0.94420838
0.015827583 -1.2448629 0.071239136
0.06295877 -1.2880056 0.061309583
-0.8230077 -13.570475 0.53677922
-0.12965092 -5.368031 0.16067912
0.015707327 -1.2866322 0.02645883
0.061905224 -1.2774248 0.01395145
-0.43079135 -7.0868902 0.020198669
-0.12963982 -5.2872877 -0.036093112
0.015180277 -1.285744 -0.020693336
0.061276414 -1.2741081 -0.032711636
-0.34856585 -5.6850581 -0.19292779
-0.13143277 -5.2814159 -0.228723
0.014443724 -1.2901177 -0.068203539
0.061009891 -1.2750593 -0.079640701
-0.35147801 -5.6709785 -0.40110132
-0 -0 -0
0.013973163 -1.2658496 -0.11344865
0.06083015 -1.2792535 -0.12719867
-0.11528466 -1.8517035 -0.19964881
-0 -0 -0
0.014047719 -1.3035227 -0.1650064
0.060630508 -1.2816557 -0.17523663
-0 -0 -0
-0.030939046 -1.171697 -0.18101163
0.012131044 -1.1672636 -0.1919312
0.058459383 -1.2398869 -0.21647903
-0.079169922 -1.2398727 -0.22719343
-0 -0 -0
0.01029629 -1.0525975 -0.21309242
0.047450133 -1.0131533 -0.21595849
-0 -0 -0
-0.024487088 -0.89594483 -0.2075651
0 -0 -0
0.049444884 -1.0479175 -0.26485503
-0 -0 -0
-0 -0 -0
0 -0 -0
0 -0 -0
-0 -0 0
-0 -0 0
0 -0 0
0.056028612 -1.1988112 0.33126673
-0.44988996 -6.7839375 1.8152586
-0.20551075 -7.1251478 1.8248843
0.01112157 -1.2876043 0.31658757
0.057353366 -1.2592 0.29690254
-0.52892965 -7.9778938 1.8157785
-0 -0 0
0.010434358 -1.2642477 0.26124677
0.057171348 -1.2752804 0.25098357
-0.63608742 -9.6272554 1.8178234
-0.28849551 -9.960042 1.7745389
0.0096258605 -1.2424898 0.20910946
0.056658391 -1.2747784 0.20246968
-0 -0 0
-0.37950727 -12.876933 1.8096036
