# .PCD v0.7 - Point Cloud Data file format
VERSION 0.7
FIELDS x y z
SIZE 4 4 4
TYPE F F F
COUNT 1 1 1
WIDTH 1590
HEIGHT 1
VIEWPOINT 0 0 0 1 0 0 0
POINTS 1590
DATA ascii
0 0 0
7.2265267 3.7063403 1.2221807
0 0 0
5.881732 3.5833766 0.90086532
0 0 0
7.2437043 3.7135537 0.92039955
6.6584253 3.7286491 0.78875756
5.891181 3.5858915 0.64707369
5.1574912 3.4011748 0.52182186
7.2613449 3.7211568 0.62238055
6.6811395 3.7386122 0.5099895
5.8980336 3.5880876 0.39504299
5.0985837 3.3599019 0.29030636
7.1792178 3.6762226 0.31845376
0 0 0
5.8971438 3.5834582 0.14189498
5.1756029 3.407548 0.067597449
1.2542222 0.64202166 0.0040084398
1.2825257 0.71623236 -0.010024727
1.2666494 0.76899606 -0.02384722
1.6995411 1.1180625 -0.05216942
1.2164692 0.62189269 -0.046276942
1.2318882 0.68736142 -0.061073542
1.2330669 0.74757731 -0.076227486
1.2509141 0.82249027 -0.093401924
1.2492075 0.63758475 -0.099007808
1.2207565 0.68031228 -0.11195108
1.2163483 0.73717999 -0.12746237
1.126866 0.74044836 -0.13391934
1.3985326 0.71330678 -0.16894186
1.3233876 0.73675072 -0.17739418
1.2669045 0.76736665 -0.18748444
1.151989 0.75655341 -0.18822713
2.1273465 1.0828326 -0.34585425
2.1386666 1.1890652 -0.3778961
2.1315994 1.2899957 -0.40965873
1.958324 1.2856629 -0.4085612
1.4970371 0.76055413 -0.30706191
1.6061474 0.89200228 -0.35392585
2.1415427 1.2942263 -0.50654095
2.0223894 1.3268137 -0.51500994
1.4612348 0.7406013 -0.36330006
1.5180879 0.84219569 -0.40204459
2.1347835 1.2898364 -0.60280883
2.0538011 1.3484474 -0.62027973
1.4115763 0.71376145 -0.41379008
1.578645 0.87424248 -0.49038827
2.1493714 1.2978823 -0.70893317
1.9947331 1.3097653 -0.70051748
5.4968276 2.7713284 1.9018092
5.5925145 3.0934532 1.8982158
5.6644359 3.420218 1.8952488
5.2657967 3.4539602 1.7382858
6.3829131 3.2230966 1.9091558
6.5232468 3.6060503 1.908217
5.909029 3.5618558 1.6963458
0 0 0
7.693275 3.8849416 1.9572936
7.0192585 3.8815248 1.7374227
5.9244204 3.568033 1.4290664
6.8503904 4.4747162 1.6087255
7.7027626 3.8919261 1.6260058
6.9692698 3.8515 1.4180882
5.9168034 3.5593655 1.1620511
0 0 0
7.6074848 3.8429525 1.2825978
0 0 0
5.8925595 3.5405807 0.89917934
5.366888 3.4959364 0.77668798
7.5954337 3.835201 0.96208274
6.7621675 3.7324262 0.79831886
5.9216089 3.5548007 0.64800781
5.1849451 3.3738127 0.52249515
7.5208187 3.7960429 0.64261186
6.7921977 3.746218 0.51670253
5.9798656 3.5877852 0.39904198
5.1392012 3.3416224 0.29144609
1.2436924 0.62724864 0.054995608
0 0 0
5.9739056 3.5800986 0.14321074
1.8699373 1.2147604 0.024325045
1.2581379 0.63431382 0.0040084398
1.2527308 0.68954366 -0.0097585842
1.2842119 0.7689141 -0.024088589
1.3164619 0.85452229 -0.040248644
1.2238327 0.61621469 -0.046412352
1.2334563 0.67834544 -0.060943779
1.2290598 0.73487258 -0.07569959
1.381531 0.89627928 -0.10274211
1.2557698 0.63125175 -0.099219061
1.2170446 0.66848999 -0.11123241
1.2097346 0.72305977 -0.126302
1.1631169 0.75409114 -0.13767502
1.3993292 0.70292687 -0.16851386
1.3383323 0.73435009 -0.17879006
1.2835131 0.76670128 -0.18924251
1.1873747 0.76940632 -0.19323391
1.8632256 0.93404335 -0.30197722
2.1199217 1.1616724 -0.37331739
2.1386273 1.2763865 -0.40949649
2.0852377 1.3507471 -0.43330166
1.4796826 0.74035013 -0.3025648
1.6046996 0.87835854 -0.35241252
2.130079 1.2695206 -0.50197756
2.0592299 1.3329818 -0.52229887
1.4657515 0.73162144 -0.36330006
1.4941642 0.81697422 -0.39437369
2.1376474 1.273728 -0.6013993
2.0555263 1.3316028 -0.61832142
1.4176613 0.70594925 -0.41429624
1.4450636 0.788719 -0.44738096
2.1539869 1.2826999 -0.70784622
2.0293064 1.3147178 -0.70981264
5.4983249 2.7299004 1.8964961
5.6105485 3.0586212 1.8979311
5.6935754 3.3903155 1.8980023
5.4034243 3.4970033 1.776601
6.4181409 3.1916146 1.913799
6.5461011 3.5664198 1.9084649
6.2187557 3.696722 1.7787158
0 0 0
7.8872333 3.9223368 2.000479
7.0051832 3.8178036 1.7281078
5.9419918 3.5291138 1.4280546
6.8636966 4.4235625 1.605446
7.8391137 3.9006257 1.6497053
7.0282192 3.8279722 1.4252769
6.8019176 4.0351915 1.3309983
0 0 0
7.916893 3.9384656 1.3306636
7.0235033 3.8207951 1.1231254
6.0643091 3.5933189 0.92200571
0 0 0
7.8982005 3.9274471 0.99736172
6.9867864 3.8006632 0.82206798
0 0 0
5.4067941 3.4711335 0.54269475
7.903801 3.9286835 0.67326313
7.0447378 3.8293197 0.53411651
6.024107 3.5642438 0.4005273
0 0 0
1.2564669 0.62405044 0.055390123
7.0494027 3.8273938 0.24003163
5.9647741 3.525064 0.14247061
1.8857744 1.2086596 0.024434125
1.2449886 0.61813277 0.0039543873
1.2543012 0.6804136 -0.0097381119
1.2604929 0.74424392 -0.023557579
1.3309406 0.85235894 -0.040530641
1.2275907 0.60869378 -0.046412352
1.2305685 0.66695583 -0.060597755
1.2249436 0.72224545 -0.075171702
1.2735223 0.81514847 -0.094335943
1.2640893 0.62574732 -0.099571154
1.2220001 0.6614843 -0.11131227
1.2038517 0.70955449 -0.12523089
1.1987385 0.76678002 -0.14133185
1.3929217 0.68903744 -0.16722997
1.3611598 0.73604542 -0.18123287
1.2950317 0.76283956 -0.19024712
1.2338126 0.78879064 -0.19999979
1.4039097 0.69304001 -0.22684138
2.140923 1.1561565 -0.37575936
2.1438677 1.2617385 -0.40900975
2.1042776 1.3448234 -0.43553519
1.4780205 0.72821379 -0.30130562
1.5149938 0.81721586 -0.33160451
2.1319134 1.2529504 -0.5005886
2.1085856 1.3466438 -0.53271151
1.4684608 0.7217527 -0.36286706
1.4759928 0.79531354 -0.38828212
2.1336899 1.2536937 -0.59811032
2.09552 1.3393294 -0.627868
1.4306526 0.7014966 -0.41682705
1.4065326 0.75652456 -0.43400675
2.1560078 1.266048 -0.70594418
2.0494621 1.3099928 -0.71403766
5.538147 2.7074418 1.9044658
5.6224546 3.0205085 1.8956534
5.7175865 3.3572638 1.8991038
5.4727149 3.4943898 1.7922995
6.4705768 3.168319 1.9236015
6.5593262 3.5216043 1.9059849
6.5094047 3.8156383 1.8551171
5.4958496 3.4999866 1.5347223
0 0 0
7.0388093 3.7802978 1.7306482
5.9719849 3.4975371 1.4300783
6.8724933 4.3697815 1.6012018
1.3131307 0.64337248 0.27550632
7.096683 3.8089864 1.4343941
6.9176264 4.046658 1.3487561
0 0 0
8.1025343 3.9689851 1.3577472
7.0817261 3.7963428 1.1286896
6.185555 3.6140666 0.93705046
5.4798107 3.4744668 0.78679985
8.1077766 3.9697983 1.0207312
7.0757265 3.7929676 0.82977867
0 0 0
5.5500536 3.5152025 0.55489862
8.0164213 3.9235075 0.68079287
7.1155972 3.8114631 0.5377056
0 0 0
0 0 0
1.2530913 0.61281735 0.055074509
7.1326852 3.8161318 0.24206553
0 0 0
1.9328777 1.2221831 0.024946807
1.2451643 0.60872525 0.0039430079
1.2505156 0.66846186 -0.0096766939
1.2641716 0.73599255 -0.023541488
1.3014953 0.8222844 -0.039479561
1.2384874 0.60465783 -0.046683177
1.217894 0.65045017 -0.059775945
1.2353954 0.71822912 -0.075541228
1.2649976 0.79879278 -0.093339652
1.2732853 0.62060153 -0.099993661
1.2339516 0.65819603 -0.11203093
1.2107661 0.70365584 -0.12549867
1.2008961 0.75781709 -0.14103535
1.3944417 0.67917156 -0.16690898
2.0887966 1.1130043 -0.27720022
1.2988302 0.75438076 -0.19012155
1.2160021 0.76693428 -0.19634621
1.3778725 0.66970354 -0.22196616
2.1209309 1.1286064 -0.37102807
2.1541295 1.2500461 -0.40949649
2.133323 1.3450215 -0.43983042
1.4550244 0.70582181 -0.29572922
1.4983027 0.79638284 -0.32687539
1.6612766 0.96268642 -0.38868538
2.1432896 1.3503644 -0.5393756
1.4631948 0.70805097 -0.36048546
1.4533104 0.77162278 -0.38106248
2.1304085 1.2342438 -0.59505641
2.121742 1.3378233 -0.63325322
1.4340588 0.69228446 -0.41657397
1.4333172 0.75962919 -0.44082499
2.1295888 1.2330244 -0.69480342
2.1524212 1.3572725 -0.7469933
5.5469074 2.6696804 1.9018092
5.6129236 2.9711533 1.8862576
5.7239351 3.3139296 1.8944227
5.5837712 3.5172584 1.821568
6.3541274 3.0631073 1.8833598
6.5842357 3.4831026 1.9069768
6.6445155 3.8402534 1.8868713
5.6251922 3.5340314 1.5647565
0 0 0
7.1422095 3.7795506 1.7503364
5.9958773 3.462297 1.4306853
6.6847205 4.1930127 1.5514295
1.3143983 0.6340223 0.27495086
7.144289 3.7782574 1.4393034
6.9158449 3.9888625 1.3436112
0 0 0
8.329814 4.0171309 1.3916759
7.1346583 3.7685442 1.1334193
0 0 0
0 0 0
8.3539667 4.0269818 1.0485948
7.127892 3.764811 0.83317143
0 0 0
5.579968 3.4863617 0.55574024
1.2593637 0.60682523 0.10663296
7.1812067 3.790086 0.540896
0 0 0
0 0 0
1.2577282 0.60555047 0.055113964
7.1718817 3.7806845 0.24260391
0 0 0
1.9174329 1.1960114 0.024652287
1.263293 0.60801244 0.0039885258
1.2581327 0.66264021 -0.009703991
1.269531 0.72871965 -0.023557579
1.3031226 0.81216806 -0.039377015
1.2403725 0.59618127 -0.04661547
1.2271668 0.64575648 -0.060035463
1.2328482 0.70666254 -0.075118914
1.2495435 0.77835113 -0.091845222
1.2743711 0.6114825 -0.099782407
1.2688498 0.66684276 -0.11482571
1.2150609 0.69621342 -0.12549867
1.219885 0.75937426 -0.14271553
1.37348 0.65856618 -0.16391318
2.1166918 1.1112468 -0.27999198
1.3060173 0.74787611 -0.19049826
1.2450819 0.77463722 -0.20027041
1.3855267 0.66294509 -0.22253971
2.1103101 1.1063935 -0.36797556
2.148912 1.2294548 -0.40706286
2.1381898 1.3298253 -0.43914318
1.4566648 0.69560897 -0.29518956
1.5005513 0.78580785 -0.32630789
1.6143889 0.92233014 -0.37638393
2.1407359 1.3304763 -0.5366683
1.4604608 0.69570082 -0.35875338
1.4459321 0.75636899 -0.37790385
1.6129515 0.92128497 -0.44893515
2.1299107 1.3247794 -0.63325322
1.4339105 0.68139607 -0.41530856
1.4088671 0.73563409 -0.43190882
1.5411963 0.87976485 -0.50106275
2.1313779 1.3257951 -0.73685312
5.5640473 2.636004 1.9021044
5.6573973 2.9503982 1.8950839
5.7491708 3.2816052 1.8960748
5.6781178 3.5282099 1.8452489
0 0 0
6.6338339 3.4574122 1.9151614
6.8788853 3.9196002 1.9465599
5.7253709 3.5481598 1.5865371
1.1946392 0.56691313 0.30030438
7.2137966 3.7609575 1.7621915
6.0093489 3.4210813 1.4288641
5.9676976 3.6924284 1.3797344
1.3138252 0.62383777 0.27402511
7.2109933 3.7570953 1.44807
6.9024711 3.9249048 1.336309
0 0 0
8.5704899 4.0685711 1.4276881
7.2129898 3.753495 1.1421827
6.5398335 3.7141707 0.98374087
0 0 0
8.5894861 4.0757518 1.074998
7.2170377 3.7554412 0.84088224
6.5352912 3.7081223 0.70498991
0 0 0
1.2468472 0.59139496 0.10526392
7.2300005 3.7593005 0.54282349
0 0 0
0 0 0
1.2623231 0.59824973 0.055153415
7.237524 3.7587204 0.24403964
0 0 0
0 0 0
1.2733258 0.60324651 0.0040084398
1.255074 0.65122354 -0.0096493969
1.2409108 0.70220393 -0.022946112
1.2850878 0.79002142 -0.038684841
1.2494278 0.59112382 -0.046818588
1.2195755 0.63223714 -0.059473176
1.231075 0.69564563 -0.074749388
1.2508944 0.76857954 -0.091596149
1.2735893 0.60152155 -0.099430315
1.2676064 0.65629482 -0.1143466
1.227982 0.69364345 -0.12639125
1.2236733 0.75135422 -0.14261669
1.3783942 0.65055066 -0.16402018
2.009666 1.0393795 -0.26498619
1.3097175 0.73936069 -0.19037269
1.2911905 0.79237634 -0.206901
1.3797196 0.64979285 -0.22096245
2.0951071 1.0820862 -0.36415997
2.161572 1.2191547 -0.40803632
2.1429501 1.3146199 -0.43845594
1.3861244 0.65150911 -0.28007931
1.4800376 0.76353019 -0.32082215
1.6157478 0.91000223 -0.37539187
2.1405206 1.3122041 -0.53458577
1.4514428 0.68050987 -0.35550576
1.4583399 0.75149906 -0.3799344
1.5338763 0.86367995 -0.42544299
2.1363463 1.3106714 -0.63276362
1.4424461 0.67463422 -0.41657397
1.4348078 0.73801041 -0.43846479
1.5398558 0.86651599 -0.49888897
2.1517403 1.320219 -0.74107814
5.563664 2.5941427 1.8964961
5.6770997 2.9165058 1.8956534
5.7742252 3.2490957 1.8977269
5.7202063 3.5058963 1.8519009
0 0 0
6.6635408 3.4210672 1.9176414
6.7250071 3.7774487 1.8964214
5.8466935 3.5738811 1.6140492
0 0 0
7.2471704 3.7219818 1.764732
5.9883804 3.3606598 1.4189485
5.8604193 3.5765133 1.3498324
1.2918099 0.60369891 0.26865572
7.2155161 3.7033379 1.4443879
6.9290047 3.8839247 1.3368068
5.9035745 3.5997398 1.0971286
0 0 0
7.2244287 3.7032936 1.1403743
6.5962429 3.6928637 0.98879898
5.9142809 3.5990503 0.83952606
8.7682877 4.0948696 1.0942104
7.2399449 3.7110877 0.84088224
6.6995587 3.7471731 0.72021627
5.9007654 3.5868754 0.58326215
1.2775575 0.59638649 0.10754565
7.2484903 3.7125928 0.54249114
0 0 0
5.9128723 3.5915501 0.32891569
1.2605368 0.58795869 0.054916706
1.2511574 0.64005673 0.042054139
6.575871 3.6715162 0.15486741
5.94806 3.6095135 0.075898506
1.2697527 0.59204149 0.0039856811
1.2456901 0.63668382 -0.0095470343
1.2565476 0.70090866 -0.023155296
1.2753794 0.77331024 -0.038249031
1.2611855 0.5872432 -0.047123265
1.2189831 0.62247026 -0.059256908
1.2327031 0.68662107 -0.074591026
1.2393692 0.75106174 -0.090413056
1.2790653 0.59453654 -0.099571154
1.2778255 0.65167463 -0.11490556
1.2652831 0.70450789 -0.12978312
1.2478378 0.75568771 -0.14488986
1.3688339 0.63579816 -0.16241528
1.6248403 0.82775462 -0.21357097
1.6757294 0.93246919 -0.24273774
1.2875518 0.77930844 -0.20554782
1.3809869 0.64006627 -0.22053227
1.5000869 0.76314557 -0.25991803
2.1543508 1.1977175 -0.40527821
2.140862 1.2953267 -0.43639424
1.3767037 0.63679719 -0.27738106
1.4768158 0.750431 -0.31911966
1.6153027 0.89674103 -0.37400302
2.1368141 1.2919607 -0.53167027
1.4484992 0.66831911 -0.35377371
1.4533677 0.7376864 -0.37745264
1.5314978 0.85000664 -0.4233287
2.1410301 1.2955306 -0.6317845
1.4500738 0.6673888 -0.41758633
1.4272575 0.72308707 -0.43479347
1.5485101 0.85891849 -0.49997586
2.1524124 1.3025206 -0.73854315
5.600318 2.5695183 1.9035803
5.6948881 2.8816168 1.8956534
5.8226361 3.2294581 1.9070889
5.8645267 3.5450332 1.8915465
0 0 0
6.6723037 3.373996 1.9141693
6.715775 3.7182395 1.8873488
5.9026895 3.5585437 1.6234492
0 0 0
7.6727843 3.8812561 1.8625374
7.0260801 3.8865182 1.6591498
5.9099965 3.5571852 1.3561985
1.3222746 0.60807878 0.27421027
7.6993818 3.8921793 1.5364375
6.9708319 3.8513508 1.340292
5.9517889 3.579227 1.1019868
1.3638538 0.62705576 0.22589436
7.637743 3.8561671 1.2018583
0 0 0
5.9311457 3.559628 0.83880377
9.0045252 4.1380849 1.1205012
7.608881 3.8414285 0.88097805
6.7320156 3.711282 0.7212438
5.9209538 3.5495768 0.58309388
1.2603531 0.57896322 0.10579632
7.5490789 3.8082614 0.56322831
0 0 0
5.933085 3.5541751 0.32882074
1.2468661 0.57229352 0.054167122
1.2363157 0.62292272 0.041426022
1.1772312 0.64784229 0.027630666
5.9666638 3.570895 0.075854875
1.2660904 0.58090311 0.0039629219
1.2540392 0.63127655 -0.0095811551
1.2406725 0.68210602 -0.022785198
1.2775264 0.76393092 -0.038172122
1.2665823 0.5803262 -0.047190968
1.2245646 0.61587673 -0.059343413
1.2360176 0.67856383 -0.074538231
1.2259632 0.73269075 -0.089105435
1.2736179 0.58252811 -0.098866969
1.2898169 0.64784849 -0.11562422
1.3097477 0.71877337 -0.13388905
1.2524512 0.74801689 -0.14488986
1.3329207 0.60920203 -0.15770759
1.3884238 0.69661826 -0.18193083
2.1163442 1.1607028 -0.30552557
1.3033693 0.77799529 -0.20730695
1.390291 0.63404453 -0.2213926
1.4658636 0.73444784 -0.25320259
2.1530056 1.1797345 -0.4036558
2.1377718 1.275604 -0.43416074
1.3761085 0.62630051 -0.27648163
1.469977 0.73564243 -0.31666052
1.5966994 0.87364 -0.36844754
2.1363006 1.273816 -0.52958775
1.4339043 0.65094393 -0.34922704
1.4569952 0.72831917 -0.37722701
1.5153655 0.82893163 -0.41745564
2.1456087 1.2803817 -0.63080537
1.4418033 0.65289164 -0.41404316
1.4506642 0.72379422 -0.44056273
1.5115297 0.82631934 -0.48638958
2.1430612 1.278963 -0.73262799
5.615108 2.534714 1.9032851
5.6987343 2.8397787 1.8910978
5.8195667 3.1812203 1.8996544
5.91432 3.5257647 1.900593
0 0 0
6.6746697 3.3239231 1.9089611
6.8066583 3.714174 1.9064492
6.784503 4.0336103 1.8591371
0 0 0
7.8714137 3.921262 1.9048774
7.0265794 3.8306773 1.6536859
5.9477439 3.530371 1.359864
0 0 0
7.859725 3.9128711 1.563614
7.0099216 3.8169947 1.3432794
0 0 0
1.2847862 0.58117998 0.2122038
7.9263892 3.9410541 1.2434504
6.9807811 3.7963901 1.0393802
6.1442423 3.6364272 0.86576879
1.2675869 0.57313335 0.15729485
7.9289079 3.9421339 0.91521376
7.0144897 3.811074 0.74898756
0 0 0
1.2847799 0.58066398 0.10754565
7.8591475 3.9043713 0.58456373
7.0312133 3.8179352 0.45782709
0 0 0
1.2658356 0.57162321 0.054837801
1.248173 0.61932361 0.041695215
7.0106435 3.8021724 0.1639954
5.9634886 3.5194783 0.075538538
1.2732767 0.57476938 0.0039743017
1.2516176 0.62046111 -0.0095333857
1.2474718 0.67590952 -0.022833472
1.2468843 0.735259 -0.037121043
1.2819639 0.57788306 -0.047631059
1.2256347 0.60702115 -0.059213653
1.2322532 0.66669035 -0.074063137
1.2355949 0.72819501 -0.089479037
1.2853552 0.57838637 -0.099500738
1.2901938 0.63815439 -0.11530482
1.3202659 0.7140401 -0.13451385
1.2527301 0.73779297 -0.14439569
1.3384472 0.60182738 -0.15792157
1.3793151 0.68148655 -0.18018596
2.1042254 1.1373174 -0.3027629
1.3029952 0.76696771 -0.20649505
1.3959612 0.6263122 -0.22167939
1.4020987 0.69176942 -0.24145058
2.1211326 1.1454034 -0.39635494
2.1464076 1.2629623 -0.43433252
1.3790277 0.61744308 -0.27630174
1.4357079 0.70751053 -0.30833733
1.5002315 0.80893594 -0.34503514
2.1398606 1.2582052 -0.52854645
1.4200429 0.63417143 -0.34489688
1.4596885 0.71850502 -0.3767758
1.43914 0.77580041 -0.39513811
2.1442327 1.2617834 -0.62811279
1.4510847 0.64639461 -0.41556165
1.4481491 0.71147525 -0.43846479
1.4115129 0.76043057 -0.45269555
2.1533492 1.2672492 -0.733473
5.6052313 2.4889677 1.894725
5.7220759 2.8077142 1.8930908
5.8279738 3.1395252 1.8960748
5.9258704 3.4835467 1.8974003
0 0 0
6.6392713 3.2556083 1.8930881
6.8489909 3.6829171 1.9119405
6.8116446 3.9933822 1.8598249
0 0 0
7.9427085 3.8961327 1.9163091
7.0646176 3.7953701 1.6571262
5.9870768 3.5042186 1.3639152
1.3027033 0.57981867 0.26865572
0 0 0
7.0697055 3.7934937 1.3502496
0 0 0
1.3217559 0.58816063 0.21770978
8.1034002 3.9672391 1.2673763
7.0423989 3.7740936 1.0450869
6.2290297 3.6351855 0.87455648
1.2565532 0.55888367 0.15549719
8.1262646 3.9782574 0.93515891
7.1062059 3.8046174 0.75627381
0 0 0
1.2637185 0.5618329 0.10549209
1.2512344 0.61206144 0.092785791
7.1222887 3.8109891 0.46222603
0 0 0
1.2647533 0.56181723 0.054640543
1.2438668 0.60770434 0.041426022
7.0920377 3.7901864 0.16535226
1.3370037 0.77803952 0.016874818
1.2712958 0.56451088 0.003957232
1.2500092 0.61013782 -0.0094924411
1.2454215 0.66494602 -0.022720834
1.2608786 0.73312175 -0.03740304
1.2955357 0.57446253 -0.048003443
1.2302341 0.59992731 -0.059256908
1.2310336 0.65629804 -0.073746398
1.2270957 0.71307796 -0.088545024
1.2989136 0.57492983 -0.10027533
1.3021507 0.6341539 -0.11602347
1.3096797 0.69796234 -0.13299645
1.2796073 0.74308521 -0.14696537
1.3202916 0.58395141 -0.15535374
1.3843639 0.67344493 -0.18030228
2.1216722 1.129981 -0.30426982
1.3128183 0.76194239 -0.20730695
1.3970616 0.61653626 -0.22124922
1.3876491 0.6740849 -0.23824549
1.5226995 0.81022394 -0.28359741
2.1549687 1.2502629 -0.43450433
1.374688 0.60540175 -0.27468279
1.4629918 0.70983261 -0.31325561
1.4852595 0.78913844 -0.34047171
1.8412325 1.0674673 -0.4531588
1.4149688 0.62152004 -0.3427318
1.4561796 0.70571125 -0.37474528
1.4627585 0.77698696 -0.4003064
2.1334846 1.2378978 -0.62272757
1.4452761 0.63320816 -0.41277772
1.4715991 0.71182066 -0.4442341
1.4187022 0.75310904 -0.4535107
1.8042233 1.0469369 -0.61235422
5.6212735 2.4549103 1.8950201
5.7435117 2.7746363 1.8945144
5.8513737 3.1059599 1.8974516
5.9379597 3.4418032 1.8944733
0 0 0
0 0 0
6.8869047 3.6490066 1.916238
6.894166 3.9851229 1.8756444
0 0 0
1.3922832 0.67238909 0.33490953
7.1388383 3.7789829 1.6690654
6.0084658 3.4674165 1.3639152
1.2423199 0.54383463 0.25550991
1.2900766 0.62261301 0.25510859
7.1373096 3.77355 1.3587135
6.9082098 3.9831133 1.2652788
1.3135631 0.57488525 0.21577524
8.3274126 4.0137558 1.2985356
7.1601205 3.7808146 1.059094
6.3923321 3.6780927 0.89429867
1.2708832 0.55594194 0.15684544
8.3386936 4.0190139 0.95674896
7.1690445 3.7818475 0.76047742
0 0 0
1.2835866 0.56125879 0.10686113
1.2504716 0.60220784 0.092453465
7.1985269 3.7951519 0.46565369
0 0 0
1.2617671 0.55124599 0.054364379
1.2511753 0.60179365 0.041545659
7.1691232 3.7750142 0.16660634
1.2784377 0.73349482 0.016078528
1.2747356 0.55669969 0.003957232
1.2573347 0.60418886 -0.0095197381
1.2423989 0.65356767 -0.022592103
1.2610168 0.72288549 -0.03727486
1.2944556 0.56450492 -0.047834177
1.2347927 0.59279978 -0.059300158
1.2332692 0.64780349 -0.073640823
1.2297159 0.70454288 -0.088420488
1.2987585 0.56535649 -0.099993661
1.3087139 0.62744492 -0.11626303
1.3298106 0.69824761 -0.13460311
1.2841427 0.73521972 -0.14696537
1.3211148 0.57464951 -0.15503277
1.3786162 0.66021901 -0.17902271
2.1303227 1.1178634 -0.30452096
2.1404567 1.2247971 -0.33680615
1.3980948 0.6067704 -0.22081906
1.3953253 0.66726321 -0.23885597
1.5189029 0.79628396 -0.281975
2.158324 1.2345711 -0.43364531
1.3783768 0.59695542 -0.27468279
1.4177002 0.6771425 -0.3026624
1.4944153 0.78228295 -0.34146374
1.5879081 0.90762866 -0.38943335
1.408897 0.60856783 -0.34035021
1.4596031 0.69634348 -0.37451965
1.4278829 0.74726468 -0.38949999
1.6697419 0.95517719 -0.48564917
1.4438033 0.62203145 -0.41125926
1.4593848 0.69489527 -0.43925151
1.4539968 0.76044619 -0.46329284
1.5291104 0.87479967 -0.51714921
5.6467657 2.4248965 1.8985623
5.7604284 2.7393427 1.8945144
5.872025 3.070889 1.8980023
5.976542 3.4153476 1.900061
0 0 0
0 0 0
6.9134693 3.6089275 1.9174317
6.9709201 3.972626 1.889859
0 0 0
1.2966411 0.61641693 0.31098744
7.1983609 3.7541285 1.6775645
6.0202475 3.4251468 1.3617932
1.2456335 0.53620166 0.25550991
1.3143256 0.62440223 0.25914124
7.226799 3.7643082 1.3713266
6.9256501 3.9367454 1.2640251
1.3352323 0.5746327 0.21875145
8.5451355 4.0542736 1.328582
7.2544355 3.773876 1.0695994
6.5201249 3.6985576 0.90898502
1.2633169 0.54342175 0.15549719
8.5716915 4.06669 0.98060083
7.2398205 3.7625809 0.76552171
0 0 0
1.2915863 0.5553416 0.10724142
1.2640609 0.59922528 0.093184583
7.2482581 3.7647169 0.46736759
0 0 0
1.2651259 0.54349357 0.054364379
1.2530375 0.59324986 0.041485842
7.2036891 3.7369392 0.1668736
1.2463591 0.70496041 0.015620387
1.2689389 0.54492176 0.0039287833
1.2601142 0.59603506 -0.0095129134
1.2446103 0.64501208 -0.022559922
1.2515037 0.70726496 -0.036864683
1.2997321 0.55733943 -0.047901884
1.2564726 0.59374911 -0.060165223
1.2407684 0.6420598 -0.073851973
1.2288016 0.69403923 -0.088046879
1.3260461 0.56758231 -0.10182453
1.2945098 0.61089474 -0.11466601
1.3181461 0.68183798 -0.13299645
1.2756308 0.71998966 -0.14548287
1.3209591 0.56496853 -0.15460479
1.3808446 0.6509006 -0.17879006
2.1265659 1.099304 -0.30301404
2.1349871 1.2043386 -0.3347764
1.399971 0.59740359 -0.22053227
1.3850864 0.65195489 -0.236414
1.4948281 0.77200711 -0.27662104
2.1504126 1.2125947 -0.43055272
1.3738683 0.58501816 -0.27306384
1.4244943 0.66968417 -0.3032299
1.4791516 0.76276672 -0.33690032
1.5917431 0.89690799 -0.38901684
1.4090103 0.5983851 -0.33948421
1.4629663 0.68696034 -0.37429401
1.4402168 0.74249798 -0.39161429
1.5463563 0.87204498 -0.44819739
1.4484836 0.61353809 -0.41151232
1.4391546 0.67446136 -0.43190882
1.4791675 0.76208878 -0.4698143
1.5294347 0.86257261 -0.51545918
5.6729813 2.3950341 1.9023995
5.7745237 2.7027266 1.8936603
5.8881936 3.0334804 1.8971763
5.9864674 3.3724613 1.8966019
0 0 0
0 0 0
6.9328933 3.5651073 1.9167156
7.0028024 3.9340696 1.8919226
0 0 0
1.2818092 0.59975123 0.30654174
7.2317133 3.7152596 1.6799928
5.9752531 3.3511846 1.3469386
1.28872 0.54540074 0.26365659
1.3181322 0.61632591 0.25914124
7.2699399 3.7302487 1.3751435
6.9479523 3.8932109 1.2637117
1.338733 0.56642902 0.21875145
8.8201904 4.1186638 1.3673921
7.2174497 3.6985431 1.06078
6.6319418 3.708385 0.92138404
1.2885922 0.54494888 0.15819368
8.7262688 4.0746202 0.99540544
7.2246623 3.6985779 0.76150489
0 0 0
1.2949696 0.54740614 0.10724142
1.2731392 0.59398907 0.093583383
7.2596669 3.7142599 0.46662489
0 0 0
1.2721188 0.53727573 0.054522187
1.2539358 0.58428365 0.041396108
1.2508572 0.63917685 0.028884737
0 0 0
1.2823925 0.54140377 0.0039600772
1.2664675 0.58955801 -0.0095333857
1.2503256 0.63827235 -0.022592103
1.2401003 0.69081575 -0.036403231
1.3068111 0.55090684 -0.048037291
1.2664334 0.58897746 -0.060467999
1.2393464 0.63171357 -0.073535234
1.2373971 0.68891382 -0.088358216
1.3304231 0.55982202 -0.10189494
1.3027542 0.60503966 -0.11506527
1.3240799 0.67464149 -0.13317497
1.2843724 0.71456796 -0.14597704
1.3234844 0.55646729 -0.1544978
1.3875154 0.64366955 -0.17913905
1.9997759 1.0182608 -0.28405213
2.1483982 1.1945863 -0.33572361
1.3789694 0.57846564 -0.21666077
1.3827834 0.64053613 -0.23534563
1.4810675 0.75342506 -0.27321398
1.5826255 0.87967098 -0.31578448
1.3774321 0.57657725 -0.27306384
1.4196646 0.65680796 -0.30133826
1.4811823 0.75234491 -0.33630508
1.5818259 0.8785761 -0.3852683
1.4018443 0.58521509 -0.33688611
1.4556572 0.67265821 -0.37136105
1.4386789 0.73056632 -0.38996983
1.5559152 0.8648957 -0.44942129
1.4495416 0.60352319 -0.41075307
1.4485238 0.66804302 -0.43348226
1.4709429 0.7464658 -0.46573839
1.5305054 0.85084087 -0.51405078
5.6999245 2.3653069 1.9065319
5.7840328 2.6640356 1.8913825
5.9006948 2.9942489 1.8952488
5.9851365 3.3234982 1.889684
0 0 0
0 0 0
6.9347124 3.5124087 1.9112241
7.0123334 3.8830111 1.8880249
0 0 0
0 0 0
7.6851621 3.8888018 1.7797563
7.0012846 3.8703492 1.5728432
1.304745 0.54276729 0.26624873
1.2351345 0.56830895 0.24213399
7.6641026 3.8732743 1.4451786
6.9656577 3.8471634 1.2626147
1.3275746 0.55212837 0.21637049
1.3587383 0.62434834 0.21004701
7.6215262 3.8467486 1.1166788
0 0 0
1.2937467 0.53779483 0.15841839
1.2427981 0.57104683 0.14136362
7.6241608 3.8442388 0.80111212
0 0 0
1.2909377 0.53638929 0.10663296
1.2695055 0.58283556 0.093051657
7.3384891 3.6979494 0.47022396
0 0 0
1.2717 0.52792758 0.054364379
1.2556802 0.57574546 0.041336287
1.2529695 0.6305908 0.028843621
1.2706902 0.69828093 0.015816733
1.279225 0.53084207 0.0039401632
1.2727884 0.58302534 -0.009553859
1.2408187 0.62385142 -0.022350734
1.2522022 0.68752372 -0.036633957
1.2990872 0.5382871 -0.047631059
1.2709318 0.58161139 -0.06051125
1.2324897 0.61872089 -0.07290177
1.234601 0.67746729 -0.08786007
1.3264588 0.54859829 -0.1013316
1.3010023 0.59454876 -0.11458616
1.3290846 0.66695106 -0.13326423
1.3262517 0.72724718 -0.15022688
1.3287116 0.54909557 -0.15471178
1.3751751 0.62772006 -0.17704521
1.3781178 0.69110495 -0.19514456
2.1365724 1.1709057 -0.3327466
1.3431499 0.55377275 -0.21049504
1.3821913 0.6299901 -0.23458251
1.5006604 0.75183719 -0.27597207
1.5802175 0.86568379 -0.31423822
1.3718468 0.56437206 -0.271265
1.3727269 0.62489522 -0.29055589
1.4831411 0.74192685 -0.33570987
1.528847 0.8369174 -0.37110707
1.3909572 0.57067341 -0.33342198
1.4411334 0.65524602 -0.36662316
1.4457425 0.72302932 -0.39067462
1.5110238 0.82784629 -0.43497911
1.4433682 0.59058762 -0.40796918
1.454353 0.65993994 -0.43400675
1.4823822 0.74086809 -0.46791223
1.50877 0.82668 -0.50503731
5.7214088 2.3331747 1.9088935
5.8194795 2.6372004 1.8976464
5.9241157 2.9605651 1.8969009
6.0087991 3.288563 1.8907483
0 0 0
0 0 0
6.95961 3.4715261 1.9121794
7.0095406 3.8254559 1.8809177
0 0 0
0 0 0
7.8333426 3.9035976 1.8084915
7.001636 3.8146422 1.5676345
1.3335205 0.54516369 0.271433
1.2394953 0.5611257 0.24230933
7.9137306 3.9386585 1.4876645
7.0116863 3.816627 1.2666892
1.3043919 0.53312266 0.21205498
1.3887117 0.62782991 0.214081
7.9211287 3.9371672 1.1570141
7.012804 3.8091476 0.96773016
1.2813843 0.52345812 0.15650837
1.249904 0.56504941 0.14177486
7.9686337 3.9567909 0.83474094
7.0330954 3.8157194 0.67584348
1.2969739 0.529589 0.10686113
1.2721485 0.5746243 0.092985183
1.2556071 0.62308395 0.080208294
7.0286117 3.8102705 0.38010994
1.2721399 0.51898235 0.054246027
1.2537224 0.5655638 0.041156825
1.243378 0.61623126 0.028535239
7.0614696 3.8242567 0.087602884
1.2880138 0.52524847 0.003957232
1.2690485 0.57191777 -0.0094992649
1.2356627 0.6117897 -0.022189822
1.2414505 0.67173988 -0.036198143
1.2995887 0.52917522 -0.0475295
1.2808535 0.57667321 -0.060814019
1.2389485 0.6124745 -0.07306014
1.2396126 0.67035389 -0.087922342
1.3297999 0.54044896 -0.1013316
1.3264455 0.59636474 -0.11650258
1.3242226 0.65437096 -0.13237163
1.3438209 0.72619212 -0.15170938
1.3338982 0.54168057 -0.15492578
1.3590679 0.61031896 -0.17448609
1.3672104 0.67516828 -0.19300978
2.1402295 1.1558906 -0.33220536
1.3382673 0.54217643 -0.20920454
1.3860308 0.62149727 -0.23458251
1.4556899 0.71816689 -0.26688659
1.5646946 0.8447395 -0.3101148
1.3780198 0.55704993 -0.27180466
1.3720545 0.61445385 -0.28961009
1.4744771 0.72631598 -0.33273372
1.4969388 0.80755258 -0.36215219
1.3790395 0.55592263 -0.32974136
1.4246727 0.63724214 -0.36143404
1.4475356 0.71285647 -0.38996983
1.43929 0.77710158 -0.41294864
1.4433743 0.58027661 -0.40695682
1.4460382 0.64549679 -0.43033537
1.5110774 0.74365693 -0.47552055
1.4260077 0.7699945 -0.47574347
5.7063494 2.2862985 1.8991528
5.8267961 2.5975399 1.8947991
5.9706345 2.9381671 1.9059876
6.0407419 3.258038 1.8944733
0 0 0
0 0 0
6.9398136 3.4086359 1.9009578
6.9968767 3.7630107 1.8712884
1.3276076 0.53291273 0.32488683
0 0 0
1.2844682 0.63028163 0.29564798
7.032691 3.7757864 1.5693706
1.3368404 0.53697115 0.271433
1.2537072 0.55831587 0.24441332
1.2636286 0.61926234 0.23682475
7.0567322 3.7852039 1.270607
1.3278265 0.53321594 0.21532881
1.3400575 0.59595782 0.20601298
8.1179161 3.9730508 1.182175
7.0920601 3.7960284 0.97543442
1.2882608 0.51706642 0.15695779
1.2697076 0.56464481 0.14362544
8.1099339 3.9651096 0.84697801
7.0976772 3.794574 0.67979926
1.3039006 0.52310592 0.10716536
1.2747387 0.56640261 0.092918724
1.2620977 0.61668283 0.08037968
7.1258659 3.8066063 0.38409907
1.2855028 0.51525617 0.054679994
1.2553418 0.55704957 0.041097004
1.2444403 0.60727507 0.028473567
7.1624341 3.8222854 0.088562801
1.2884276 0.51621974 0.0039486974
1.2734479 0.56452554 -0.0095060887
1.2483809 0.60857767 -0.022350734
1.246431 0.66458023 -0.03622378
1.3074508 0.52304721 -0.047698762
1.2916757 0.5720396 -0.061160047
1.2489685 0.60792017 -0.073429659
1.2489874 0.66555136 -0.088295951
1.3312383 0.5315395 -0.10119077
1.3136703 0.58095771 -0.11506527
1.3076135 0.63621086 -0.13031867
1.3640616 0.72635168 -0.15348838
1.3390437 0.5342226 -0.15513976
1.3255377 0.58551461 -0.16971681
1.3659741 0.66416365 -0.19225632
2.1411591 1.1394783 -0.33125812
1.3452469 0.53541863 -0.2097781
1.3925309 0.61417747 -0.2350404
1.4290038 0.69413167 -0.26120815
1.5333201 0.81569058 -0.30289885
1.3740979 0.54567957 -0.27036557
1.3749003 0.60562772 -0.28942093
1.4700872 0.71297807 -0.3307496
1.4811383 0.7873342 -0.3571541
1.3797015 0.54637218 -0.32909185
1.41518 0.62260377 -0.35804981
1.4501332 0.70311302 -0.38949999
1.4200639 0.75550449 -0.40609473
1.4316107 0.56536835 -0.40265444
1.4420195 0.63312048 -0.42797524
1.5052191 0.72933543 -0.47225982
1.4069874 0.74861062 -0.46785668
5.7202702 2.2512419 1.8991528
5.8338451 2.5578892 1.891952
5.994606 2.9044108 1.907915
6.0716848 3.2267921 1.8979324
0 0 0
0 0 0
0 0 0
6.9811316 3.6994979 1.8609713
1.3825624 0.54514599 0.33751023
0 0 0
1.2997748 0.62792641 0.29827866
7.1572046 3.7862465 1.5919418
1.3263981 0.52334809 0.26865572
1.2733418 0.55772251 0.24756931
1.3153652 0.6346373 0.24578658
7.1610308 3.7847524 1.285181
1.3218745 0.5214299 0.21384071
1.3300798 0.58177155 0.20392643
8.3761778 4.0359321 1.2161553
7.1608796 3.7765217 0.98169416
1.326537 0.52300155 0.16122723
1.2603893 0.55126303 0.14218609
8.3592863 4.0236592 0.87042481
7.2151589 3.8006423 0.68880481
1.3080136 0.51546109 0.10724142
1.2736185 0.5565725 0.092586391
1.2613595 0.60676324 0.080094039
7.2304087 3.8056128 0.38846815
1.2979376 0.51101935 0.055074509
1.2550718 0.54773724 0.040977363
1.2544513 0.60265851 0.028617475
7.199913 3.7857113 0.088737324
1.295293 0.50976926 0.0039600772
1.2658881 0.55190545 -0.0094241994
1.2475843 0.5987432 -0.022270279
1.2478304 0.65552503 -0.036146872
1.3134261 0.51611155 -0.047800321
1.2979093 0.56530011 -0.061289806
1.2535757 0.60067672 -0.073482454
1.2406762 0.65137988 -0.087424196
1.3307601 0.52190435 -0.1009091
1.3217807 0.57487404 -0.11546452
1.3249668 0.63462937 -0.13165756
1.3667303 0.71704364 -0.1532907
1.3459994 0.52744734 -0.15556774
1.3418589 0.58291042 -0.17134532
1.3825517 0.66176629 -0.19401439
2.133193 1.1184974 -0.32895774
1.3208547 0.51634455 -0.20547643
1.3835797 0.60011584 -0.23290364
1.3985178 0.66874874 -0.25488073
1.5095023 0.79117519 -0.29722914
1.3847519 0.54009759 -0.27180466
1.3740853 0.59522849 -0.28847513
1.4328636 0.68409711 -0.32142434
1.4824758 0.77641624 -0.3563211
1.3621006 0.52975696 -0.32411215
1.4019852 0.6065588 -0.35376313
1.4535428 0.69378322 -0.38926506
1.4195203 0.74407613 -0.40462604
1.4332489 0.55587387 -0.40214828
1.4423331 0.62273037 -0.42692626
1.5253011 0.72754359 -0.47715089
1.4582945 0.76446545 -0.48334858
5.7313023 2.2150671 1.8982671
5.8423877 2.5190086 1.8896742
6.0062408 2.864677 1.9059876
6.085392 3.1863463 1.8960699
0 0 0
0 0 0
0 0 0
6.9873056 3.6480336 1.8566152
0 0 0
1.2978083 0.55937606 0.30611834
1.3195224 0.62750983 0.30192116
7.1985741 3.7517829 1.5959932
1.3250028 0.51342428 0.26772994
1.2830694 0.55262506 0.24879663
1.2960744 0.61555481 0.24147162
7.2498193 3.7749517 1.2969342
1.3324258 0.51616693 0.21503119
1.3381729 0.57555568 0.20462194
8.6077356 4.0826173 1.246115
7.2464623 3.7650089 0.99024111
1.3111883 0.5076766 0.15898015
1.2619206 0.54273307 0.14198047
8.5520687 4.0520101 0.88789302
7.2268462 3.7503328 0.6877107
1.309292 0.50670582 0.10708931
1.2834268 0.55150479 0.093051657
1.260547 0.59687597 0.079808399
7.2695847 3.7694523 0.38932297
1.2954569 0.5008837 0.054837801
1.2556533 0.53884345 0.040887631
1.2581255 0.59494996 0.028617475
7.1484232 3.7028289 0.087821051
1.311455 0.50685883 0.0039999052
1.2830368 0.55003786 -0.0095265619
1.2530428 0.59193105 -0.022302462
1.2482778 0.64601821 -0.036044326
1.3035145 0.50300562 -0.047326382
1.2930881 0.55378586 -0.060900532
1.2572378 0.59297365 -0.073482454
1.2419901 0.64237946 -0.087237395
1.3469695 0.5187481 -0.10189494
1.3316987 0.56949651 -0.11602347
1.3333404 0.62861127 -0.13210386
1.3834804 0.71504056 -0.15467438
1.3529221 0.52060676 -0.1559957
1.3280561 0.56725347 -0.16913518
1.3820988 0.65115649 -0.19338651
2.1276915 1.0990213 -0.32706326
1.3175305 0.50574762 -0.20447271
1.3808725 0.58890122 -0.23183529
1.3909885 0.65469217 -0.25277162
1.5108271 0.78009027 -0.2965419
1.3871213 0.53123891 -0.27162477
1.3722911 0.58447742 -0.28734013
1.421067 0.6677891 -0.31785297
1.4776505 0.76237231 -0.35403031
1.3726219 0.52417564 -0.32584423
1.4011981 0.59603822 -0.35263506
1.4577725 0.68485141 -0.38926506
1.4318126 0.7393558 -0.40682909
1.4257833 0.5429377 -0.39911127
1.4381325 0.61047506 -0.42456609
1.5454172 0.72553247 -0.48204195
1.4731882 0.76078635 -0.48672864
5.7581849 2.1849432 1.9026947
5.8418479 2.4763789 1.8845494
5.9888959 2.8114288 1.8949735
6.1125388 3.1529241 1.8984644
0 0 0
0 0 0
0 0 0
7.1896014 3.69769 1.9043031
0 0 0
0 0 0
1.3064955 0.61151373 0.2980763
7.2144756 3.7039573 1.5944498
1.3272097 0.50493515 0.26754478
1.3018479 0.5512681 0.25177729
1.2882134 0.602162 0.23931414
7.2262702 3.7065072 1.2886287
1.3263252 0.50446612 0.21354309
1.3188771 0.55769205 0.20114435
8.782671 4.0997663 1.2677741
7.2402654 3.7055492 0.98626864
1.3300686 0.50562423 0.16089016
1.2734725 0.53846633 0.14290577
1.262378 0.58866322 0.13068515
7.205359 3.6832418 0.68350244
1.3142406 0.49937096 0.10724142
1.2886248 0.54439604 0.093184583
1.2669005 0.59039533 0.079979785
7.234756 3.6952434 0.38623613
1.3115844 0.4978902 0.055390123
1.2635407 0.5330714 0.041037183
1.2581266 0.58553159 0.028535239
1.2541027 0.63988662 0.015358594
1.3276297 0.5037691 0.0040397337
1.2762514 0.53788298 -0.0094514964
1.257558 0.58465296 -0.022318553
1.2388588 0.63153648 -0.035659786
1.3177915 0.49924681 -0.047732618
1.307511 0.55049324 -0.061419569
1.2653815 0.58735037 -0.073746398
1.2485762 0.63610584 -0.087424196
1.3482611 0.50976795 -0.10175411
1.3296546 0.55899674 -0.11554436
1.3136816 0.609519 -0.12978312
1.3834077 0.70428091 -0.15418021
1.3570211 0.51264697 -0.1561027
1.3324274 0.55947846 -0.1692515
1.3806679 0.64015996 -0.19263305
2.1070197 1.0720172 -0.32286841
1.3400568 0.50498253 -0.20748387
1.3762572 0.57697839 -0.23046169
1.3887118 0.64324188 -0.25163591
1.495389 0.76053387 -0.29259029
1.3921963 0.52341008 -0.27198455
1.3722286 0.57452929 -0.28658348
1.4215794 0.6574114 -0.31705931
1.4823005 0.75329125 -0.35403031
1.3611857 0.51026052 -0.3223801
1.4066266 0.58818108 -0.35308629
1.452242 0.67140681 -0.38668093
1.4224948 0.72352338 -0.40291256
1.4145886 0.52875936 -0.39506197
1.4436324 0.6023826 -0.42509058
1.5507135 0.71643996 -0.48231369
1.4821047 0.75390792 -0.48813701
5.7714829 2.1495707 1.9026947
5.8286171 2.4286885 1.8754383
6.0069065 2.7750318 1.8952488
6.149817 3.1245279 1.9040521
0 0 0
0 0 0
0 0 0
7.201735 3.6482272 1.9015518
1.2918639 0.48210084 0.31314924
1.1927027 0.49680853 0.2798675
1.2995492 0.59856933 0.29564798
7.6722541 3.8796847 1.6903288
1.3035852 0.48681197 0.26217538
1.2624867 0.52548856 0.24353667
1.2793415 0.58847696 0.23699072
7.7055125 3.8927879 1.3698045
1.3368068 0.4990854 0.21473357
1.3131299 0.54578829 0.19975331
9.0716658 4.1670704 1.3057749
7.698123 3.8804576 1.0453749
1.3405938 0.50023264 0.16178899
1.2712413 0.52835172 0.14228891
1.2505828 0.57384747 0.12909713
7.7075429 3.8804834 0.72886735
1.3200827 0.49234283 0.1074696
1.2864119 0.53418303 0.092785791
1.2704992 0.58261061 0.079979785
1.2644269 0.63607013 0.067293324
1.3202326 0.4919264 0.055626836
1.2658644 0.52492553 0.041007273
1.2562417 0.5753032 0.028411891
1.2588987 0.6326285 0.015369501
1.3222617 0.4924722 0.0040141298
1.2859948 0.53272086 -0.0094992649
1.2647586 0.5785895 -0.022382917
1.2257361 0.61540085 -0.035172701
1.3292608 0.4942866 -0.048037291
1.2951708 0.53596592 -0.060684264
1.2834952 0.58621305 -0.074591026
1.2622684 0.63335639 -0.088109151
1.3476228 0.50009739 -0.10147244
1.3284532 0.54892427 -0.11514511
1.3137726 0.5997923 -0.12942608
1.3823657 0.69310313 -0.15358721
1.3620056 0.50500214 -0.15631668
1.3257363 0.54712451 -0.16797194
1.3836673 0.63126451 -0.19250749
1.4022472 0.70264274 -0.21420817
1.3459147 0.4977805 -0.20791404
1.3560138 0.55873382 -0.22649346
1.3908367 0.63389027 -0.25131142
1.5017891 0.75222641 -0.29293391
1.3972274 0.51553887 -0.27234429
1.3739119 0.56535131 -0.28620514
1.4122047 0.64258748 -0.31408316
1.479023 0.74024206 -0.35215604
1.360626 0.50055051 -0.32151404
1.4011981 0.575836 -0.35083014
1.4430628 0.65644622 -0.3831571
1.4338427 0.71825558 -0.40487081
1.440513 0.52839875 -0.40138903
1.4392657 0.59021807 -0.42273045
1.5708503 0.71408015 -0.48720476
1.4935657 0.74823791 -0.49039039
5.7773848 2.1114933 1.9003333
0 0 0
6.0290718 2.7405088 1.8969009
6.1645627 3.084578 1.9027218
0 0 0
0 0 0
0 0 0
7.1874032 3.5857196 1.8919226
1.2526757 0.45873958 0.30296195
1.2572335 0.51465845 0.29426312
1.2345142 0.55945826 0.28006625
7.8461094 3.9073317 1.7233175
1.3508375 0.49503484 0.27106267
0 0 0
1.2317188 0.55744016 0.227531
0 0 0
1.3500577 0.49461547 0.21637049
1.320121 0.5392186 0.20030972
9.2813902 4.1946335 1.3322328
7.9405308 3.9417353 1.0749881
1.3427048 0.49165583 0.16167663
1.288272 0.52618331 0.14383104
1.2622472 0.56985021 0.12993784
7.9436822 3.9384623 0.74889857
1.3408695 0.49074495 0.10891469
1.2924368 0.52741069 0.092985183
1.2649498 0.57069832 0.079408497
1.2602504 0.62430918 0.066865914
1.3166571 0.48141444 0.055350672
1.2736897 0.5190345 0.041156825
1.2597481 0.56758422 0.028411891
1.2564833 0.62178767 0.015293145
1.334651 0.48778239 0.0040425789
1.2799774 0.52104986 -0.0094310232
1.2646378 0.56917673 -0.022318553
1.2411387 0.61362797 -0.035505969
1.3379019 0.48817658 -0.048240412
1.3067641 0.53139585 -0.061073542
1.2879788 0.57873589 -0.074643813
1.2518142 0.61852539 -0.087112859
1.3553525 0.49352565 -0.10182453
1.3345671 0.54188776 -0.11538467
1.3210624 0.5933522 -0.12978312
1.3678548 0.67535663 -0.15151171
1.3678817 0.4976553 -0.15663767
1.3345908 0.54121917 -0.16866988
1.3893248 0.62357509 -0.19275863
1.3905387 0.68613386 -0.21177244
1.3508043 0.49018794 -0.20820081
1.3438438 0.54409778 -0.22389887
1.3919989 0.62413323 -0.25082472
1.4701526 0.72513062 -0.28588974
1.3809406 0.49992418 -0.26856673
1.3728031 0.55507004 -0.28525931
1.4009132 0.62710261 -0.31071019
1.4765188 0.72769397 -0.35049
1.3572435 0.48987237 -0.3199985
1.3929615 0.56248546 -0.34789717
1.4417402 0.64519715 -0.3817476
1.4399619 0.71030205 -0.4053604
1.4182398 0.51037759 -0.39430273
1.4455454 0.58245772 -0.42351717
2.1357036 0.95508361 -0.66056597
1.5101757 0.74500251 -0.4943338
5.7776408 2.0714896 1.8962009
0 0 0
0 0 0
6.1859674 3.0479729 1.90352
0 0 0
0 0 0
0 0 0
0 0 0
1.282999 0.46093604 0.30960587
1.210497 0.48687592 0.28261963
1.2084068 0.53871411 0.27338839
1.317089 0.64584994 0.28840923
1.3140848 0.47244072 0.26310116
1.2971585 0.52133769 0.24897197
1.2189001 0.54265261 0.22454372
1.3525766 0.66260761 0.23898318
1.3549283 0.48699129 0.21666811
1.3197286 0.5296331 0.19975331
1.3391429 0.59534466 0.19169004
8.143837 3.9805629 1.0991845
1.3400854 0.48139232 0.16100252
1.308093 0.52493691 0.14568163
1.2711797 0.56451905 0.13049832
8.1020155 3.9552169 0.76152325
1.3354095 0.4794758 0.10823017
1.2965747 0.51984185 0.093051657
1.2793782 0.56778574 0.080094039
1.2712395 0.62006783 0.067245834
1.328051 0.47636279 0.055705737
1.285202 0.51455319 0.041426022
1.2577227 0.55741328 0.028288538
1.2674662 0.61757028 0.01538041
1.3460907 0.4826214 0.0040681828
1.299863 0.51987028 -0.009553859
1.2690207 0.56181109 -0.022334643
1.2439816 0.6055634 -0.035480332
1.346518 0.48197907 -0.04844353
1.3016504 0.52003181 -0.060684264
1.2969857 0.57324427 -0.074960545
1.2609708 0.61345255 -0.087486468
1.3677491 0.48855552 -0.10252871
1.3341635 0.53221148 -0.11506527
1.3219451 0.58402765 -0.12951533
1.3764478 0.66912621 -0.15200588
1.3681002 0.4882502 -0.15631668
1.3406545 0.53412288 -0.16901885
1.3776962 0.60822713 -0.19062385
1.3813547 0.6710943 -0.20974268
1.3556514 0.48255414 -0.2084876
1.3462387 0.53547662 -0.22374624
1.3958024 0.61558038 -0.25082472
1.4417863 0.7001735 -0.27953285
1.3812011 0.49045402 -0.2680271
1.3716202 0.54482377 -0.2843135
1.3930733 0.61336058 -0.30813086
1.4659969 0.71136177 -0.34694973
1.3611442 0.48186108 -0.32021502
1.3954811 0.5535686 -0.34767157
1.4163136 0.62341607 -0.37399518
1.4408045 0.69975889 -0.40438125
1.4359415 0.50681776 -0.39835206
1.4625511 0.57890439 -0.42745075
2.1406426 0.94157368 -0.66029423
1.5362958 0.74620259 -0.50137556
6.0771341 0.86739331 1.8964961
6.2962384 1.1460369 1.9007782
6.4959712 1.4390516 1.9057122
6.6389709 1.7329112 1.8939413
7.1192665 1.0207022 1.920248
7.3916173 1.3434178 1.9233458
7.6049814 1.678744 1.9148055
8.2207594 2.1353731 2.0005958
7.7271919 1.1079993 1.7728145
9.2155676 1.676248 2.0289338
9.6019611 2.1156964 2.0316947
2.1410196 0.55450273 0.43483239
7.7147126 1.1079963 1.4684414
11.430217 2.0759859 2.0689218
2.2238889 0.48883161 0.38320136
2.0940659 0.5414843 0.3431955
7.7572627 1.1134166 1.1793233
2.299649 0.41646603 0.32828537
2.2044098 0.48334008 0.29518709
1.4179717 0.36531338 0.17755963
2.3655891 0.33911672 0.27021009
2.2590313 0.40906945 0.23728526
2.1951814 0.48039317 0.21083374
1.4447013 0.37144694 0.12599473
2.3471704 0.33610004 0.1808653
2.2396619 0.40483537 0.15160774
2.1311145 0.46582717 0.12482559
1.4463981 0.37137192 0.070997544
2.3374245 0.33395514 0.093224265
2.2329984 0.40250409 0.067896798
2.1881113 0.47712541 0.046051107
1.5323721 0.39276215 0.017256601
2.2739451 0.32456169 0.0065346966
2.1848841 0.39300457 -0.015149689
2.1367009 0.46501675 -0.035191543
1.5262927 0.39060783 -0.040402461
2.2668836 0.32234275 -0.077557042
2.1702502 0.38955122 -0.095459841
1.5585035 0.33818489 -0.084304221
1.5229599 0.38935846 -0.098072015
2.3309157 0.32987085 -0.16618665
2.1920431 0.39227831 -0.17838711
1.5058334 0.32650819 -0.13808423
1.4963894 0.38209248 -0.15338954
2.4651613 0.34816712 -0.26791033
2.254705 0.40247679 -0.26824325
1.4660491 0.31747997 -0.18987039
1.4631318 0.37321961 -0.20622441
2.5373607 0.35624152 -0.37123412
2.2106614 0.39334092 -0.34676087
1.4322486 0.30958462 -0.24092799
1.3822645 0.35236052 -0.24877907
2.5846548 0.36085775 -0.47723213
2.2198703 0.39390033 -0.43432054
1.549282 0.33389121 -0.32082912
1.4464064 0.36822736 -0.31779426
2.5887444 0.3588956 -0.57959133
2.2582152 0.39964741 -0.53109592
2.2083108 0.47567883 -0.54595774
1.5539722 0.39618921 -0.40487081
2.5666065 0.35336134 -0.67775524
2.2171962 0.39067224 -0.61180526
2.2138183 0.47625875 -0.63937134
2.6275032 0.66998637 -0.79600418
6.1003284 0.83254313 1.9021044
6.3116498 1.1088753 1.9033407
6.4943399 1.3969421 1.9026834
6.6821752 1.7004631 1.9032539
7.1301813 0.9776563 1.9215379
7.3806367 1.2946907 1.9183854
7.6122904 1.6314386 1.9140892
8.2223845 2.0820241 1.9978446
7.6855388 1.0539409 1.7617414
9.2025766 1.6156148 2.0238528
9.6281691 2.059608 2.0345278
2.1329651 0.53847307 0.43251738
7.6843705 1.0555571 1.4614056
11.458256 2.0085323 2.0717273
2.2634945 0.48299703 0.38950783
2.1040528 0.5303148 0.34429246
7.7090869 1.0582668 1.17099
2.3167932 0.40490508 0.33037192
2.2121835 0.47083709 0.29583558
1.4230751 0.35733128 0.17792077
2.3695943 0.32486528 0.2704348
2.2830555 0.39896768 0.23954707
2.2107484 0.4696041 0.21204811
1.451786 0.36378643 0.12641555
2.3491883 0.32169175 0.1808653
2.2725749 0.39640048 0.15366815
2.1993668 0.4666248 0.12865318
1.4476806 0.36224753 0.070950054
2.3443794 0.32028294 0.093421519
2.2551215 0.39222059 0.068495013
2.1861072 0.46265543 0.045948319
1.540574 0.38480625 0.01732205
2.284811 0.31181988 0.0065603
2.2099149 0.38352367 -0.015306646
1.7227635 0.36387351 -0.028336676
1.54515 0.38534763 -0.040838275
2.2391093 0.30438858 -0.076541454
2.215914 0.38372821 -0.097362995
1.570321 0.33067346 -0.08483211
1.5379103 0.38314298 -0.098881498
2.3319075 0.3154287 -0.16611624
2.1934264 0.3786512 -0.17830724
1.5126818 0.31828782 -0.13853052
1.5054653 0.37458551 -0.15408137
2.542136 0.34314272 -0.27604178
2.2796445 0.39251083 -0.2709187
1.4543772 0.30562219 -0.18811232
1.4673173 0.36471295 -0.20649505
2.5571544 0.34303433 -0.37381509
2.22667 0.38210925 -0.34889761
1.4360528 0.3011958 -0.2412525
1.3930053 0.34600976 -0.25032535
2.5926707 0.34577206 -0.47831145
2.23386 0.38225955 -0.43659052
1.5599358 0.32618415 -0.32261479
1.468574 0.36429057 -0.32216758
2.595737 0.34364527 -0.58067387
2.2663867 0.38676706 -0.5324496
2.2168968 0.46331304 -0.54736733
1.560138 0.38758186 -0.40584996
2.5543382 0.33571526 -0.67395902
2.2262113 0.37819174 -0.61364096
2.2110465 0.46148628 -0.63774097
2.6315646 0.65385169 -0.79600418
6.1252184 0.79768765 1.908303
6.2814736 1.0638837 1.8922367
6.4980841 1.3560854 1.9013065
6.6906118 1.6589659 1.9027218
7.133172 0.93351185 1.920764
7.3827114 1.2484105 1.9168974
7.6107483 1.5823277 1.9112241
8.2595749 2.0375948 2.0038054
7.6812248 1.0053713 1.7593052
9.2142439 1.5594445 2.0242763
9.6022701 1.992533 2.0264332
10.083724 2.4799495 2.0416286
7.6955743 1.0090256 1.4623313
11.463569 1.9370396 2.0704999
2.2577243 0.46730053 0.3880142
2.1139812 0.51904309 0.34538946
7.6860204 1.0070906 1.1665256
2.3309524 0.39265588 0.33204117
2.2383366 0.46206561 0.29894826
1.4522413 0.35519665 0.1812914
2.3804104 0.31147993 0.27144596
2.2785945 0.38379511 0.23882741
2.2213893 0.45763752 0.21279541
1.4433424 0.35227266 0.12548974
2.3590279 0.30830508 0.18147378
2.2838204 0.38393754 0.15426634
2.223702 0.45754755 0.12991002
1.4983993 0.3651838 0.073324554
2.3581908 0.30744222 0.093894936
2.2574856 0.37837604 0.068495013
2.2075129 0.45305201 0.046338931
1.5487359 0.37676442 0.017387498
2.3055222 0.30024832 0.0066143526
2.2043366 0.36863717 -0.015252053
1.7279024 0.35389787 -0.02838495
1.5785712 0.38340977 -0.041658629
2.3341005 0.30272731 -0.079723626
2.1866927 0.36486271 -0.095978886
1.5635146 0.31923395 -0.084357008
1.5334429 0.37205204 -0.098445624
2.5049505 0.32319701 -0.17829855
2.227174 0.37041879 -0.18086247
1.4833773 0.30262905 -0.13567424
1.5077354 0.3653411 -0.15408137
2.5668743 0.3304579 -0.27850261
2.2271399 0.36941451 -0.26440457
1.4688625 0.29926729 -0.18974482
1.4666387 0.35500354 -0.20608909
2.5464494 0.32570517 -0.37195104
2.2201972 0.36698896 -0.34752402
1.7811457 0.36217991 -0.29884806
1.3989322 0.33838239 -0.25101259
2.5859611 0.32874075 -0.47669247
2.2303503 0.36758754 -0.43545553
2.211262 0.44823369 -0.45673999
1.5449387 0.37318563 -0.33841133
2.5764873 0.32502347 -0.57591069
2.2542975 0.37048364 -0.52906537
2.2254138 0.45085973 -0.54877687
1.568141 0.37936962 -0.40731865
2.580349 0.32304031 -0.68028611
2.5065749 0.41001257 -0.69021499
2.2223258 0.44962847 -0.64018649
2.6401899 0.63882065 -0.79741251
6.1148272 0.75820792 1.9035803
6.2992368 1.0271726 1.8956534
6.5053401 1.3159977 1.9010311
6.7137837 1.6210494 1.9064468
7.1330132 0.889009 1.9192163
