# .PCD v0.7 - Point Cloud Data file format
VERSION 0.7
FIELDS x y z
SIZE 4 4 4
TYPE F F F
COUNT 1 1 1
WIDTH 1543
HEIGHT 1
VIEWPOINT 0 0 0 1 0 0 0
POINTS 1543
DATA ascii
-0.11958905 0.89798927 -0.21894692
-0.14833747 0.86483884 -0.22152847
-0 0 -0
-0.078883849 0.83099174 -0.22683737
-0.10587145 0.79657811 -0.22689122
-0.13092765 0.76317602 -0.22730905
-0.13791755 2.4659674 0.76302606
-0 0 0
-0.31860185 2.3976648 0.69278598
-0.38894331 2.2737095 0.636724
-0.14146711 2.5012448 0.66888815
-0.2327631 2.4719889 0.63565898
-0.32713363 2.4761016 0.61407477
-0.39897972 2.349153 0.56124896
-0.13737762 2.4281878 0.55232978
-0.2295752 2.4344909 0.52967364
-0.31065857 2.3583741 0.4915325
-0.39101449 2.3122766 0.46106893
-0.13793628 2.4282925 0.45825148
-0.22988111 2.4445815 0.43727893
-0.31623891 2.4101584 0.40909111
-0.39465454 2.3392653 0.37641811
-0.13841911 2.4405541 0.3678596
-0.22647928 2.4215546 0.34163937
-0.31658006 2.4225914 0.31956989
-0.39262137 2.3399088 0.28770679
-0.13787803 2.4385421 0.27616483
-0.2271706 2.4294035 0.25219268
-0.31883332 2.4474807 0.23157147
-0.39228868 2.3449476 0.20081726
-0.14049619 2.4917922 0.19037253
-0.23210976 2.4906645 0.16662893
-0.31499165 2.4226117 0.13979323
-0.39262629 2.3517575 0.11335862
-0.1515891 2.7036438 0.10691398
-0.22475012 2.4245155 0.07286194
-0.31588158 2.4391108 0.050573986
-0.39518094 2.3731792 0.026244869
-0.14367861 2.568975 0.0073198839
-0.2233129 2.4186563 -0.016575946
-0.30916736 2.3948135 -0.038860351
-0.38994503 2.3470452 -0.06101387
-0.1433029 2.5865476 -0.087746762
-0.21865541 2.3777308 -0.10337519
-0.30464283 2.3711722 -0.12637715
-0.39478719 2.379786 -0.15050162
-0.14208022 2.5956452 -0.1835095
-0.22200179 2.4280617 -0.1953155
-0.4156673 3.2393517 -0.29268146
-0.38364807 2.3168967 -0.23324698
-0.13948803 2.5613952 -0.27604178
-0 0 -0
-0.20967963 1.6374575 -0.20895788
-0.38142589 2.3069744 -0.31935015
-0 0 -0
-0.095147446 1.0521828 -0.16315465
-0.12645569 0.99055308 -0.16418798
-0.17017585 1.0302784 -0.18211728
-0 0 -0
-0.082431905 0.91638291 -0.17724667
-0.11586405 0.91202146 -0.18610865
-0.14397672 0.87336999 -0.18846908
-0 0 -0
-0.081370518 0.90920717 -0.21140055
-0.11175124 0.88038492 -0.21448341
-0.14571485 0.88199514 -0.22568978
-0 0 -0
-0.074807078 0.84299481 -0.22998424
-0.10182831 0.80389595 -0.22879331
-0 0 -0
-0.11955416 2.4018776 0.74295419
-0.22277777 2.5247586 0.75279474
-0.31535822 2.4901786 0.71894443
-0.36511263 2.2161322 0.61996108
-0.11950239 2.3708351 0.63380563
-0.21597783 2.455035 0.6309467
-0.30392987 2.4144731 0.59831703
-0.38392967 2.3477142 0.56033182
-0.12272149 2.4338546 0.55343705
-0.21660617 2.4582455 0.53454274
-0.30520526 2.4321408 0.5065071
-0.38296822 2.3524027 0.46859267
-0.12343164 2.4369447 0.45973265
-0.2091907 2.3812177 0.42570701
-0.3063361 2.451194 0.41572949
-0.37633553 2.317271 0.37250033
-0.12119443 2.3969152 0.36116311
-0.21187513 2.425858 0.34205666
-0.31321937 2.5169809 0.33176124
-0.37873137 2.3452141 0.28806794
-0.12291282 2.4393423 0.27616483
-0.21459611 2.4575069 0.25496855
-0.30160391 2.4316061 0.22989005
-0.37630916 2.3374724 0.19997561
-0.12500411 2.4886241 0.1900683
-0.21543916 2.4761374 0.16556548
-0.30232856 2.4423335 0.14082155
-0.37945631 2.3620124 0.11373854
-0.12075008 2.4191012 0.09563081
-0.20883548 2.4138987 0.072503008
-0.29895237 2.4251266 0.050245047
-0.38013735 2.3725972 0.026212145
-0.12418444 2.4949012 0.0071065179
-0.20924053 2.4289477 -0.016637363
-0.29678392 2.4155209 -0.039166082
-0.37458977 2.3434708 -0.060860049
-0.12182492 2.4735818 -0.08388754
-0.20431794 2.382014 -0.10350495
-0.28996667 2.3720057 -0.12632436
-0.38127872 2.3890626 -0.1509375
-0.12019679 2.473918 -0.17484806
-0.20676063 2.4254055 -0.1949961
-0.38250595 3.1330879 -0.28286293
-0.35658869 2.2386246 -0.22514264
-0.11772445 2.437072 -0.26256067
-0 0 -0
-0.23765862 1.950896 -0.24876536
-0.36539593 2.2975292 -0.31772631
-0.067264944 1.4165959 -0.20547643
-0.091095567 1.0813059 -0.16758074
-0.12073224 0.99424905 -0.1646747
-0.16586047 1.0439513 -0.1843508
-0.047095243 1.0081643 -0.18456092
-0 0 -0
-0.10909028 0.9029848 -0.18412456
-0.14091259 0.88872707 -0.19159287
-0 0 -0
-0.076194622 0.91454363 -0.21252862
-0.10809441 0.89552915 -0.21800724
-0.14212631 0.89436334 -0.22862716
-0 0 -0
-0.07098294 0.85978734 -0.23444231
-0.094592258 0.78539622 -0.22335878
-0 0 -0
-0.10273214 2.3548388 0.72819543
-0.20210774 2.4630218 0.73400331
-0.29972807 2.4892035 0.71811837
-0.37534398 2.3687582 0.66200137
-0.10589272 2.3927584 0.63948077
-0.20280533 2.4794867 0.63689899
-0.28922459 2.4172568 0.5985558
-0.3711803 2.3606031 0.56285381
-0.10765593 2.4316392 0.55277264
-0.19497421 2.3796546 0.5171833
-0.29862612 2.5039821 0.52107704
-0.36943725 2.3605247 0.46975017
-0.10790856 2.4248936 0.45732567
-0.20266984 2.4815617 0.44341555
-0.28617361 2.4099407 0.40842727
-0.36591843 2.3439322 0.37641811
-0.10753796 2.4213233 0.36473459
-0.19618526 2.4172423 0.34066564
-0.2952086 2.4971919 0.32890794
-0.36905399 2.3779042 0.29179969
-0.10803081 2.4420357 0.27638951
-0.19822592 2.4429145 0.25332361
-0.28679466 2.4343996 0.22998345
-0.3642447 2.3545084 0.20123807
-0.10766807 2.4425259 0.18649359
-0.19927716 2.4654779 0.16476789
-0.29957649 2.548254 0.14682002
-0.3648037 2.3633089 0.11369105
-0.10524914 2.4048226 0.09503904
-0.19858252 2.4719265 0.074207909
-0.28383401 2.4249294 0.050203934
-0.3658765 2.3768618 0.026233962
-0.10665087 2.444665 0.0069614286
-0.19552849 2.4451375 -0.016739724
-0.27998769 2.4004133 -0.03889253
-0.36202419 2.3575821 -0.061167687
-0.10531086 2.4433291 -0.082838088
-0.18922271 2.3772473 -0.10324542
-0.27448615 2.3658047 -0.12590206
-0.3657051 2.3854382 -0.15056391
-0.10937109 2.577261 -0.18210113
-0.19093186 2.4147038 -0.19403788
-0.27890399 2.4071851 -0.21716803
-0.34073898 2.2269993 -0.22375898
-0.10557447 2.5043046 -0.2697292
-0 0 -0
-0.24037988 2.0794499 -0.26496464
-0.35443357 2.3202963 -0.32056803
-0.099608511 2.4097593 -0.34943897
-0.083536036 1.070021 -0.16574927
-0.1163234 1.0096751 -0.16710831
-0.15127857 0.99138707 -0.17490131
-0.043500043 1.0723215 -0.1962534
-0 0 -0
-0.10589083 0.92408586 -0.18829118
-0.13678193 0.89827734 -0.19346716
-0 0 -0
-0.069832377 0.90528065 -0.21027248
-0.10337142 0.90293556 -0.21965168
-0.13458784 0.88179988 -0.22520021
-0 0 -0
-0 0 -0
-0 0 -0
-0.11642347 0.76261109 -0.22646402
-0 0 0
-0.18655592 2.4584801 0.73229504
-0.27583259 2.4155397 0.69636554
-0.36761826 2.4158068 0.67450702
-0 0 0
-0.18495792 2.4459083 0.62797052
-0.27690446 2.4411783 0.60404718
-0.36133823 2.3936348 0.57019043
-0.090876006 2.3835309 0.54169947
-0.18199354 2.402246 0.52184075
-0.27720624 2.4522462 0.50994724
-0.35363448 2.3540142 0.46801391
-0.093856253 2.447114 0.46139905
-0.18580891 2.4611611 0.43955827
-0.27193248 2.4165509 0.40925705
-0.36016402 2.4037611 0.38566402
-0.091506779 2.391305 0.36012143
-0.18127561 2.417413 0.34052655
-0.27325878 2.4398327 0.32112619
-0.35548013 2.3869975 0.29264238
-0.091456167 2.400949 0.2716707
-0.18070437 2.4103594 0.24982806
-0.27516463 2.4657979 0.23278585
-0.35286307 2.377398 0.20300554
-0.091091499 2.4012921 0.18329917
-0.18667112 2.5004849 0.16702771
-0.27564901 2.4756265 0.1425354
-0.35468552 2.3951457 0.11511575
-0.090716824 2.4114144 0.095275752
-0.18104568 2.4412003 0.073250771
-0.26806849 2.4186757 0.050039463
-0.34894842 2.3632345 0.026059432
-0.092585027 2.4702556 0.0070325509
-0.18133125 2.4572613 -0.016814793
-0.26733893 2.4209688 -0.039198264
-0.35061044 2.380528 -0.06170604
-0.089910902 2.4329431 -0.082465716
-0.17770535 2.4202116 -0.10506206
-0.26050967 2.3724074 -0.12616599
-0.34975475 2.3787501 -0.15000349
-0.087983906 2.424367 -0.17125675
-0.23010509 3.1564858 -0.25352687
-0.26738536 2.4385533 -0.2198458
-0.3468596 2.3639328 -0.23729914
-0.08619877 2.3936205 -0.25774598
-0.23156355 3.1957211 -0.3752614
-0.22869484 2.0907476 -0.26622039
-0.34148222 2.3312502 -0.32178584
-0.08433336 2.3964784 -0.34743151
-0.074275739 1.0330554 -0.15994957
-0.11055363 1.0142936 -0.16775727
-0.14775994 1.0098422 -0.17799386
-0 0 -0
-0.0662499 0.92753947 -0.1791383
-0.10127479 0.93446231 -0.19027527
-0.13056114 0.89426064 -0.19242589
-0 0 -0
-0.065310858 0.92026865 -0.21365669
-0.097306013 0.89872098 -0.21847709
-0.13001715 0.88836527 -0.22666891
-0 0 -0
-0 0 -0
-0 0 -0
-0.11174199 0.76331109 -0.22646402
-0 0 0
-0.17100079 2.4528847 0.73030198
-0.26110914 2.4181428 0.69664097
-0.34471658 2.3626938 0.65907454
-0 0 0
-0.16692626 2.4035082 0.61680996
-0.26285219 2.4515212 0.60619587
-0.34775943 2.4035134 0.57202452
-0 0 0
-0.16711451 2.4013674 0.52141732
-0.26902026 2.5181699 0.52330303
-0.3421199 2.3765347 0.47206512
-0.077605434 2.4093378 0.45417809
-0.1700912 2.4534154 0.43798026
-0.26366791 2.4799521 0.41971251
-0.34919754 2.4323215 0.38989517
-0 0 0
-0.16575933 2.4086003 0.3391355
-0.25567526 2.4168124 0.31788385
-0.34727633 2.4343414 0.29817984
-0.074184112 2.3220119 0.26268238
-0.16775472 2.4382162 0.25260392
-0.25689924 2.4377356 0.22998345
-0.34247631 2.4091144 0.20553048
-0.075912178 2.3878536 0.18223436
-0.17214303 2.5135288 0.1678253
-0.25502539 2.4256408 0.13956472
-0.3423669 2.4140897 0.11592308
-0.076201878 2.4209139 0.09563081
-0.16504622 2.4273062 0.072802112
-0.25082991 2.3974044 0.049566615
-0.34144092 2.4148357 0.026604837
-0.077300794 2.4667792 0.0070211715
-0.16537324 2.4453576 -0.016726077
-0.25216818 2.4195802 -0.039149992
-0.33655554 2.3865941 -0.061808582
-0.074796267 2.4274552 -0.082262591
-0.16063938 2.3883617 -0.10363471
-0.24666831 2.3809142 -0.12653551
-0.33626541 2.3887579 -0.15050162
-0.073437274 2.4358287 -0.17203134
-0.21133028 3.1667895 -0.25424552
-0.24893321 2.4064636 -0.216811
-0.44446909 3.1642148 -0.31735426
-0.071153954 2.3821783 -0.25646207
-0.21247624 3.2050102 -0.376192
-0.17258774 1.6727023 -0.21285073
-0.3176783 2.2655985 -0.31244892
-0.068247929 2.3494668 -0.34054884
-0.070398942 1.0709656 -0.16574927
-0.10886834 1.0591239 -0.17505811
-0.13759829 0.98243725 -0.17301142
-0 0 -0
-0 0 -0
-0.095041014 0.93019092 -0.18928322
-0.12683126 0.90763754 -0.19513318
-0 0 -0
-0.057772905 0.89148676 -0.20688826
-0.091197535 0.89349914 -0.21706754
-0.12294956 0.87762386 -0.22373152
-0 0 -0
-0 0 -0
-0.085188054 0.83679044 -0.23748854
-0.10652368 0.76018143 -0.22533733
-0 0 0
-0.15436621 2.429014 0.72289932
-0.24441734 2.4015276 0.69140923
-0.33941135 2.4306376 0.67743385
-0 0 0
-0.15131882 2.3909514 0.6133377
-0.2460482 2.4356971 0.60189837
-0.33794352 2.4412763 0.58050746
-0.061367653 2.3747182 0.53948486
-0.15367605 2.4228308 0.52586305
-0.24552368 2.439873 0.50670952
-0.3549706 2.5778582 0.51161289
-0.0626669 2.4038744 0.45306718
-0.15342046 2.4288664 0.43342161
-0.23960476 2.3932128 0.40477616
-0.3282207 2.3903873 0.3828432
-0.06223195 2.3952134 0.36056787
-0.15190621 2.4243972 0.34122205
-0.23917067 2.401562 0.31567898
-0.33421129 2.450197 0.29986513
-0.060473464 2.3432837 0.26504183
-0.15409687 2.4600477 0.25476295
-0.24449173 2.4650259 0.2324122
-0.32943225 2.4240062 0.20662463
-0.060619969 2.3633549 0.18033291
-0.15535161 2.4926288 0.16636306
-0.23954734 2.4211988 0.13922194
-0.32969484 2.4319818 0.11668292
-0.060890462 2.4033558 0.09492068
-0.15027282 2.4302688 0.07286194
-0.23934676 2.4317329 0.050245047
-0.33719656 2.4951692 0.027466577
-0.062264219 2.4712059 0.0070325509
-0.15146996 2.4642918 -0.016848912
-0.2357565 2.4051602 -0.03889253
-0.32737949 2.4292336 -0.062859669
-0.059259366 2.4018912 -0.081382416
-0.14854059 2.431185 -0.10545135
-0.23553982 2.4181635 -0.12843592
-0.32173502 2.3917656 -0.15056391
-0.056933705 2.3714135 -0.16745417
-0.19225684 3.1739964 -0.25472462
-0.23425914 2.408937 -0.21690024
-0.42504546 3.1668825 -0.31735426
-0.056299981 2.3726304 -0.25539213
-0.19268742 3.2042708 -0.37595934
-0.21298046 2.1960917 -0.27928028
-0.20036513 1.4956305 -0.20608909
-0.056346457 2.4596655 -0.35646501
-0.061592966 1.0338891 -0.15994957
-0.10938821 1.1324532 -0.18706395
-0.13248214 0.990098 -0.17421408
-0.02305799 1.0414702 -0.1904971
-0 0 -0
-0.088488929 0.92197585 -0.18749753
-0.120095 0.8996734 -0.1932589
-0 0 -0
-0 0 -0
-0.086548284 0.90275013 -0.21918184
-0.11974886 0.89469892 -0.22789283
-0 0 -0
-0 0 -0
-0 0 -0
-0.10185728 0.76082075 -0.22533733
-0.044382624 2.3289483 0.71963543
-0.13819583 2.4079037 0.71635079
-0.23205543 2.4278638 0.6985684
-0.32869676 2.4642057 0.68621445
-0 0 0
-0.13852406 2.4247191 0.6217702
-0.23164843 2.4429615 0.60333091
-0.32270271 2.4413741 0.58004898
-0 0 0
-0.13590117 2.3729897 0.51485461
-0.23091656 2.4452336 0.50751895
-0.3449012 2.6237657 0.52029407
-0 0 0
-0.13868244 2.4327109 0.43394762
-0.23164755 2.46631 0.41689122
-0.32022133 2.4432783 0.39099216
-0.04747517 2.3925841 0.36012143
-0.13702753 2.4252837 0.34122205
-0.22470708 2.4059463 0.31606808
-0.31609574 2.4285753 0.296976
-0.047051653 2.3922908 0.27054715
-0.14208454 2.5155685 0.26041749
-0.22724169 2.4436786 0.2302637
-0.3167308 2.442781 0.20805542
-0.046642721 2.390599 0.18238646
-0.13977443 2.4885542 0.16603073
-0.22754478 2.4534402 0.14099294
-0.31438196 2.4309874 0.11654045
-0.045874108 2.3896978 0.094368361
-0.13947001 2.5049975 0.075075313
-0.22359501 2.4241958 0.050060026
-0.31510508 2.4446292 0.026888447
-0.047385816 2.4865386 0.0070752241
-0.13645695 2.4671719 -0.016862562
-0.22190861 2.4165182 -0.039053444
-0.30953684 2.4083917 -0.062270038
-0.044502005 2.4012105 -0.081348568
-0.13603185 2.4759433 -0.10735448
-0.21716012 2.3807786 -0.12637715
-0.30629146 2.3877549 -0.15019029
-0.043166108 2.415602 -0.17055257
-0.17158639 3.1532192 -0.25296792
-0.21992537 2.4152887 -0.21734655
-0.40206894 3.1417933 -0.31458691
-0.042177904 2.3977838 -0.25806698
-0.17189854 3.1845658 -0.37351653
-0.19618243 2.1608002 -0.27463394
-0.19043113 1.4909347 -0.20527719
-0.039593756 2.3610122 -0.34212613
-0.057462115 1.0756963 -0.16635975
-0.096573822 1.0682421 -0.17635605
-0.12553191 0.98405182 -0.17301142
-0 0 -0
-0 0 -0
-0.083794281 0.93323958 -0.18968004
-0.11543669 0.90718514 -0.19471668
-0.014727127 0.97909898 -0.2171573
-0 0 -0
-0.079965591 0.89164668 -0.21636279
-0 0 -0
-0 0 -0
-0 0 -0
-0.074227236 0.83010447 -0.23531474
-0.096822612 0.7585761 -0.22449233
-0.030474255 2.358793 0.72878581
-0.12356577 2.4115782 0.71720499
-0.2212625 2.475203 0.71178526
-0.31892028 2.5082514 0.69792187
-0 0 0
-0.12295316 2.4119782 0.61829799
-0.21399653 2.4143507 0.5959295
-0.30601382 2.4297876 0.57683915
-0 0 0
-0.12363327 2.4186778 0.52459282
-0.20876326 2.3656361 0.49072307
-0.31733593 2.5343132 0.50216001
-0.033284914 2.413306 0.45473355
-0.12240297 2.4069686 0.42921364
-0.21375211 2.4362495 0.4115805
-0.30485663 2.4422572 0.390522
-0.032712352 2.3868978 0.35922858
-0.12169554 2.4171774 0.33997008
-0.21407531 2.4546943 0.32229346
-0.30069998 2.4265285 0.29649448
-0.031914867 2.3587527 0.26672712
-0.12379669 2.4597666 0.25455731
-0.21448196 2.4708164 0.23269244
-0.30259064 2.451601 0.20864457
-0.031693403 2.3699031 0.18078926
-0.12081409 2.4156206 0.16111228
-0.21231428 2.452801 0.14087868
-0.29945979 2.4328706 0.11654045
-0.031640913 2.4229057 0.095670268
-0.11925178 2.40797 0.072144084
-0.20888764 2.4275141 0.050101139
-0.30034265 2.4485013 0.026910262
-0.032114889 2.4857826 0.0070723789
-0.12043236 2.4499848 -0.016739724
-0.20733292 2.4208231 -0.039101716
-0.2962096 2.4221532 -0.062577672
-0.029780004 2.4024374 -0.081382416
-0.11888976 2.4368162 -0.10562436
-0.20601672 2.4228621 -0.1285415
-0.29211834 2.3935521 -0.15043937
-0.028121091 2.3968699 -0.16921462
-0.15233147 3.1562037 -0.2531276
-0.2048486 2.4136152 -0.21707878
-0.29571635 2.4290264 -0.24303149
-0.027122986 2.3681717 -0.25485718
-0.15278222 3.1944892 -0.37456346
-0.095265768 1.1259608 -0.14303067
-0.1849838 1.5225658 -0.20947205
-0.025853191 2.431473 -0.35230675
-0.055526804 1.1747469 -0.18162212
-0.090762712 1.077664 -0.17781623
-0.12340733 1.0170761 -0.17868111
-0 0 -0
-0 0 -0
-0.076841563 0.9190855 -0.18670389
-0.10975061 0.90690535 -0.19450842
-0 0 -0
-0 0 -0
-0.075382754 0.90277559 -0.21894692
-0 0 -0
-0 0 -0
-0 0 -0
-0.068892919 0.82766706 -0.23449954
-0.092281893 0.76010841 -0.224774
-0.016110567 2.3751776 0.73380375
-0.10824814 2.4007995 0.71378839
-0.20981754 2.5215418 0.72472686
-0.2913737 2.409678 0.66998369
-0 0 0
-0.10719683 2.3913963 0.61284173
-0.20117331 2.4398134 0.60189837
-0.29364458 2.4528818 0.58188307
-0.017711654 2.3842218 0.54147804
-0.10835119 2.4096274 0.52247584
-0.19632667 2.3922493 0.49598444
-0.28856307 2.4251375 0.4801676
-0.018341107 2.3957767 0.45140085
-0.10789558 2.4135756 0.43026567
-0.197036 2.4158921 0.40792939
-0.29079601 2.4519277 0.3917757
-0.018021103 2.3811207 0.35833573
-0.10673057 2.4149108 0.33955282
-0.19748795 2.4371836 0.31982926
-0.28151196 2.3918486 0.29204047
-0.017544087 2.3728151 0.26830006
-0.10712105 2.4247055 0.25085616
-0.1993973 2.4730783 0.23278585
-0.28812218 2.4583602 0.20906541
-0.017252373 2.384012 0.18185405
-0.10607731 2.4183102 0.16124523
-0.19630028 2.4421158 0.14019313
-0.28475821 2.4366462 0.11663543
-0.016780565 2.4240534 0.095709719
-0.10694344 2.4655771 0.073848985
-0.1956604 2.4496791 0.05053287
-0.28496635 2.4473188 0.026877539
-0.016902504 2.4919326 0.0070894482
-0.10526837 2.4476805 -0.016719252
-0.19287117 2.4270334 -0.039182175
-0.28111145 2.4219389 -0.062526397
-0.015069641 2.4075723 -0.081551686
-0.10419088 2.4434888 -0.10588387
-0.19043994 2.4151208 -0.12806639
-0.27524453 2.3764622 -0.14925627
-0.013480631 2.4089675 -0.17005965
-0.10397919 2.4688957 -0.19795059
-0.19144158 2.4326994 -0.21868543
-0.27886522 2.4139903 -0.24135134
-0.012781949 2.4040864 -0.25870892
-0.1020758 2.4491193 -0.28708777
-0.18772574 2.3934929 -0.30389309
-0.20059952 1.7402148 -0.23924197
-0.010813319 2.404865 -0.34843525
-0.046571717 1.1326052 -0.1750593
-0.08591447 1.1008271 -0.18154778
-0.11299599 0.98160344 -0.17232418
-0.0038656841 1.0367998 -0.18959768
-0 0 -0
-0.071200714 0.91953969 -0.18670389
-0.10485317 0.91339189 -0.19575794
-0 0 -0
-0 0 -0
-0.069542259 0.89934462 -0.21800724
-0.10281644 0.89289868 -0.22691369
-0 0 -0
-0 0 -0
-0 0 -0
-0.090251297 0.78353733 -0.23153411
-0.0015407752 2.3819199 0.73587
-0.091873802 2.3592715 0.70126075
-0.18444739 2.3943422 0.68782967
-0.28009766 2.442066 0.67849821
-0.00305049 2.3922 0.63870686
-0.0902749 2.3339269 0.59796089
-0.18472192 2.4216366 0.59712327
-0.27562472 2.4285243 0.57569283
-0.0030731878 2.3774595 0.53992784
-0.092161253 2.3741126 0.51464295
-0.18075508 2.381691 0.49355608
-0.27477682 2.4366128 0.48209676
-0.0036390598 2.3948612 0.45121565
-0.092970334 2.4112408 0.42973965
-0.18361712 2.4357393 0.41108266
-0.27497372 2.4467957 0.3906787
-0.0034161475 2.3851418 0.35893098
-0.090555429 2.3798962 0.33454508
-0.18127164 2.4215403 0.31762442
-0.27079013 2.4290493 0.29637411
-0.003040676 2.4175932 0.27335596
-0.091976695 2.4183593 0.25013649
-0.18311016 2.459362 0.23138466
-0.27193338 2.4501779 0.20822376
-0.0026382937 2.3970351 0.18284281
-0.090371855 2.3959827 0.15971652
-0.18382411 2.4771256 0.1421355
-0.26892304 2.4304054 0.11625551
-0.0018955346 2.4101217 0.095157392
-0.08976768 2.4112496 0.072203904
-0.1813606 2.4608045 0.050738458
-0.26983494 2.4480271 0.02686663
-0.0015925694 2.4619896 0.0070041018
-0.090431891 2.4532769 -0.016753374
-0.17804863 2.4291682 -0.039198264
-0.26722789 2.4325616 -0.062757127
-0.00029689568 2.4086187 -0.081585534
-0.088758714 2.4321012 -0.10536484
-0.1773548 2.4401472 -0.12933333
-0.2613101 2.384059 -0.14962988
0.0013013079 2.4100022 -0.17013006
-0.087395087 2.4296405 -0.19475655
-0.23018505 3.1739111 -0.28518367
-0.26026353 2.3810332 -0.23789215
0.0019841497 2.4220161 -0.26063478
-0.085212328 2.3980851 -0.28103891
-0.23181105 3.207972 -0.40711626
-0.131052 1.2016536 -0.16508777
0.0039315014 2.3979585 -0.34743151
-0.08262787 2.3625319 -0.36507574
-0.08446382 1.1751493 -0.19371584
-0.11113025 1.0204726 -0.17902473
0 0 -0
-0 0 -0
-0.065487519 0.91898161 -0.18650548
-0.099141143 0.9130457 -0.1955497
0 0 -0
-0 0 -0
-0 0 -0
-0.099645801 0.91471803 -0.23229893
0 0 -0
-0 0 -0
-0 0 -0
-0.082947247 0.76118362 -0.224774
0.013037728 2.3751965 0.73380375
-0.07836999 2.3894918 0.71008706
-0.17410165 2.4568007 0.70545214
-0.26105356 2.4063637 0.66812116
0.011717059 2.4105303 0.64360815
-0.078630209 2.4167376 0.61904204
-0.16972372 2.4207869 0.59664577
-0.26165289 2.4388802 0.57775629
0.01161387 2.3979118 0.54457855
-0.077464558 2.3707261 0.51379609
-0.16859011 2.4179251 0.50084108
-0.26813847 2.5163083 0.49753007
0.011087357 2.4017174 0.45251173
-0.077471808 2.3901179 0.42588234
-0.16560401 2.39255 0.40361443
-0.25807837 2.4307587 0.38785794
0.011190964 2.3791847 0.3580381
-0.076329917 2.3922842 0.3362143
-0.1667497 2.4275532 0.31827292
-0.2530745 2.4040086 0.2931239
0.011778913 2.4145854 0.27301893
-0.075994842 2.3830869 0.24643533
-0.16645625 2.4375932 0.22923616
-0.25814027 2.4636927 0.20923373
0.012124916 2.4079745 0.18367946
-0.074377619 2.3556032 0.15699144
-0.16855352 2.4772108 0.14207837
-0.25338274 2.4260488 0.11597057
0.012849967 2.4020941 0.094841778
-0.074784502 2.4057608 0.07202445
-0.1650454 2.4439156 0.050368398
-0.25367105 2.4386964 0.026746642
0.013354763 2.4329536 0.0069216001
-0.07500872 2.4417913 -0.016671482
-0.16314018 2.4302151 -0.039198264
-0.25239998 2.4351497 -0.062782757
0.014620327 2.4315617 -0.082364149
-0.073258065 2.4136267 -0.10454302
-0.16092092 2.4192688 -0.12817198
-0.25068039 2.4243355 -0.15205833
0.016068801 2.4069564 -0.16991881
-0.072426006 2.4281383 -0.19459684
-0.21017836 3.1673129 -0.28446957
-0.24932291 2.4182203 -0.24145016
0.016762342 2.4100275 -0.25935087
-0.069708519 2.3717577 -0.27789816
-0.21140321 3.1984448 -0.40573496
-0.15246655 1.4823463 -0.20351805
0.018775839 2.4147131 -0.34986913
-0.07049413 2.444988 -0.37774348
-0.070458166 1.0722597 -0.17668055
-0.10214938 0.99467599 -0.17438589
0.0087316763 1.0220144 -0.18689942
-0 0 -0
-0.059592851 0.91545391 -0.18571185
-0.093636543 0.91460985 -0.19575794
0 0 -0
-0 0 -0
-0 0 -0
-0.092049621 0.89602214 -0.22740325
0 0 -0
-0 0 -0
-0 0 -0
-0.078961775 0.76835966 -0.22674571
0.027611414 2.3750718 0.73380375
-0.063502513 2.3822615 0.70780927
-0.15455468 2.3887506 0.6856268
-0.25167799 2.4606626 0.68275547
0.026390709 2.3997862 0.64077061
-0.062777475 2.3784378 0.6091215
-0.1530077 2.3927097 0.58948314
-0.24452968 2.4191341 0.57271236
0.026177073 2.3841438 0.54147804
-0.062735133 2.3643179 0.5123142
-0.1519493 2.3905711 0.49497262
-0.2471087 2.4622564 0.48653382
0.025633618 2.3839164 0.44917899
-0.062856577 2.3925169 0.42623302
-0.15265805 2.421078 0.4082613
-0.23765688 2.3772626 0.37908217
0.025864188 2.385993 0.35907978
-0.061318118 2.379838 0.33440593
-0.15197513 2.4305096 0.31853229
-0.24419135 2.4647896 0.30034664
0.026670916 2.4214227 0.27380538
-0.06142227 2.3854973 0.24664097
-0.1539657 2.478317 0.23297268
-0.24575563 2.4929962 0.21159035
0.026732661 2.392899 0.18253858
-0.060480636 2.3779595 0.15845367
-0.15082237 2.4373434 0.1397361
-0.23819901 2.4245756 0.1158281
0.027760841 2.4169574 0.095433556
-0.060295809 2.417166 0.07235346
-0.15041417 2.4508698 0.05049175
-0.23880006 2.4412022 0.026757549
0.027841099 2.3948288 0.006813495
-0.059877336 2.4362075 -0.016630538
-0.14804305 2.4281762 -0.039149992
-0.23755039 2.4376476 -0.062808394
0.029430561 2.4224319 -0.082059473
-0.058084231 2.3990493 -0.10389423
-0.14727677 2.4401464 -0.12922776
-0.23406212 2.4079471 -0.1509375
0.03065839 2.3928485 -0.16893296
-0.057832733 2.4414918 -0.1956349
-0.19247578 3.1973751 -0.28705812
-0.23188883 2.392962 -0.23878166
0.031380475 2.396955 -0.25795996
-0.05536215 2.3810773 -0.27894506
-0.19159588 3.1967108 -0.40535823
-0.16024064 1.6578125 -0.22746933
0.033399146 2.4006984 -0.34786171
-0.05672377 2.4997163 -0.38613778
-0.085287414 1.4321991 -0.23589854
-0.10096473 1.0462738 -0.18331994
0.025528755 1.7389729 -0.31803483
-0.021944925 0.98759341 -0.19029899
-0.053282626 0.90406126 -0.18333091
-0.088116482 0.91614074 -0.19596618
0.015282938 0.97713768 -0.21672429
-0 0 -0
-0 0 -0
-0.086829498 0.89946538 -0.22813761
0 0 -0
-0 0 -0
-0 0 -0
-0 0 -0
0.042065281 2.3681707 0.73173755
-0.049178991 2.3969824 0.71208006
-0.1404565 2.3992507 0.6883803
-0.23141193 2.4084268 0.66785508
0.040337078 2.3541763 0.62864649
-0.048829872 2.4107406 0.61730593
-0.13899574 2.4052372 0.59234822
-0.22738288 2.3963637 0.5669806
0.040755343 2.3810134 0.54081362
-0.048186921 2.362704 0.51189083
-0.13750267 2.3953691 0.49578205
-0.22831638 2.4246504 0.47881719
0.040160999 2.3778188 0.44806808
-0.048353534 2.401716 0.42781097
-0.13611923 2.3924329 0.40328249
-0.22730765 2.4239094 0.38629085
0.040000308 2.3561277 0.35461545
-0.046714552 2.3801694 0.33440593
-0.13717055 2.4333766 0.31879169
-0.22520711 2.4247258 0.29529071
0.040675957 2.3715374 0.2681877
-0.047096003 2.4017415 0.24828592
-0.13742086 2.4553573 0.23073074
-0.23155427 2.5063639 0.21260032
0.041397456 2.3916931 0.18246253
-0.046061851 2.3872643 0.15905187
-0.13525328 2.427258 0.13910769
-0.22295137 2.4220128 0.11563814
0.042467244 2.4097483 0.095157392
-0.045106132 2.3985021 0.071785159
-0.13796368 2.4986651 0.051458001
-0.22317795 2.4356511 0.026681192
0.042375129 2.3856142 0.006787891
-0.044946358 2.4375291 -0.016637363
-0.1337432 2.440021 -0.039326992
-0.22277051 2.4410503 -0.062859669
0.044184137 2.4162104 -0.081856363
-0.043218426 2.3913691 -0.1035482
-0.13392287 2.4709184 -0.13081144
-0.21901143 2.4063561 -0.1507507
0.045302253 2.3906205 -0.16879211
-0.042186305 2.403928 -0.19260058
-0.17312217 3.2034688 -0.2875044
-0.21693182 2.3913667 -0.23848516
0.046049096 2.3947294 -0.25774598
-0.041600782 2.4310255 -0.28476128
-0.17261694 3.2097142 -0.40686512
-0.1427452 1.577849 -0.21637325
0.047910701 2.3895643 -0.34628442
-0.042022672 2.5385549 -0.39209008
-0.10454025 1.9578857 -0.32237303
-0.092859499 1.0282321 -0.18005559
0.049322382 2.3691909 -0.43334046
-0.014653131 0.91112763 -0.17554419
-0.047682747 0.90339243 -0.18313251
-0.08301948 0.92250896 -0.19721571
0 0 -0
-0 0 -0
-0 0 -0
-0.080698162 0.89322174 -0.22642413
0.049116746 2.1616809 -0.56563967
-0 0 -0
-0 0 -0
-0.072808892 0.80558413 -0.23744923
0.055887587 2.3382578 0.72258717
-0.034415327 2.3934052 0.7109412
-0.12467618 2.3799069 0.68259794
-0.2174065 2.4184418 0.67024976
0.054826234 2.3558164 0.62916243
-0.034160003 2.4197128 0.61953807
-0.12383425 2.3982863 0.59043813
-0.21516876 2.4258311 0.57362944
0.055114813 2.3699946 0.53837758
-0.033563338 2.3541601 0.50998551
-0.12290262 2.398124 0.49618676
-0.21377867 2.4299154 0.47958887
0.054908633 2.3844047 0.44936416
-0.033698633 2.4078741 0.42886296
-0.12323605 2.4286783 0.40925705
-0.21553297 2.4606781 0.39193243
0.054365076 2.3518834 0.35402024
-0.03217601 2.3853624 0.33510149
-0.12253544 2.4401143 0.31956989
-0.21289729 2.4557323 0.29890209
0.055411763 2.3791907 0.26908657
-0.032331508 2.3999958 0.2480803
-0.12284784 2.4660981 0.23166488
-0.21428844 2.4858966 0.2107487
0.055838097 2.3814256 0.18170196
-0.03143926 2.3894975 0.1591848
-0.11966535 2.4140821 0.13830788
-0.20894055 2.4332874 0.11611304
0.056587759 2.3814719 0.094052747
-0.030654246 2.4197226 0.072413273
-0.12302152 2.5074534 0.051622473
-0.20788835 2.4329894 0.026637562
0.057012182 2.3853092 0.006787891
-0.029939909 2.4337592 -0.016610065
-0.11867181 2.4387984 -0.039294813
-0.20770358 2.4413753 -0.062834032
0.057617858 2.3589432 -0.079926744
-0.028818682 2.414566 -0.10454302
-0.11813606 2.4587266 -0.13012518
-0.20483275 2.4146161 -0.15118659
0.060170125 2.3982754 -0.16935547
-0.027514907 2.4111187 -0.19315952
-0.14955595 3.1228914 -0.28018513
-0.20460151 2.4204168 -0.2412525
0.060615934 2.3894317 -0.257211
-0.027065011 2.4659953 -0.2888326
-0.14933226 3.1353998 -0.39732134
-0 0 -0
0.062520072 2.3872466 -0.34599763
-0.02638384 2.5328357 -0.39117438
-0.091547057 1.9377916 -0.31896597
-0.090843029 1.079829 -0.18898962
0.063540436 2.3570435 -0.43118182
-0.0098435124 0.98975211 -0.19067731
-0.041362617 0.88702404 -0.17975953
-0.076540641 0.91325444 -0.19513318
0.053264998 1.9078858 -0.4232727
-0 0 -0
-0 0 -0
-0.076273024 0.90626013 -0.2296063
0.03363198 1.1652856 -0.30496454
-0 0 -0
-0 0 -0
-0.067140013 0.79741061 -0.23491418
0.070664167 2.352196 0.72701478
-0.019610504 2.3791926 0.7066704
-0.11166945 2.4151986 0.69251066
-0.20039195 2.3937943 0.66306567
0.06902457 2.3467438 0.62684077
-0.019041693 2.3859715 0.61085761
-0.10924868 2.4019113 0.5911544
-0.20076038 2.4329259 0.57500505
0.069140032 2.352066 0.53439122
-0.019181341 2.3621402 0.51167911
-0.10836218 2.4027462 0.49699619
-0.19662514 2.4037991 0.47418723
0.068764433 2.357501 0.44436505
-0.018846197 2.3981907 0.42710966
-0.10745304 2.4096856 0.40593788
-0.20123188 2.4717979 0.39349952
0.068274416 2.3337135 0.35134161
-0.017531818 2.3845246 0.3349624
-0.1066005 2.4190271 0.31671655
-0.19694881 2.4461079 0.29757792
0.069687612 2.3678801 0.26785064
-0.017794492 2.4260106 0.25075334
-0.10688861 2.4479067 0.22989005
-0.19791842 2.4732587 0.20957038
0.069977373 2.3650916 0.18048503
-0.016819017 2.3956318 0.15958358
-0.10415764 2.3988123 0.13739385
-0.19249862 2.4156051 0.11521073
0.070930339 2.3720908 0.093697675
-0.015721655 2.4068716 0.07202445
-0.10480468 2.4422357 0.05026561
-0.19271885 2.4312286 0.026604837
0.071587034 2.3829153 0.0067822007
-0.015043071 2.4398968 -0.01665101
-0.10345059 2.4334867 -0.039198264
-0.19374184 2.4555593 -0.063167304
0.071632974 2.3435609 -0.07941895
-0.013956294 2.4067051 -0.104197
-0.1023367 2.4424438 -0.12922776
-0.19087392 2.4267724 -0.15187153
0.074292928 2.3789172 -0.16801752
-0.012704267 2.4082518 -0.19291997
-0.10177094 2.4380975 -0.21868543
-0.19223371 2.4533725 -0.24441515
0.074994259 2.3800712 -0.25624809
-0.011568178 2.3906317 -0.27999198
-0.10381788 2.5028601 -0.31707853
-0.18779674 2.4042895 -0.32936364
0.076495193 2.366046 -0.34298649
-0.010706787 2.5013249 -0.3862904
-0.088893004 2.1631062 -0.35595691
-0.081765704 1.0489372 -0.18349175
0.078164496 2.3615251 -0.43208128
-0.0040957374 1.0752226 -0.20713457
-0.035760581 0.88334394 -0.1789659
-0.070784174 0.91175663 -0.19471668
0 0 -0
-0 0 -0
-0 0 -0
-0 0 -0
0.040578343 1.1592562 -0.30344605
-0 0 -0
-0 0 -0
-0.063813277 0.81789619 -0.24082927
0.084888339 2.345989 0.72524369
-0.0050217803 2.3840611 0.708094
-0.096347362 2.4033508 0.68893105
-0.18651983 2.4055505 0.6659925
0.082564369 2.3221376 0.62039185
-0.0044245189 2.3986373 0.61408174
-0.093211003 2.3695452 0.58303678
-0.18760671 2.4574049 0.58050746
0.083640002 2.3535469 0.53483415
-0.0047433982 2.3905561 0.51781839
-0.091558807 2.3505232 0.48606879
-0.18216798 2.4088738 0.4749589
0.083055109 2.3521245 0.4434393
-0.004174911 2.4238584 0.43166828
-0.092627585 2.4093142 0.40577191
-0.17998534 2.3922276 0.38064927
0.082907371 2.342145 0.35268092
-0.0029063406 2.3895385 0.33565789
-0.090778701 2.3938737 0.31334448
-0.17943372 2.4136105 0.29348502
0.083650135 2.3515191 0.26605299
-0.0028893554 2.4101589 0.24910839
-0.090373367 2.4087193 0.22615349
-0.18193179 2.4634955 0.20864457
0.084203154 2.3566458 0.17987655
-0.0021282076 2.4056678 0.16024823
-0.089325279 2.3964131 0.13722245
-0.17869844 2.4306872 0.11587559
0.085555866 2.3736081 0.093776584
-0.00095386454 2.4089217 0.072084263
-0.089266397 2.427846 0.049957231
-0.17918254 2.451314 0.026812091
0.0860985 2.3794332 0.006773666
-7.1096518e-05 2.4139438 -0.016473582
-0.088480711 2.4330766 -0.039182175
-0.17729342 2.437758 -0.062680215
0.086341403 2.352066 -0.079723626
0.00081325433 2.41274 -0.10445652
-0.08724118 2.440032 -0.12906939
-0.17641285 2.4338706 -0.15224513
0.088590257 2.3704419 -0.16745417
0.0020572853 2.3903418 -0.19148265
-0.086206801 2.4217546 -0.21716803
-0.17724814 2.4554985 -0.244514
0.089259997 2.3706241 -0.25528514
0.0031277318 2.4115152 -0.28243482
-0.085550919 2.4211583 -0.30665576
-0.17567122 2.441962 -0.33437043
0.091620311 2.381355 -0.34528071
0.0045624045 2.4588475 -0.3797276
-0.067967281 1.9446861 -0.3199394
-0.075398535 1.0504017 -0.18366355
0.092923082 2.3678815 -0.43334046
0.0023258571 0.99961782 -0.19256894
-0.031147078 0.90705574 -0.18372774
-0.065537006 0.91705173 -0.19575794
0 0 -0
0 0 -0
-0 0 -0
-0 0 -0
0.089136556 2.1662107 -0.56715816
0 0 -0
-0 0 -0
-0.058380969 0.8125301 -0.23913924
0.098877385 2.3358781 0.72229195
0.0095795989 2.3773367 0.70610094
-0.08055523 2.3731515 0.68011975
-0.17800057 2.4941468 0.69020557
0.096408643 2.3119342 0.61781222
0.010297484 2.3995881 0.61432981
-0.078798853 2.3739548 0.58399183
-0.172116 2.4526839 0.57913184
0.097673394 2.3432462 0.53261954
0.0099410973 2.3944495 0.51866519
-0.076588631 2.3344014 0.48262867
-0.16663612 2.399179 0.47283682
0.097567305 2.3535342 0.4438096
0.01055864 2.3923345 0.42605764
-0.078033589 2.415751 0.4067677
-0.16863818 2.4415665 0.38832808
0.096538126 2.3238077 0.35000232
0.011721545 2.3825796 0.33468416
-0.075710535 2.3824928 0.31178811
-0.16583611 2.4324934 0.29565185
0.098615639 2.3638682 0.2675136
0.011908978 2.4121208 0.24931403
-0.075186141 2.3962917 0.22493914
-0.16775469 2.4784837 0.20982288
0.098369651 2.3491111 0.17934416
0.012585577 2.3966556 0.15965006
-0.07446415 2.3919265 0.13693681
-0.16391492 2.4337311 0.11597057
0.099528775 2.359062 0.093224265
0.013821281 2.4078827 0.072054356
-0.074061692 2.4183547 0.049751643
-0.16367075 2.4453833 0.026735734
0.099808678 2.3578792 0.006713924
0.014758904 2.4168987 -0.016494054
-0.073429145 2.4295762 -0.039117809
-0.16200031 2.4338126 -0.062552035
0.10102853 2.3574831 -0.079926744
0.015559331 2.4036982 -0.10406724
-0.072060883 2.4335341 -0.12869987
-0.16127746 2.4319196 -0.15205833
0.10439107 2.3987544 -0.1694963
0.016870568 2.4112167 -0.19315952
-0.071638808 2.4321938 -0.21806063
-0.16283368 2.4664693 -0.24550234
0.10363018 2.3660586 -0.25485718
0.017946599 2.4144301 -0.28278378
-0.070693359 2.4216378 -0.30665576
-0.16061927 2.4420049 -0.3342351
0.10548034 2.3639402 -0.34284306
0.019302022 2.4152899 -0.37301213
-0.06401813 2.2222285 -0.36552915
-0.068758473 1.0478957 -0.18314815
0.10704894 2.3584228 -0.43172148
0.019037699 2.2495568 -0.43337473
-0.025304651 0.89743245 -0.18174364
-0.058442995 0.89498866 -0.19096813
0 0 -0
0.01025 1.1495301 -0.2662248
-0 0 -0
-0 0 -0
0 0 -0
0 0 -0
-0 0 -0
-0.054023188 0.82244748 -0.24195597
0.11297689 2.330456 0.72081614
0.024098272 2.3705232 0.70410794
-0.066286229 2.384172 0.68314868
-0.15554343 2.3855343 0.65987271
0.11086964 2.3170891 0.61935991
0.024768353 2.375262 0.60812944
-0.065228924 2.4112811 0.59306449
-0.15420315 2.4090106 0.56858552
0.11093127 2.3192253 0.52730435
0.024562595 2.3875024 0.5171833
-0.063177295 2.369091 0.48971123
-0.15346138 2.4246376 0.4776597
0.11238031 2.360744 0.44529083
0.025237529 2.3922246 0.42605764
-0.062719353 2.3974543 0.40361443
-0.15185562 2.41397 0.38378349
0.11121888 2.3320615 0.35134161
0.026198236 2.36959 0.33287582
-0.061522413 2.3997633 0.31399295
-0.15146048 2.4423828 0.29673526
0.11321323 2.3652036 0.26773831
0.026522009 2.3950934 0.24756625
-0.060355771 2.3917315 0.22447206
-0.15291099 2.4854338 0.21032786
0.1124947 2.3424876 0.1788878
0.027165961 2.3855581 0.15891893
-0.059761222 2.3913405 0.13687968
-0.15001585 2.4516401 0.1167779
0.11361587 2.3504221 0.092908643
0.028583642 2.4067531 0.07202445
-0.059172615 2.416765 0.049710531
-0.1498155 2.4653051 0.026942987
0.11446816 2.3612175 0.0067253034
0.029417055 2.4027641 -0.016398516
-0.058351655 2.4229836 -0.039005168
-0.14814857 2.4527223 -0.063013487
0.1155408 2.3578172 -0.0799606
0.030244866 2.3985624 -0.10385097
-0.056869879 2.4229488 -0.12811919
-0.14815038 2.4627512 -0.15392637
0.1175736 2.3671839 -0.16731334
0.031665199 2.411068 -0.19315952
-0.056156646 2.40869 -0.21591841
-0.14722095 2.4594753 -0.24471165
0.1169061 2.3405526 -0.25218233
0.032733973 2.4122884 -0.28255114
-0.055490181 2.4071486 -0.30477211
-0.14592721 2.44789 -0.3349117
0.1208363 2.3800514 -0.34528071
0.033981986 2.4052441 -0.37148589
-0.056218076 2.4800556 -0.40787408
-0.060397949 1.0158457 -0.17747843
0.12091035 2.3459327 -0.42956287
0.032955036 2.2572522 -0.43488804
-0 0 -0
-0.052026458 0.87970847 -0.18763606
0.1101035 2.0970919 -0.46570823
0.017361846 1.1533419 -0.26712725
-0 0 -0
-0 0 -0
0.11782958 2.2045622 -0.5775345
0 0 -0
-0 0 -0
-0.04908976 0.82467914 -0.24251932
0.12727417 2.3297188 0.72081614
0.03878371 2.3789573 0.7066704
-0.052176487 2.4085617 0.69003248
-0.14073271 2.3835573 0.65907454
0.12529334 2.3202245 0.62039185
0.038973186 2.352787 0.60242516
-0.050087202 2.3951311 0.58900559
-0.13964371 2.4137986 0.56950259
0.12573792 2.3292122 0.52974051
0.03884241 2.364831 0.5123142
-0.048559237 2.3655176 0.48890179
-0.13830134 2.4206355 0.47669515
0.12633595 2.3501971 0.4434393
0.039636225 2.3752904 0.42307702
-0.048244551 2.4096248 0.40560594
-0.13676113 2.4099259 0.3829999
0.12552606 2.3313351 0.35134161
0.04092453 2.380276 0.33440593
-0.046757925 2.3981133 0.31373358
-0.137468 2.4611073 0.29890209
0.12702695 2.3515656 0.2662777
0.040995006 2.3819563 0.24622972
-0.045888349 2.4030066 0.2254996
-0.13556455 2.4485183 0.20712961
0.12659612 2.3367751 0.17850752
0.041767996 2.3833516 0.158786
-0.045143563 2.3946567 0.13705108
-0.13337828 2.4235909 0.11540069
0.12781818 2.34569 0.09275084
0.043296654 2.4035342 0.071934715
-0.044379182 2.4190814 0.049751643
-0.13544926 2.4801564 0.027095702
0.12808137 2.3444946 0.006679785
0.044086076 2.3985391 -0.01637122
-0.043375779 2.4172981 -0.038908623
-0.13277127 2.4475958 -0.062859669
0.12912527 2.3410971 -0.07941895
0.044736888 2.3863451 -0.10333194
-0.041949958 2.4202566 -0.12796082
-0.13292879 2.4616203 -0.15380183
0.13031708 2.3345468 -0.16505995
0.046458635 2.4108281 -0.19315952
-0.041187994 2.3980348 -0.21493655
-0.13351457 2.4861677 -0.24728133
0.13210064 2.3546817 -0.25378725
0.047339182 2.402112 -0.2813879
-0.040920481 2.419347 -0.30627903
-0.12989956 2.4299407 -0.33234066
0.13448158 2.3624678 -0.34284306
0.048279084 2.3822646 -0.36797556
-0.040331032 2.4399023 -0.40122217
-0.056103736 1.0525954 -0.18383537
0.13569906 2.3520212 -0.43082207
0.046947166 2.2638795 -0.43621218
-0 0 -0
-0.047610957 0.89856851 -0.19159287
0.11965318 2.0398498 -0.45315081
0.044624653 2.1057839 -0.48777801
-0 0 -0
-0 0 -0
0 0 -0
0 0 -0
-0 0 -0
-0.043824151 0.82113224 -0.24139263
0.14133477 2.3250794 0.71963543
0.052863825 2.3556736 0.69983721
-0.036680549 2.3626976 0.67681557
-0.12671575 2.395927 0.66226745
0.13888943 2.3088033 0.61755425
0.053320929 2.3486297 0.6014331
-0.035160486 2.3798578 0.58518559
-0.12407648 2.4000289 0.56606358
0.14008586 2.3293703 0.52996194
0.05350633 2.3713877 0.51379609
-0.033931054 2.3579376 0.48728296
-0.123446 2.4214387 0.47669515
0.13963749 2.3307397 0.43992141
0.05409766 2.3700814 0.42220035
-0.03334894 2.4019873 0.40427828
-0.12331901 2.4373524 0.38723111
0.1395916 2.3265727 0.35074639
0.054997593 2.3572099 0.33120656
-0.031989515 2.3943892 0.31321478
-0.12157584 2.4460404 0.296976
0.13972262 2.3219776 0.26301944
0.055609647 2.38166 0.24622972
-0.031130014 2.4022474 0.2254062
-0.12181164 2.4751804 0.20931791
0.14069173 2.3319733 0.1782033
0.056037109 2.3680875 0.15778902
-0.030766686 2.4198456 0.13847928
-0.11869996 2.4283545 0.11559065
0.1414223 2.3318954 0.092237964
0.057754032 2.391232 0.071575783
-0.029400893 2.4083116 0.049525503
-0.11969634 2.4699543 0.02697571
0.1425252 2.3446629 0.0066826306
0.058361202 2.3802292 -0.016248383
-0.028471874 2.4115198 -0.038812079
-0.11851896 2.4643407 -0.063269846
0.14373218 2.3442509 -0.079554364
0.059328672 2.3840282 -0.10324542
-0.027098753 2.4204686 -0.12796082
-0.11810828 2.4683712 -0.15417543
0.14587325 2.3536155 -0.16646832
0.060819879 2.3935575 -0.19180207
-0.026682036 2.4171653 -0.21663247
-0.1169338 2.4591088 -0.244514
0.1465462 2.353827 -0.25378725
0.062128693 2.4037619 -0.28162053
-0.025796914 2.39376 -0.30301404
-0.11409771 2.4118879 -0.32976961
0.1490372 2.362586 -0.34298649
0.062765047 2.3769839 -0.36721244
-0.025523385 2.4558911 -0.40381804
-0.050340023 1.0676804 -0.1864125
0.15019092 2.3521259 -0.43100196
0.062235445 2.3155735 -0.44623789
-0.0096731447 0.98889291 -0.20019577
-0 0 -0
0.14694367 2.2670486 -0.50381362
0.040696476 1.4890214 -0.34496418
-0 0 -0
-0 0 -0
0.12303504 1.8708667 -0.4904741
0.060976479 2.1713653 -0.59030163
-0 0 -0
-0.038287129 0.81084275 -0.23829423
0.15527941 2.3194017 0.7181595
0.06693355 2.3418896 0.69585109
-0.022615802 2.4090204 0.69003248
-0.11300229 2.4178433 0.66812116
0.15260585 2.3011594 0.61574852
0.067842565 2.3521316 0.60242516
-0.020657938 2.3916812 0.5880506
-0.11125224 2.4425561 0.57592213
0.15347281 2.3148444 0.52686149
0.067943722 2.3671072 0.51294935
-0.019494712 2.3620183 0.48809239
-0.10819051 2.4133284 0.4749589
0.15361206 2.3249359 0.43899563
0.068411149 2.3618319 0.42079768
-0.018518321 2.3903134 0.40228674
-0.10770357 2.4232631 0.38488045
0.15327702 2.316792 0.34940708
0.069518477 2.3588078 0.33148476
-0.017218431 2.3836334 0.31178811
-0.10630576 2.4407897 0.29625377
0.15377006 2.3181021 0.26268238
0.069870345 2.3693426 0.244996
-0.016389513 2.4023931 0.2254062
-0.10572161 2.4549749 0.20755044
0.15466703 2.3260915 0.17782301
0.071131133 2.3866489 0.15905187
-0.015832843 2.4070103 0.1377366
-0.10337118 2.4190574 0.11511575
0.15559468 2.32899 0.09215907
0.072485805 2.3928311 0.071635611
-0.014605007 2.4054472 0.049463827
-0.10390466 2.4556568 0.026812091
0.15690909 2.3437443 0.0066826306
0.072689116 2.370831 -0.016186967
-0.013651853 2.4076498 -0.038747713
-0.10335392 2.4640226 -0.063244201
0.15730613 2.3313589 -0.079148121
0.073305041 2.362649 -0.10233711
-0.012317258 2.4345696 -0.12869987
-0.10241983 2.4560859 -0.15336595
0.15963387 2.3427241 -0.16576414
0.075096682 2.3801873 -0.190764
-0.011811025 2.4093156 -0.21591841
-0.10118414 2.443872 -0.24293266
0.15990034 2.3370123 -0.25207537
0.076813228 2.40135 -0.2813879
-0.011191461 2.4117305 -0.30527443
-0.10137452 2.4630308 -0.33667085
0.16230035 2.3438556 -0.34040546
0.077220172 2.3726029 -0.36660197
-0.010533642 2.4747496 -0.40690061
-0.040962886 0.99906796 -0.17438589
0.1638647 2.3403661 -0.42902324
0.077025644 2.3328133 -0.44964284
-0.0035945103 0.98599333 -0.19960055
-0 0 -0
0.15794805 2.2252033 -0.49472028
0.06860479 2.0495784 -0.47491798
-0 0 -0
-0 0 -0
0.10057178 1.3982152 -0.36671671
0 0 -0
-0 0 -0
-0 0 -0
0.16790566 2.2964888 0.71137053
0.081401654 2.3443091 0.69670522
-0.0078620389 2.4177661 0.69251066
-0.095740743 2.3587754 0.65162432
0.16811953 2.3194523 0.62090772
0.08183337 2.3390849 0.59920096
-0.0059508933 2.3791389 0.58494681
-0.094423488 2.3965077 0.56491727
0.16760306 2.3128865 0.52663994
0.08209236 2.3559015 0.51062065
-0.0050220089 2.3718865 0.49011597
-0.09338057 2.4139466 0.4749589
0.1677331 2.3219895 0.43862534
0.082521819 2.3505447 0.41886905
-0.0038703503 2.4022157 0.40427828
-0.091509737 2.3893359 0.37939557
0.16734706 2.3138354 0.34910947
0.083779067 2.3523989 0.33065015
-0.0026053479 2.3955929 0.31334448
-0.090139844 2.409651 0.29240161
0.16770338 2.3131506 0.26223299
0.084548719 2.3728456 0.24540724
-0.0016524972 2.4084222 0.22596668
-0.087641649 2.373924 0.20064892
0.16698581 2.2982476 0.17576945
0.085200496 2.370213 0.15798841
-0.0010642897 2.409059 0.13785087
-0.088087931 2.4076679 0.11454587
0.1700276 2.3299844 0.092237964
0.086402267 2.3713644 0.071007483
0.00015500811 2.4084909 0.049525503
-0.088039964 2.4342637 0.026572112
0.17055789 2.3327639 0.0066541815
0.08708778 2.3663428 -0.016159669
0.0011247245 2.4146872 -0.038860351
-0.086981237 2.4296443 -0.062346946
0.17197514 2.3353336 -0.079317391
0.087689273 2.3591597 -0.10220736
0.002597559 2.4126301 -0.1275385
-0.086709298 2.4387145 -0.15224513
0.17230542 2.3188205 -0.16414452
0.089399442 2.3717127 -0.19012518
0.0029294707 2.3744824 -0.21279432
-0.085871346 2.4354963 -0.24204317
0.17187043 2.3042591 -0.24865158
0.091054209 2.3879311 -0.27987567
0.0035801439 2.3938963 -0.30301404
-0.086051717 2.4576652 -0.33585891
0.17660451 2.3418288 -0.34026209
0.091700315 2.3701093 -0.36629671
0.0046031154 2.4491122 -0.40268236
-0.050514907 1.4492319 -0.25290251
0.17777348 2.3334315 -0.42794394
0.091991305 2.3489771 -0.45285863
0.0056481352 2.2679887 -0.45912093
-0 0 -0
0.16776867 2.1745496 -0.4836784
0.068568699 1.7307998 -0.40114215
0 0 -0
-0 0 -0
0.17189676 2.2010064 -0.5775345
0.039274298 0.97289544 -0.26459989
0 0 -0
-0.027932059 0.79974449 -0.23491418
0.18184246 2.2935104 0.7107802
0.095862821 2.3456812 0.69727468
0.0069676978 2.4158461 0.69195992
-0.081796698 2.3747325 0.65588158
0.18159069 2.3087451 0.61832809
0.096223995 2.3395066 0.59944898
0.0086544007 2.381073 0.58542436
-0.081205241 2.441792 0.57546359
0.1820973 2.3157034 0.52752584
0.095985964 2.3416822 0.50765681
0.0096064825 2.3904796 0.49396083
-0.078088433 2.3997638 0.47206512
0.18167013 2.3169975 0.43788472
0.096902356 2.3490102 0.41869369
0.010882827 2.4051528 0.40477616
-0.077704363 2.4165053 0.38362679
0.18154134 2.3127651 0.34910947
0.09738519 2.3320525 0.32786807
0.011998674 2.3767245 0.31088024
-0.073832721 2.3615386 0.28650302
0.18150377 2.3071249 0.26167122
0.098691441 2.3623438 0.24437913
0.013174169 2.4173477 0.2268074
-0.072215632 2.3465297 0.19829232
0.18084937 2.2941978 0.17554127
0.099154793 2.355689 0.1570579
0.013671961 2.4010336 0.13739385
-0.073221914 2.4051678 0.1144034
0.18463625 2.3328817 0.092395775
0.10073844 2.3657966 0.070857935
0.014896034 2.402446 0.049402151
-0.07301192 2.4317596 0.026539387
0.18463114 2.3286829 0.0066456469
0.10121959 2.3567727 -0.016098252
0.015967349 2.4186342 -0.038924716
-0.071775235 2.42014 -0.062090583
0.18566512 2.3262641 -0.079046562
0.10190374 2.3525884 -0.10194783
0.017350713 2.4055786 -0.12716898
-0.071215816 2.4212432 -0.15112431
0.18605006 2.3117537 -0.16372201
0.10312081 2.3521986 -0.18860804
0.01769715 2.4013112 -0.21520431
-0.070520349 2.4220519 -0.24065951
0.15615207 1.9335057 -0.20874321
0.10500162 2.3714516 -0.27801448
0.018374741 2.4077179 -0.30477211
-0.069168732 2.3957524 -0.3273339
0.1578946 1.9352952 -0.28132921
0.10615277 2.3675275 -0.36599144
0.019440679 2.4253566 -0.39878857
-0.02940659 1.0241135 -0.17868111
0.16172838 1.963678 -0.36030754
0.10631374 2.3464067 -0.45248032
0.019192141 2.2247877 -0.45039091
-0 0 -0
0.18200006 2.1841812 -0.48605996
0.097002335 2.1196258 -0.49138784
0 0 -0
-0 0 -0
0.18645482 2.2124426 -0.58082461
0.063134119 1.3572564 -0.36923355
0 0 -0
-0.023107214 0.80277812 -0.23575918
0.1969694 2.3047268 0.71461743
0.10957854 2.3306854 0.69300389
0.021444067 2.3773057 0.68094581
-0.067796774 2.3954244 0.66146916
0.19501847 2.2989233 0.61600649
0.11034838 2.334034 0.5982089
0.023150371 2.3693225 0.58255929
-0.064954773 2.39554 0.56445867
0.195149 2.3009388 0.52442533
0.10984624 2.3303103 0.50532812
0.024264062 2.3893962 0.49375844
-0.06274084 2.3766568 0.46743515
0.19555224 2.3119226 0.4371441
0.11112733 2.3444381 0.41799235
0.025608825 2.4020824 0.40427828
-0.062849812 2.4159491 0.38347006
0.19664651 2.3224463 0.35074639
0.11169256 2.3314109 0.32786807
0.026803546 2.3964357 0.31347418
-0.059765063 2.3788183 0.28854945
0.19632868 2.3138888 0.26257005
0.1127561 2.3527517 0.24345385
0.027833465 2.4022877 0.2254062
-0.058601514 2.3788054 0.20098557
0.195683 2.3019867 0.1762258
0.11303023 2.3430767 0.15626031
0.028286064 2.3909216 0.13682257
-0.058559779 2.4095662 0.11459336
0.1982675 2.32374 0.092080161
0.11457169 2.3511565 0.070439182
0.029636886 2.4023094 0.049402151
-0.058232803 2.4381597 0.026604837
0.19908649 2.3294988 0.0066513363
0.11513915 2.3451207 -0.016023185
0.03065468 2.4064932 -0.03873162
-0.056924183 2.4205348 -0.062090583
0.20070593 2.334043 -0.079351246
0.11623832 2.3499229 -0.10186132
0.031924129 2.3914478 -0.12642995
-0.056311566 2.4196391 -0.15099978
0.20074794 2.3165314 -0.16414452
0.11824844 2.3654594 -0.18972594
0.032283023 2.3902023 -0.21422248
-0.054583292 2.3756814 -0.23601431
0.12951891 1.4897472 -0.16091737
0.1186002 2.3519156 -0.27580431
0.033147875 2.4075599 -0.30477211
-0.055097826 2.423867 -0.33112279
0.1278872 1.4571257 -0.21192893
0.12052668 2.3638706 -0.36553362
0.034280133 2.4222317 -0.39830187
-0.049201358 2.1795382 -0.38021275
0.12597114 1.4227489 -0.26119149
0.12106226 2.3525746 -0.45380446
0.014873311 1.0074526 -0.20396556
-0 0 -0
0 0 -0
0.061013587 1.1752712 -0.272542
0 0 -0
-0 0 -0
0.19732472 2.1813884 -0.57297903
0 0 -0
0 0 -0
-0 0 -0
0.21023525 2.2939603 0.71166569
