# .PCD v0.7 - Point Cloud Data file format
VERSION 0.7
FIELDS x y z
SIZE 4 4 4
TYPE F F F
COUNT 1 1 1
WIDTH 1594
HEIGHT 1
VIEWPOINT 0 0 0 1 0 0 0
POINTS 1594
DATA ascii
0.83740461 -0.11902562 0.017392516
0 -0 0
0.85403943 -0.18570526 0.0024864275
0.84837389 -0.1525491 -0.0058824471
0.82554698 -0.11767833 -0.013420096
0 -0 -0
0.85540915 -0.18647221 -0.029655159
0.84754378 -0.15272054 -0.037284274
0.83827007 -0.12001447 -0.044765171
0.84164113 -0.089197129 -0.052803222
0.83123815 -0.18178071 -0.060066614
0.8259306 -0.14927256 -0.067234531
0 -0 -0
0 -0 -0
0 -0 -0
0.90595692 -0.16414417 -0.10783239
0.89166617 -0.12804034 -0.11402269
0.90049827 -0.095927522 -0.12368052
0 -0 -0
0.90817791 -0.1650705 -0.14255047
0.89659089 -0.12909889 -0.14893731
0.91883802 -0.098027177 -0.16115661
4.2496204 -0.9376545 -0.79580665
0.89261514 -0.16267638 -0.17478754
0.90697682 -0.13115993 -0.18551344
0.91028178 -0.097403586 -0.19492492
3.6343532 -0.80555862 -0.82554418
0 -0 -0
0.88118541 -0.12752438 -0.21518818
0.90915608 -0.096962154 -0.23083021
0 -0 -0
2.8028588 -0.51430076 -0.77439386
0.89336652 -0.12952602 -0.254879
0.89876562 -0.095822275 -0.26533473
0.91931033 -0.20581347 0.29104206
0.8287068 -0.15248771 0.25026724
0.82866251 -0.12016788 0.23983172
0.8099072 -0.086742654 0.22483566
0.88542962 -0.19764419 0.24222367
0.83553141 -0.15396965 0.21750796
0.83792496 -0.12215322 0.20819332
0.81867802 -0.088664927 0.19396102
0 -0 0
0.85352451 -0.15716216 0.18798968
0.85079408 -0.12436292 0.17767209
0.81448829 -0.088800885 0.16108476
0 -0 0
0.84813052 -0.15639852 0.15359116
0.83714288 -0.1228003 0.14239357
0.82077253 -0.089804947 0.13100979
0.85029519 -0.18966132 0.13110207
0.83451861 -0.15432523 0.11921211
0.82402277 -0.12131649 0.10894427
0 -0 0
0.84469354 -0.18856663 0.097859867
0.82944036 -0.15340109 0.087182797
0.83228385 -0.12287408 0.078934208
0 -0 0
0.83104092 -0.18565591 0.064953312
0.83294779 -0.15432042 0.056429181
0 -0 0
0 -0 0
0.86687678 -0.19394764 0.03507252
0.82943094 -0.15408814 0.025244448
0.83665848 -0.12416159 0.017392516
0 -0 0
0.85288393 -0.19094205 0.0024864275
0.84250647 -0.15683673 -0.0058483263
0.83074325 -0.12362461 -0.013516643
0 -0 -0
0.84937298 -0.19062312 -0.029485893
0.8475728 -0.15810129 -0.037327524
0.84146845 -0.1257461 -0.044976328
0 -0 -0
0.85443616 -0.19235474 -0.061827064
0.81716061 -0.15287118 -0.066595718
0.82251436 -0.12304576 -0.07453157
0 -0 -0
0 -0 -0
0.8941946 -0.16768624 -0.10655284
0.88792038 -0.13306798 -0.11364596
0.89398533 -0.10078509 -0.12286861
0 -0 -0
0.90229172 -0.16972639 -0.14178735
0.8938303 -0.1343046 -0.14861283
0.91528255 -0.10333167 -0.16064119
4.3253245 -0.98222822 -0.81109679
0 -0 -0
0.91196984 -0.13759993 -0.18670389
0.90189201 -0.1021069 -0.1932589
1.224058 -0.27920446 -0.278429
0 -0 -0
0.87942517 -0.13278371 -0.21495324
0.90950751 -0.10264755 -0.231075
0 -0 -0
2.9342763 -0.55704665 -0.81163192
0.88494259 -0.13385375 -0.25270522
0.86764997 -0.097892806 -0.25632122
0.95527273 -0.22002847 0.30284902
0.8202219 -0.1561356 0.24798949
0.82981056 -0.1255378 0.24038242
0.81606448 -0.092470258 0.22669822
0.92280746 -0.21194024 0.25279999
0.8555066 -0.16308442 0.22296426
0.84484005 -0.12846015 0.21010335
0.82488787 -0.094461754 0.19556591
0 -0 0
0.84294331 -0.16056752 0.18587267
0.85195124 -0.12987614 0.17807682
0 -0 0
0 -0 0
0.84812194 -0.16178408 0.15376648
0.83539885 -0.12778549 0.14222762
0 -0 0
0.84622401 -0.19421147 0.13065563
0.84133714 -0.16093121 0.12032494
0.82130271 -0.12606943 0.10868488
0 -0 0
0.85126823 -0.19552554 0.098758698
0.83043748 -0.15886134 0.087388419
0.83151424 -0.12797856 0.078934208
0 -0 0
0.83182967 -0.19119832 0.065105431
0.82218564 -0.15755054 0.055764526
0.832784 -0.12838231 0.048216384
0 -0 0
0.85788035 -0.19746991 0.034756906
0.83534098 -0.16049469 0.025453821
0.84082109 -0.13005704 0.01749531
0 -0 0
0.84292597 -0.1941516 0.0024608239
0.84643799 -0.16294847 -0.0058824471
0.83194518 -0.1290261 -0.013548826
0 -0 -0
0.8413707 -0.19425733 -0.029248921
0.84756774 -0.16348815 -0.037370779
0.83969426 -0.13075323 -0.044923536
0.83949202 -0.099401288 -0.052740954
0.85032445 -0.1969187 -0.061615814
0.83773792 -0.16204707 -0.068352446
0.82371211 -0.12839709 -0.074710086
0.83203584 -0.098768763 -0.083217785
7.6274323 -1.7686102 -0.84256935
0.89314884 -0.17316976 -0.10655284
0.89982986 -0.14050335 -0.11527845
0.89630169 -0.10661969 -0.12327457
0 -0 -0
0.91093445 -0.17714609 -0.14331359
0.89591402 -0.14024432 -0.14909954
0.91463125 -0.10894579 -0.16064119
1.2548622 -0.29307202 -0.23564798
0 -0 -0
0.91014016 -0.14304091 -0.18650548
0.90221971 -0.10775487 -0.19346716
0 -0 -0
3.4525847 -0.67472661 -0.81469303
0.87859386 -0.13817726 -0.21495324
0.90789777 -0.1081116 -0.23083021
1.1554319 -0.2721692 -0.31053239
2.8834558 -0.56575072 -0.79851991
0.8917098 -0.14047924 -0.254879
0.88704145 -0.10559665 -0.26223633
0.95855331 -0.22698659 0.3043249
0.85687178 -0.16856685 0.25937822
0.82427657 -0.12987889 0.23900566
0.82792455 -0.098963104 0.23015723
0 -0 0
0.86019272 -0.16945408 0.22445235
0.8382811 -0.13273038 0.20867082
0.82332641 -0.099404722 0.19533664
8.2711544 -1.9529794 1.9300536
0.85440838 -0.16819067 0.18862478
0.85500711 -0.13571526 0.17888626
0.82015568 -0.099617399 0.16243517
0 -0 0
0.8480792 -0.16717541 0.15394181
0.84044224 -0.13383952 0.14322338
0.8284322 -0.10094549 0.13242018
0 -0 0
0.85199159 -0.16839467 0.12199418
0.82247198 -0.13141938 0.10894427
0 -0 0
0.85875607 -0.20280056 0.099769883
0.82651967 -0.16337517 0.087079987
0.83071333 -0.13307823 0.078934208
0 -0 0
0 -0 0
0.8280549 -0.16394897 0.056229781
0.83592367 -0.13412242 0.048444897
0 -0 0
0.84109473 -0.19904824 0.034125682
0.84316432 -0.16736875 0.025723014
0.83803308 -0.134896 0.017454192
0 -0 0
0.8426919 -0.19955046 0.0024636688
0.8513068 -0.16930939 -0.0059233923
0.83409911 -0.13460629 -0.013597099
0 -0 -0
0.85474908 -0.20287833 -0.029756717
0.85144764 -0.16966183 -0.037587043
0.83986199 -0.13606274 -0.044976328
0 -0 -0
0.81998813 -0.19520222 -0.059503268
0.83966023 -0.16777019 -0.06859199
0.82094246 -0.13313001 -0.07453157
0 -0 -0
7.6483536 -1.8229853 -0.84610015
0.91349471 -0.18293738 -0.10911196
0.90188855 -0.14649916 -0.11565518
0.89857996 -0.1124865 -0.12368052
0 -0 -0
0.9117682 -0.18312135 -0.14361884
0.9018541 -0.14684901 -0.15023524
0.90514821 -0.11345314 -0.15909491
1.2195622 -0.29273045 -0.22935204
4.1864753 -0.84287262 -0.82267421
0.9111799 -0.14893894 -0.1869023
0.90057111 -0.11316682 -0.1932589
1.0221783 -0.24639057 -0.23317887
3.3987217 -0.68587738 -0.80296111
0.87101465 -0.14246729 -0.2133088
0.9120276 -0.11428308 -0.23205414
3.0380883 -0.73534518 -0.81770992
2.9262738 -0.59282124 -0.81136966
0.87183678 -0.14283612 -0.24944448
0.87590402 -0.10972551 -0.25913793
0.95807093 -0.23308976 0.30462009
0.88494366 -0.17973623 0.26820448
0.82441276 -0.13508958 0.23928101
0.8225196 -0.10343989 0.22882684
0 -0 0
0.89426172 -0.18187255 0.23362884
0.84511632 -0.13913345 0.21058086
0.83911633 -0.10653888 0.1992342
8.2940798 -2.0122004 1.9382478
0.84857148 -0.17245683 0.18756628
0.85222578 -0.14064002 0.17848153
0.82926208 -0.10589075 0.16436432
8.2564878 -2.001097 1.6006399
0.84993172 -0.17296498 0.15446782
0.83084917 -0.13754432 0.14172974
0.81996012 -0.10502294 0.1311665
0 -0 0
0.85191262 -0.17381719 0.12213328
0.82654089 -0.13727579 0.10959275
0 -0 0
0 -0 0
0.83329856 -0.17003448 0.087902464
0.8318454 -0.13849993 0.079121031
0.8132903 -0.10530863 0.069267638
0 -0 0
0.82605582 -0.16882694 0.056163318
0.8331154 -0.13892061 0.048330639
0 -0 0
0.85830528 -0.20869078 0.034875263
0.83624625 -0.17133541 0.025543552
0.84014791 -0.14053036 0.017515868
0 -0 0
0.83465004 -0.20306259 0.0024437543
0.84535414 -0.17352436 -0.0058892714
0.83424354 -0.13988703 -0.013613191
0.82967699 -0.10837289 -0.021457398
0.8690238 -0.21190743 -0.030298363
0.84941202 -0.17468178 -0.037543792
0.83802652 -0.14104773 -0.044923536
0 -0 -0
0.8546266 -0.20899735 -0.062108736
0.82104218 -0.16929565 -0.067154676
0.82011014 -0.13816471 -0.07453157
0.8287878 -0.10871284 -0.083020113
7.6573043 -1.8748459 -0.84834701
0.90943706 -0.18793605 -0.10876299
0.90488571 -0.15269056 -0.11615749
0.89296108 -0.11735246 -0.12300393
0 -0 -0
0 -0 -0
0.90871954 -0.15369636 -0.15153316
0.90736514 -0.11939043 -0.15961033
1.2855545 -0.3169255 -0.2421238
4.099504 -0.85156912 -0.80659539
0.90735 -0.15403491 -0.18630707
0.90082943 -0.11881838 -0.19346716
3.5206168 -0.8715173 -0.80432642
3.4068482 -0.70930004 -0.80589414
0.88066524 -0.14959969 -0.21589294
0.90458012 -0.11899186 -0.23034066
3.0635633 -0.76144016 -0.82580858
2.9282489 -0.61194974 -0.8129431
0 -0 -0
0.89709467 -0.11797533 -0.26561639
0.95013398 -0.23734312 0.30255386
0.89602131 -0.18771808 0.27190581
0.81977755 -0.13950045 0.23817961
0.83333737 -0.10999857 0.23201977
7.0171871 -1.7482073 1.9308243
0.86658156 -0.18178724 0.22668447
0.84233236 -0.14398913 0.21010335
0.83844686 -0.11168559 0.1992342
8.2957706 -2.0665898 1.9415697
0.85706276 -0.17966551 0.18968327
0.85231203 -0.14603192 0.17868389
0.83734953 -0.11214931 0.16610058
8.2974567 -2.0650105 1.6110084
0.83729225 -0.17574987 0.15236382
0.84845537 -0.14581321 0.14488298
0.82223684 -0.1104466 0.13163663
8.2571335 -2.0557404 1.2805145
0.84792292 -0.17842941 0.12171598
0.825683 -0.14234476 0.10959275
0 -0 0
0 -0 0
0.85073376 -0.17903639 0.08985585
0.8339231 -0.14411005 0.07940127
0 -0 0
0 -0 0
0.83672041 -0.17636183 0.056960907
0.83224732 -0.14402989 0.048330639
0 -0 0
0.83761925 -0.20911273 0.034086231
0.83909106 -0.17728981 0.025663195
0.83828473 -0.14551178 0.01749531
0 -0 0
0 -0 0
0.84720844 -0.17932934 -0.0059097442
0.83829486 -0.14586021 -0.013693647
0.83493906 -0.114275 -0.021611216
0.87837172 -0.2199056 -0.030670745
0.84441489 -0.1790614 -0.037370779
0.84304762 -0.14721781 -0.045240276
0.84147537 -0.11537907 -0.052990023
0.83881581 -0.21059382 -0.061052468
0.83168817 -0.17681776 -0.068112887
0.81924695 -0.14319421 -0.07453157
0.83303434 -0.1144735 -0.083514281
7.7006192 -1.9356104 -0.85444558
0 -0 -0
0.8941595 -0.15652925 -0.11490172
0.88535345 -0.12188348 -0.12205671
0 -0 -0
0 -0 -0
0.90678746 -0.15909874 -0.15137093
0.89392877 -0.12320711 -0.15737683
4.2436528 -1.0738437 -0.80048358
4.0826797 -0.87423986 -0.8043254
0.90349197 -0.15908951 -0.18571185
0.90008342 -0.12434353 -0.19346716
3.5530517 -0.90271914 -0.81298673
3.3681407 -0.72283161 -0.79777199
0 -0 -0
0.90479344 -0.12467236 -0.23058543
3.0175865 -0.76970249 -0.81467295
2.9612303 -0.63783026 -0.82317048
0 -0 -0
0.89730448 -0.12360853 -0.26589808
0 -0 0
0.95482183 -0.20616071 0.29012778
0.82174623 -0.14502913 0.23900566
0.83073705 -0.11484575 0.23148762
6.9988399 -1.7893165 1.9287606
0.90900642 -0.19651753 0.23809309
0.84238917 -0.14932436 0.21034211
0.85606247 -0.11938246 0.2035903
8.3046637 -2.1230078 1.9466633
0.8311066 -0.17955495 0.18417908
0.85043573 -0.15108755 0.17848153
0.85122132 -0.11932837 0.16899431
8.2979603 -2.1192884 1.6136005
0.85159415 -0.18421453 0.15516914
0.85434061 -0.15222739 0.1460447
0.82838988 -0.11645209 0.13273361
8.3018484 -2.1210532 1.289443
0.84100538 -0.18236962 0.12088135
0.83065057 -0.14845505 0.11037092
0.8305831 -0.11751443 0.10172061
0 -0 0
0.84670293 -0.18362059 0.089547426
0.83498329 -0.14957531 0.0795881
0.83660072 -0.11878289 0.071371764
0 -0 0
0.83269733 -0.1808572 0.056761507
0.83331329 -0.14948632 0.048444897
0.81980366 -0.11667534 0.039369207
0 -0 0
0.84189415 -0.18328556 0.025782837
0.84229612 -0.15153781 0.017598104
0 -0 0
0 -0 0
0.83925307 -0.1830328 -0.0058619748
0.84230417 -0.15188836 -0.013774103
0 -0 -0
0 -0 -0
0.85989302 -0.18786435 -0.038106084
0.8431111 -0.1525657 -0.045293063
0.83976358 -0.12039845 -0.052927755
0 -0 -0
0.83545619 -0.18298391 -0.068512142
0.83207375 -0.15070342 -0.075781196
0.83921123 -0.12057338 -0.084206112
7.7107415 -1.9885348 -0.85690647
0 -0 -0
0.90196764 -0.16360633 -0.1160319
0.89635724 -0.12900737 -0.12368052
0 -0 -0
0 -0 -0
0.90967757 -0.16536564 -0.15201989
0.90485668 -0.13037571 -0.15943852
4.236032 -1.0996149 -0.80030376
4.059978 -0.89546734 -0.80092043
0.89767778 -0.1637508 -0.18471979
0.90607977 -0.13084252 -0.19492492
3.5379987 -0.92204118 -0.81082165
3.3674471 -0.74432552 -0.79867446
0 -0 -0
0.90209216 -0.12994525 -0.23009588
2.9912801 -0.78257179 -0.80885202
2.9431293 -0.65285331 -0.81923687
2.7662234 -0.50565112 -0.79398346
0.88893139 -0.12801778 -0.2636447
5.9425569 -1.5621673 1.8982671
0.9526031 -0.21180743 0.28984305
0.86150473 -0.15750282 0.25084582
0.83097076 -0.12007876 0.23175369
6.9578233 -1.8243854 1.920506
0.92196757 -0.20524907 0.24181329
0.84050196 -0.15431499 0.21010335
0.85146105 -0.1240715 0.20267323
8.2943106 -2.1746664 1.9473277
0 -0 0
0.85045582 -0.15648009 0.17868389
0.84658968 -0.1239804 0.16822265
8.3028622 -2.174895 1.6171185
0.84276015 -0.18772392 0.15376648
0.85532999 -0.15782453 0.14637661
0.82863688 -0.12167629 0.13289031
8.3212013 -2.180475 1.2945026
0.84180355 -0.18795811 0.12115956
0.84044904 -0.15553381 0.11179758
0.82591814 -0.12202819 0.10123909
7.8354716 -2.0546565 0.91590542
0.83488154 -0.18642786 0.088416517
0.82719719 -0.15342487 0.078934208
0 -0 0
7.7860422 -2.0430021 0.61401415
0.83157194 -0.18596312 0.056761507
0.83826983 -0.15569046 0.048787665
0.82697648 -0.12287781 0.039749127
0 -0 0
0.83782756 -0.18779202 0.025693106
0.84331614 -0.15706931 0.01763922
0.84066701 -0.12527198 0.0092718778
0 -0 0
0.83616287 -0.18774077 -0.0058483263
0.84233922 -0.15723725 -0.013790195
0 -0 -0
0 -0 -0
0.85287583 -0.19182166 -0.037846565
0.84510374 -0.15828758 -0.045451432
0 -0 -0
0 -0 -0
0.83529007 -0.18832596 -0.06859199
0.82428074 -0.15452148 -0.075156383
0.83451921 -0.12513018 -0.083810784
7.6983948 -2.0358095 -0.85690647
0 -0 -0
0.8980217 -0.16858849 -0.11565518
0.90436709 -0.13582933 -0.12489838
0 -0 -0
0 -0 -0
0.94355637 -0.17751196 -0.15786058
0.89722043 -0.13490006 -0.15823586
0 -0 -0
4.0429163 -0.91775352 -0.79865044
0 -0 -0
0.90429276 -0.13625394 -0.19471668
2.9644697 -0.7920298 -0.68048394
1.3631756 -0.31009531 -0.32375643
3.2550755 -0.61479181 -0.80061281
0.89264858 -0.13418081 -0.22789283
2.9069958 -0.7796104 -0.78733999
1.1750628 -0.26823103 -0.32753742
2.8027844 -0.53012675 -0.80539596
0.89856654 -0.1350383 -0.26674306
5.9568458 -1.6050637 1.9059417
0.95782685 -0.21914512 0.29183611
0.8756355 -0.16564497 0.25525144
0.82449925 -0.12431295 0.23015723
6.9353018 -1.8640342 1.9174105
0 -0 0
0.84335536 -0.16019417 0.21105836
0.86223143 -0.13104875 0.20542444
8.2695103 -2.222481 1.9446701
0 -0 0
0.85236579 -0.16224481 0.17929098
0.85260284 -0.13020958 0.16957305
8.3244781 -2.2352288 1.6239692
0 -0 0
0.85337687 -0.16288489 0.14621066
0.82689846 -0.12660894 0.13273361
8.3468218 -2.2420094 1.300604
0.83966929 -0.19289805 0.12102046
0.84824377 -0.1623655 0.11296484
0.83005965 -0.12784924 0.10184099
7.8275151 -2.1039851 0.91646725
0.82596642 -0.18976526 0.08759404
0.83210701 -0.159623 0.079494685
0.82917154 -0.12812729 0.070866778
7.8263192 -2.1049819 0.61819732
0.83333242 -0.19173323 0.056960907
0.83729875 -0.16083105 0.048787665
0.82916826 -0.12840834 0.039891597
7.824914 -2.1072402 0.31995293
0.83471161 -0.19248012 0.025633285
0.83939129 -0.16167358 0.017577544
0.83889443 -0.13027442 0.0092609702
7.8413053 -2.1128287 0.023103295
0.82817483 -0.19129248 -0.0058005569
0.84626734 -0.1633503 -0.013870651
0.84257191 -0.13116179 -0.021867575
0 -0 -0
0.85362947 -0.1975016 -0.03793307
0.84509695 -0.16365993 -0.04550422
0 -0 -0
0 -0 -0
0.84674227 -0.19637528 -0.069630057
0.83016175 -0.16090289 -0.075781196
0.83766842 -0.13086271 -0.084206112
7.6857586 -2.0830076 -0.85690647
7.5643678 -1.7577959 -0.90953773
0.91060507 -0.17674187 -0.11741324
0.90351665 -0.14137585 -0.12489838
0 -0 -0
0.96828508 -0.22557865 -0.15353937
0 -0 -0
0.89832228 -0.14070766 -0.15857948
0 -0 -0
1.3664546 -0.31901804 -0.27031535
0 -0 -0
0.90633839 -0.14225498 -0.19534142
1.2194154 -0.33382592 -0.28037757
1.2009331 -0.28094944 -0.28562763
3.2474256 -0.63400793 -0.79967308
0.88127148 -0.13800541 -0.22520021
1.4198277 -0.39012942 -0.38519174
0 -0 -0
2.7834222 -0.54417521 -0.80077654
0.89961702 -0.1408461 -0.26730642
5.9478059 -1.6418382 1.9062368
0.95833045 -0.22545716 0.29240552
0.88120693 -0.17230602 0.2571789
0.82657778 -0.12981832 0.23095545
6.9144187 -1.9039882 1.9148309
0 -0 0
0.85664994 -0.16817187 0.21463968
0.8508358 -0.13466306 0.2029025
8.249136 -2.2713678 1.9431199
8.2718515 -1.9471053 1.8407323
0.85135424 -0.16747178 0.17929098
0.8595401 -0.13667126 0.17111638
8.3276606 -2.2909567 1.6273018
0 -0 0
0.85526383 -0.16869053 0.14670853
0 -0 0
8.3433952 -2.2960684 1.3022408
0.84039736 -0.19850181 0.12129866
0.85014963 -0.16814432 0.11335392
0.82827938 -0.13278285 0.10172061
7.8431978 -2.1598887 0.91983777
0.84608376 -0.19986053 0.08985585
0.84087831 -0.1666614 0.080428816
0.83328879 -0.13400364 0.071287602
7.8372884 -2.159586 0.62009883
0.83990824 -0.19868037 0.057492629
0.83727539 -0.16615993 0.048844796
0.83033711 -0.13381144 0.039986577
7.8465137 -2.1647804 0.32137319
0.8393504 -0.1989816 0.025812747
0.83642238 -0.16643071 0.017536428
0.84005356 -0.13573833 0.0092827864
7.8542204 -2.1680868 0.023180107
0.83768773 -0.19891174 -0.0058756233
0.84721017 -0.16893086 -0.013902833
0.84767216 -0.13728818 -0.022021392
7.887145 -2.1816204 -0.27718771
0.8650369 -0.20574087 -0.038495362
0.84505606 -0.16903813 -0.045557007
0.84528667 -0.13711381 -0.053425901
7.8946624 -2.1893373 -0.57834363
0.86491406 -0.20619018 -0.071227074
0.83599526 -0.16736226 -0.076406017
0.83390301 -0.1355212 -0.083909616
7.6804962 -2.1322551 -0.85776234
7.526391 -1.7977163 -0.9062807
0.90853065 -0.1821309 -0.11728766
0.89383078 -0.14548451 -0.12368052
0 -0 -0
1.3811238 -0.33070382 -0.21932015
0 -0 -0
0.91299903 -0.14875165 -0.16132842
2.9493198 -0.82383603 -0.55997872
1.1181217 -0.26828638 -0.22151104
4.0296259 -0.81197989 -0.83213192
0.89676082 -0.14639524 -0.19346716
0 -0 -0
3.3493872 -0.80527222 -0.79777199
3.3587682 -0.6771664 -0.8280986
0.8871069 -0.14450134 -0.22691369
1.5161227 -0.42661083 -0.41201848
2.8649471 -0.6910761 -0.80088007
2.8064446 -0.56657624 -0.8083849
0.89778882 -0.14620917 -0.26702476
5.9394588 -1.6788223 1.9068272
0.94667947 -0.22885536 0.28927362
0.91688389 -0.18513019 0.26791763
0.83527911 -0.13644166 0.23361623
6.9156241 -1.9500494 1.9184422
7.276474 -1.7610701 1.9166493
0.86511916 -0.17535409 0.2170272
0.85863751 -0.14130367 0.20496592
8.2425537 -2.3240581 1.9448917
8.2844467 -2.0037978 1.8462366
0.83495516 -0.16957384 0.17605323
0.85868531 -0.14194272 0.17111638
8.3323641 -2.3473403 1.6310048
8.2940207 -2.0084119 1.519781
0.85517895 -0.1741319 0.1468745
0.842821 -0.1396528 0.1355544
8.3453302 -2.3517792 1.3047706
0 -0 0
0.84618741 -0.17276253 0.11296484
0.8303867 -0.13835202 0.10208175
7.8604016 -2.2166033 0.92343318
0 -0 0
0.83106101 -0.17002179 0.0795881
0.83343369 -0.13927832 0.071371764
7.8622751 -2.2184649 0.62314111
0.81152546 -0.19723222 0.055631593
0.83917427 -0.17189527 0.049016181
0 -0 0
7.8792386 -2.225924 0.32326686
0.83422899 -0.20318188 0.025693106
0.84028214 -0.1725654 0.01763922
0.84512174 -0.1418836 0.0093482351
7.8773365 -2.2265744 0.023288213
0.85393822 -0.20831376 -0.0059984587
0.8393023 -0.17271532 -0.013790195
0.8468138 -0.14248681 -0.022021392
7.8966889 -2.2365103 -0.27800021
0.87152237 -0.2129418 -0.038841389
0.8449809 -0.174422 -0.045609795
0.84442943 -0.1422978 -0.053425901
7.8954744 -2.2418239 -0.57939988
0 -0 -0
0.83592802 -0.17269018 -0.076495275
0.83305579 -0.14063539 -0.083909616
7.7810779 -2.2116907 -0.87049454
7.6628027 -1.8800733 -0.92407829
0.91808271 -0.18991274 -0.118669
0.89585209 -0.15146174 -0.12408648
7.6766992 -2.1888297 -1.1565756
0 -0 -0
4.7615175 -0.98686457 -0.79952407
0.90429854 -0.15303588 -0.15995395
2.9338059 -0.83894223 -0.55800003
0 -0 -0
3.9545169 -0.82212663 -0.81764799
0.89584565 -0.1518949 -0.19346716
2.940943 -0.84403795 -0.67853534
3.4162645 -0.84355778 -0.8149187
3.2727084 -0.68073922 -0.8078953
0 -0 -0
1.5218434 -0.43831536 -0.41429624
1.374125 -0.34039882 -0.38470569
2.7991467 -0.58300066 -0.807298
0 -0 -0
5.9299636 -1.7155 1.9071224
0.95270044 -0.23650748 0.29155138
0.95619977 -0.19918257 0.27975777
0.8315751 -0.14108057 0.23281801
6.9230223 -1.9980723 1.9238595
7.2674117 -1.806152 1.9171455
0.83931327 -0.17549171 0.2108196
0.85871375 -0.14673346 0.20519517
8.2412548 -2.3783751 1.9479922
8.2833776 -2.0574195 1.8487769
0.8319819 -0.17429224 0.1756485
0.84812742 -0.14554922 0.16918722
8.3612404 -2.4109471 1.6395218
8.2863178 -2.0604532 1.5206577
0.85312933 -0.17917323 0.14670853
0.84000152 -0.14448677 0.13524097
8.3573465 -2.4106145 1.3089373
8.2665577 -2.0599828 1.1967115
0.86063582 -0.18122029 0.11503996
0.8314786 -0.14378288 0.1023225
7.8581085 -2.2680986 0.92478132
0 -0 0
0.82805377 -0.17470679 0.07940127
0.83649057 -0.14507063 0.071708426
7.8782105 -2.2752414 0.62549883
0 -0 0
0.84005737 -0.17745379 0.049130436
0.83256894 -0.14467493 0.040176537
7.8923092 -2.2819996 0.32437149
0.80872428 -0.2022346 0.024945343
0.84018558 -0.17792515 0.017659778
0.84916079 -0.14792453 0.0094027752
7.8913832 -2.2829258 0.023370713
0.84488386 -0.21160594 -0.005943865
0.83627051 -0.17744684 -0.013758011
0.84887791 -0.14819585 -0.022098301
7.9010549 -2.2902076 -0.27864337
0.84597331 -0.21220835 -0.037760057
0.84780169 -0.18043491 -0.045820951
0.84354043 -0.14747645 -0.053425901
7.8997703 -2.295516 -0.58073783
0 -0 -0
0.83874929 -0.17864604 -0.076852314
0.82923657 -0.14522928 -0.083613113
7.8189139 -2.2743886 -0.87627214
7.4324918 -1.8719903 -0.89767271
0 -0 -0
0.89783359 -0.1574692 -0.12449242
7.8778372 -2.2985392 -1.1889815
0 -0 -0
4.7457228 -1.0140003 -0.79790163
0.90819395 -0.15943335 -0.16081299
2.9871371 -0.87405539 -0.56915283
4.1286511 -1.0443883 -0.82040435
3.9647315 -0.84966171 -0.82082248
0 -0 -0
2.95257 -0.86701864 -0.68243253
3.4894061 -0.88436908 -0.83364463
3.296032 -0.70671707 -0.81470805
0 -0 -0
1.5079895 -0.4443635 -0.41125926
1.3486292 -0.34287935 -0.37814966
2.7983396 -0.60077095 -0.80811322
0 -0 -0
5.9110804 -1.7494129 1.9044658
0.94844449 -0.24163868 0.29069722
0.9286418 -0.19939508 0.27204791
0.82784569 -0.14567918 0.23201977
6.9180455 -2.0427024 1.9259232
7.2627635 -1.8523859 1.9188815
0 -0 0
0.85971409 -0.15233932 0.20565371
8.2208939 -2.4272408 1.9466633
8.2904863 -2.1132762 1.8532226
0.83951211 -0.18125397 0.17746973
0.85108256 -0.15143807 0.16995889
8.3679676 -2.4686007 1.6437804
8.2849665 -2.1141794 1.5227616
0.84333956 -0.18252714 0.1452149
0.85076684 -0.15171891 0.1371215
8.3793869 -2.4727643 1.3147408
8.2854223 -2.118763 1.2013019
0.84884864 -0.18418482 0.11361331
0.84035224 -0.15063359 0.10352629
7.8726339 -2.3247149 0.92815197
0 -0 0
0.84447843 -0.18359154 0.081082709
0.82871956 -0.14896646 0.071119271
7.8803582 -2.3283415 0.62679183
0 -0 0
0.84675694 -0.1843036 0.049587466
0 -0 0
7.8982806 -2.3363349 0.32519999
0 -0 0
0.83810127 -0.18286395 0.01763922
0.84823716 -0.1531321 0.0094027752
7.8964052 -2.3369794 0.023427611
0 -0 -0
0.83516598 -0.18257476 -0.013758011
0.85778964 -0.15518129 -0.022354661
7.9069762 -2.3446114 -0.2793543
0.85239559 -0.21938732 -0.038106084
0.85643297 -0.18777215 -0.046348844
0.83770925 -0.15175997 -0.05311456
7.9017906 -2.3487763 -0.58193493
7.8655415 -2.0288041 -0.65070564
0.83861023 -0.18400261 -0.076941572
0.83910018 -0.1522691 -0.084700279
7.8248234 -2.3282764 -0.878519
7.3025851 -1.8869963 -0.88336486
0 -0 -0
0.9202466 -0.16722678 -0.12774006
2.973027 -0.88727963 -0.44952449
0 -0 -0
4.7211013 -1.0390705 -0.79481906
0.92658317 -0.16852862 -0.16424917
3.6291389 -1.0861276 -0.69273311
3.9700906 -1.0302383 -0.79013801
3.9393446 -0.86953646 -0.81665593
0 -0 -0
3.5418694 -1.0637152 -0.82013148
3.5065427 -0.91164619 -0.83905935
3.2166512 -0.71036869 -0.79614925
0 -0 -0
1.4024154 -0.42262307 -0.38316709
1.3623742 -0.3552877 -0.38260776
2.7805054 -0.61481327 -0.80403727
2.7386463 -0.49791241 -0.81712949
5.9020643 -1.7862033 1.9050562
6.2492738 -1.6330489 1.9184308
0.9780888 -0.21629871 0.28691694
0.85917914 -0.15663409 0.24106641
6.8942823 -2.0817609 1.9228277
7.2587585 -1.8988758 1.9208657
0 -0 0
0.85206157 -0.15638161 0.20404884
8.1955776 -2.4745371 1.9442272
8.3000565 -2.1700389 1.8583035
0 -0 0
0.84724241 -0.15612391 0.16938013
8.3677158 -2.5244403 1.6467427
8.3118401 -2.1754448 1.5301255
0.84701627 -0.18877089 0.1460447
0.85856086 -0.15855047 0.13853189
8.3867769 -2.5309894 1.3183123
8.3077068 -2.1788566 1.2064488
0.84770256 -0.1893898 0.11361331
0.85112488 -0.15796083 0.10497085
7.8772459 -2.3787215 0.930399
7.8329105 -2.0544782 0.83697546
0.8355633 -0.1870299 0.080335401
0.82289177 -0.15313706 0.070698448
7.8831043 -2.3818419 0.62816095
7.8449965 -2.0602825 0.54029781
0.84366173 -0.18905911 0.049473207
0.83465868 -0.15561323 0.040366497
7.9201403 -2.3957477 0.32669914
0 -0 0
0.8350125 -0.18756478 0.017598104
0.84728158 -0.1583339 0.0094027752
7.9125447 -2.3946559 0.023518646
0 -0 -0
0.83402997 -0.18769582 -0.013758011
0.85878652 -0.16080964 -0.022405932
7.9240036 -2.4026535 -0.28047144
0 -0 -0
0.84162724 -0.18994577 -0.045609795
0.83970523 -0.15744901 -0.053301364
7.9311333 -2.4105604 -0.5851742
7.8596902 -2.0788121 -0.65126461
0 -0 -0
0.82739198 -0.15539435 -0.083613113
7.6344156 -2.3227062 -0.85872525
7.7382684 -2.0503101 -0.93757188
6.0797601 -1.37481 -0.78899187
0.92017692 -0.17305328 -0.12787537
7.7714171 -2.3713543 -1.1772236
0 -0 -0
4.7415829 -1.0741233 -0.79936177
0.91972291 -0.17311749 -0.16321832
4.2159505 -1.2899865 -0.8062399
1.4120128 -0.37567952 -0.28147602
3.9368024 -0.89434278 -0.81725109
0 -0 -0
3.4718127 -1.0659428 -0.80540895
2.9727855 -0.79238272 -0.71248978
1.4549354 -0.33068505 -0.36060464
3.1062963 -0.58457929 -0.79799211
1.4487979 -0.44631571 -0.39658046
1.3853395 -0.37036982 -0.38968822
2.7738655 -0.63122189 -0.80322212
2.7449696 -0.51648134 -0.81994629
5.89008 -1.8221016 1.904761
6.2067275 -1.6626812 1.9084657
0.96736944 -0.22016272 0.28416342
0.83452082 -0.15743546 0.23441447
6.874917 -2.1220295 1.9210219
7.2525849 -1.9448845 1.9223537
0 -0 0
0.86447388 -0.16414894 0.2072586
8.1960802 -2.5296667 1.9479922
8.3082972 -2.2267456 1.8631725
0 -0 0
0.8414492 -0.16040087 0.16841556
8.3886929 -2.5870309 1.6539638
8.3297148 -2.2348232 1.5359116
0 -0 0
0.8692131 -0.16603926 0.14041241
8.3880987 -2.5876491 1.320991
8.3305216 -2.2395604 1.2117348
0.85328895 -0.19614255 0.11452118
0.86086386 -0.16523872 0.10629502
7.8995318 -2.4384408 0.93478084
7.8288021 -2.1048255 0.8379007
0.84313208 -0.1941642 0.081176125
0.83074307 -0.15987816 0.071455926
7.8921585 -2.4375229 0.63006234
7.8244987 -2.1063046 0.53976607
0.83081162 -0.19154072 0.048787665
0 -0 0
7.9119735 -2.4463658 0.32697532
7.8440537 -2.1156805 0.2431124
0.83287174 -0.19245967 0.017577544
0.8482576 -0.16390915 0.0094245914
7.9234967 -2.4511409 0.02359546
7.8437095 -2.1186719 -0.055446498
0.82312155 -0.19055471 -0.013597099
0.85582078 -0.165696 -0.022354661
7.9224768 -2.4553711 -0.28094539
0 -0 -0
0.85406423 -0.19826777 -0.046348844
0.84068292 -0.16297828 -0.053425901
7.9257193 -2.4621389 -0.58587837
7.863143 -2.1314325 -0.65262204
0 -0 -0
0.84400636 -0.16388242 -0.08539211
7.6333117 -2.3736396 -0.86022317
6.6951499 -1.8179655 -0.81252348
6.0683107 -1.4114145 -0.78861511
0.91228962 -0.17737244 -0.12692815
7.7831745 -2.4272442 -1.1812384
0 -0 -0
4.7224097 -1.100286 -0.79725266
0 -0 -0
4.233305 -1.3237574 -0.81109679
1.3803128 -0.37632939 -0.27561194
1.4783908 -0.3454062 -0.30733722
3.7305942 -0.72714758 -0.80927163
3.5686042 -1.1196667 -0.82944131
1.5196459 -0.41505823 -0.36481825
1.3875704 -0.32434046 -0.34439504
3.1378651 -0.61047912 -0.80704904
1.5106283 -0.47553125 -0.41429624
1.3755951 -0.37682348 -0.38759029
1.3343689 -0.31227323 -0.38693783
2.7351556 -0.53203195 -0.81797451
5.8724117 -1.8561924 1.9026947
6.1612806 -1.691092 1.8976464
0.98004103 -0.22938049 0.28829369
0.88368386 -0.17233202 0.24851657
6.8580809 -2.1630108 1.9199901
7.2208982 -1.9839592 1.9171455
7.6177187 -1.7889731 1.9238782
0.84721291 -0.1662636 0.20336103
8.1515741 -2.5708168 1.9411268
8.331233 -2.2877753 1.8714287
8.2897921 -1.9501641 1.7597227
0.84430003 -0.16631947 0.16918722
8.3885956 -2.6434755 1.6571114
8.3300848 -2.2898057 1.5385416
0 -0 0
0.87302268 -0.17232582 0.14119595
8.389039 -2.6444199 1.3236696
8.3509941 -2.3000998 1.2167425
0 -0 0
0.85691249 -0.16993845 0.10593389
7.910007 -2.4949358 0.93781435
7.8608122 -2.1652377 0.84273279
0.81770378 -0.19359933 0.078840792
0.82876915 -0.16477819 0.071371764
7.9084325 -2.495805 0.63257223
7.846055 -2.163825 0.54215884
0.84710687 -0.20077941 0.049815979
0.83758438 -0.1668196 0.040603947
7.921587 -2.5026932 0.32800105
7.8444128 -2.1674976 0.24353115
0.82972974 -0.19710432 0.017536428
0.84527475 -0.16871943 0.0094027752
7.9350052 -2.5081511 0.023675116
7.8546567 -2.1734271 -0.055617105
0.83652741 -0.19907391 -0.013838468
0.85478795 -0.17094409 -0.022354661
7.9348922 -2.512686 -0.28192711
7.8572826 -2.1772544 -0.35298949
0.84894627 -0.20257735 -0.046137687
0.83477396 -0.16715375 -0.05311456
7.91997 -2.5137413 -0.58658248
7.8787303 -2.1876404 -0.65501755
7.7966752 -1.8617536 -0.71835935
0.84786332 -0.17003641 -0.085886277
1.6137416 -0.51268601 -0.18220897
7.7316623 -2.150439 -0.93989831
6.0662909 -1.450237 -0.78949416
0.94032645 -0.18881863 -0.13098769
2.9052711 -0.92562962 -0.44178146
2.8683586 -0.79951447 -0.45985502
1.4116002 -0.3380371 -0.23865663
0 -0 -0
4.2101102 -1.3449181 -0.8082186
2.9290302 -0.81791359 -0.58584094
1.4295453 -0.34325787 -0.29761514
3.7385273 -0.7525335 -0.81197894
3.4807832 -1.1156183 -0.81060517
1.3707112 -0.38343322 -0.32962242
3.1907439 -0.76650476 -0.79309529
3.2262661 -0.64824802 -0.83079296
1.4459748 -0.46494955 -0.3973397
1.3881233 -0.38942748 -0.39178613
1.3417847 -0.3227053 -0.38965508
2.6866853 -0.53973341 -0.80445433
5.8609118 -1.8921899 1.9026947
6.1221795 -1.7208239 1.8888201
0.98235381 -0.23628888 0.28939509
0.87694001 -0.1766091 0.24692012
6.8455997 -2.2053468 1.920248
7.2113862 -2.0290155 1.9178895
7.61415 -1.8375032 1.9257882
0.84045297 -0.17029905 0.20198542
8.1161547 -2.6145065 1.9364761
8.3208027 -2.3399103 1.8722757
8.2767191 -2.0007627 1.7595204
0.8317253 -0.16915029 0.16687223
8.4012165 -2.7042315 1.6628511
8.3499947 -2.3504786 1.5448536
8.2950125 -2.0096292 1.4363828
0.855497 -0.17432691 0.13853189
8.4093647 -2.7076643 1.329473
8.3481607 -2.3545232 1.2184118
0 -0 0
0.85390848 -0.174795 0.10569312
7.9115744 -2.5489087 0.93983674
7.8607812 -2.2172103 0.84417212
0 -0 0
0.84043193 -0.17246431 0.072465912
7.9185934 -2.5525432 0.63462585
7.8527956 -2.2176213 0.5435546
0.85167909 -0.20739062 0.050158747
0.84241557 -0.17316251 0.040888887
7.9222479 -2.5564687 0.32867172
7.8617439 -2.2242973 0.2444883
0.81587803 -0.19911027 0.017269166
0.85009986 -0.17511322 0.0094682239
7.9375472 -2.5626297 0.02372917
7.8902402 -2.2354834 -0.055965137
0.81295103 -0.19874176 -0.013468369
0.85763913 -0.17699395 -0.022457205
7.9507055 -2.5714755 -0.28304425
7.8649201 -2.2314241 -0.35394108
0.84962714 -0.20825806 -0.046243265
0.84057444 -0.1736864 -0.053550433
1.5704415 -0.50907445 -0.11654191
7.8872123 -2.2422116 -0.65685421
7.847981 -1.9249805 -0.72416115
0.86142093 -0.17826039 -0.087368786
1.6029997 -0.52012324 -0.18135302
7.6696053 -2.1839666 -0.9339658
6.0640221 -1.4890879 -0.79037315
0 -0 -0
2.6275582 -0.85494339 -0.40034205
2.8795547 -0.82170957 -0.46244961
1.3759629 -0.33844319 -0.23297819
4.5134153 -0.93588495 -0.80389321
4.2298341 -1.379878 -0.81361514
2.9418948 -0.84099841 -0.58943504
3.8597224 -0.95187002 -0.80475134
3.7079833 -0.77008855 -0.80635613
3.4543877 -1.1305779 -0.80605853
2.9492674 -0.84455389 -0.71045929
3.2322228 -0.79747754 -0.80460644
3.1139977 -0.64559352 -0.80288774
1.4771041 -0.48497942 -0.40670377
1.4024029 -0.40273196 -0.39650646
1.3565967 -0.3350862 -0.39454615
2.6908393 -0.55776644 -0.80670768
5.8500991 -1.9284154 1.90299
6.131773 -1.7641876 1.8950839
0.96128654 -0.23747043 0.28361273
0.94190532 -0.19571401 0.26554555
6.8200078 -2.2433844 1.9168946
7.1960082 -2.0724213 1.9171455
7.6008468 -1.883721 1.9253106
0 -0 0
8.1258965 -2.6727884 1.942677
8.3419771 -2.4011946 1.8803201
8.2680883 -2.0524538 1.7603298
0.83739394 -0.17566058 0.16822265
8.4180737 -2.7667754 1.6695164
8.3609571 -2.4090283 1.5495875
8.2853956 -2.0612028 1.4368806
0.85827738 -0.18038541 0.13915874
8.4179564 -2.7675509 1.333491
8.351634 -2.4109206 1.2210548
0 -0 0
0.85670519 -0.18085137 0.10617465
7.9203272 -2.6054785 0.94275796
7.8766546 -2.2739542 0.84735924
0 -0 0
0.83350867 -0.1763801 0.071960919
7.9150944 -2.605135 0.63561457
7.8639627 -2.2729669 0.54528272
0 -0 0
0.84035999 -0.17812108 0.040841393
7.9396286 -2.6159749 0.33005252
7.8700299 -2.2788885 0.24517624
0.83500701 -0.20921548 0.017700896
0.84411877 -0.1792873 0.0094136838
7.941618 -2.6178596 0.023788912
7.8878999 -2.2871966 -0.05604703
0.82044441 -0.20591679 -0.013613191
0.85067034 -0.18100469 -0.022303389
7.960402 -2.6286733 -0.28395829
7.8884983 -2.2905049 -0.35562792
0.87835419 -0.22102156 -0.047879729
0.84046912 -0.17904876 -0.053612705
1.5720233 -0.52026796 -0.116894
7.8914914 -2.295855 -0.65837139
7.8563061 -1.978206 -0.72603571
0.85544491 -0.18250448 -0.086874619
1.5969466 -0.52901131 -0.18103205
7.7418799 -2.2559934 -0.944435
7.7459512 -1.9525756 -1.0111351
0 -0 -0
1.6079206 -0.53411072 -0.24548197
2.8886883 -0.84351796 -0.46473894
4.6850929 -1.1829172 -0.79449457
4.5046978 -0.96294332 -0.80337769
4.2408872 -1.4123329 -0.81739265
3.0158451 -0.88219118 -0.6053248
3.8794632 -0.98202884 -0.81010836
3.7031882 -0.79282582 -0.80635613
3.4381256 -1.1486586 -0.80389339
2.9917102 -0.87660527 -0.72196555
3.2348068 -0.81920403 -0.80648577
3.1592824 -0.67522627 -0.81561643
1.4805216 -0.4961856 -0.40847534
1.4008312 -0.41160139 -0.39676872
1.3442537 -0.34080231 -0.39155719
2.669538 -0.57045686 -0.8013559
5.8300061 -1.9615324 1.9003333
6.1272697 -1.8036731 1.8970768
0 -0 0
0.93785906 -0.20088407 0.26474732
6.7722259 -2.2738109 1.9073502
7.1812978 -2.1159885 1.9166493
7.5825577 -1.9286478 1.9236394
0 -0 0
8.1269083 -2.7284949 1.9468849
8.3439627 -2.4573047 1.8841308
8.2790632 -2.1091912 1.7653887
0.8871305 -0.19178414 0.17844719
8.4391375 -2.8311908 1.6771078
8.3658495 -2.4661307 1.5532694
8.310812 -2.1217594 1.443519
0.84653646 -0.1833486 0.13743491
8.4251909 -2.8273301 1.3373601
8.3547277 -2.4674492 1.2236977
7.8193631 -2.0006537 1.0557219
0.85945958 -0.18694863 0.10665616
7.9418707 -2.6666794 0.94725209
7.8797245 -2.3273132 0.84920979
0 -0 0
0.84019941 -0.18318926 0.072634235
7.9263716 -2.6628609 0.63782024
7.8871841 -2.3322108 0.54787481
0 -0 0
0.86072046 -0.18796249 0.041886177
7.9452109 -2.6719677 0.33095992
7.8913589 -2.3376393 0.24628292
0 -0 0
0.84593332 -0.18510458 0.0094464077
7.9680562 -2.6808891 0.023916932
7.9043961 -2.3446529 -0.056265406
0 -0 -0
0.85052013 -0.18643494 -0.022329025
7.9554877 -2.6812983 -0.28436452
7.9020691 -2.3471143 -0.35688227
0.84120607 -0.21717088 -0.045926534
0.83837974 -0.18398847 -0.053550433
1.5820322 -0.53437299 -0.11787985
7.9154716 -2.3556058 -0.66156542
7.8565559 -2.0296128 -0.72719604
0 -0 -0
1.6059152 -0.54293978 -0.18242295
6.5466728 -1.9513681 -0.80007684
7.76264 -2.007519 -1.0149025
0 -0 -0
1.6036758 -0.54364896 -0.24533856
2.8834584 -0.86122674 -0.46473894
4.7140455 -1.2210444 -0.80065978
4.5304532 -0.99755621 -0.8090474
4.1306224 -1.4038259 -0.79778534
4.0113254 -1.2001555 -0.80659539
3.8705187 -1.0050753 -0.80951321
3.6686447 -0.80900389 -0.79990023
3.4421017 -1.1735135 -0.80649149
3.3670254 -1.0090512 -0.81401622
3.165746 -0.82241762 -0.79051119
3.114363 -0.68563467 -0.80509079
1.500334 -0.5130868 -0.4148024
1.427853 -0.42907599 -0.40516037
1.379393 -0.358733 -0.40242624
2.3998573 -0.52824664 -0.72136116
5.8549113 -2.0099871 1.9124354
6.1316919 -1.8459332 1.9019171
6.3638558 -1.6552069 1.8834087
0.99026376 -0.21847226 0.27991375
6.7700286 -2.3193924 1.9107035
7.1653962 -2.1591737 1.9159054
7.5602455 -1.9724406 1.9210131
0 -0 0
8.1090908 -2.7779932 1.9466633
8.3736467 -2.5219846 1.8942924
8.317131 -2.1733208 1.7763163
0.85049957 -0.18933491 0.17130931
8.4420614 -2.8899212 1.6811812
8.385437 -2.5279305 1.5597569
8.3129005 -2.1767106 1.4461745
0.82322437 -0.18359481 0.13383058
8.4422989 -2.8908257 1.3428661
8.3688173 -2.5275416 1.2280098
7.8098178 -2.04935 1.056111
0.85829628 -0.19221866 0.10665616
7.9544997 -2.7253437 0.95073503
7.8624392 -2.3747556 0.84890133
7.8352976 -2.0593982 0.7601037
0.8448931 -0.18965061 0.07313922
7.9419522 -2.7224391 0.64040619
7.8994689 -2.3886483 0.5497359
7.8901439 -2.075875 0.46685338
0.85565275 -0.19236386 0.041696217
7.9371734 -2.7235875 0.33131501
7.9084358 -2.3955784 0.24726996
0 -0 0
0.85258555 -0.19204952 0.0095336717
7.9722648 -2.7368731 0.02397952
7.9080415 -2.3986237 -0.056395061
0 -0 -0
0.84838504 -0.19143009 -0.022303389
7.988976 -2.747287 -0.28615871
7.9295802 -2.4083309 -0.35878542
0 -0 -0
0.83820862 -0.18934913 -0.053612705
1.5674067 -0.54016995 -0.11703483
7.9371061 -2.4151566 -0.66459966
7.8564715 -2.0810971 -0.72835642
0 -0 -0
1.5931543 -0.54954112 -0.18135302
6.58113 -2.0056889 -0.80577672
7.7952461 -2.0670631 -1.0208045
5.9796624 -1.3541909 -0.83734691
1.5965687 -0.55218476 -0.24476501
2.8762293 -0.87832588 -0.4644337
1.456286 -0.38676146 -0.24774213
4.5271297 -1.0259891 -0.80956286
4.1405191 -1.4355893 -0.80138302
3.9879227 -1.2198629 -0.80337954
1.5315046 -0.40773979 -0.32082912
1.4717399 -0.33402839 -0.32133457
3.4136279 -1.1872356 -0.80151182
3.371948 -1.0331165 -0.81672359
3.0300817 -0.80705297 -0.75785702
1.4552872 -0.32976013 -0.37672079
1.5364362 -0.53598535 -0.42568496
1.4427201 -0.44321337 -0.41014293
1.3483393 -0.3595041 -0.39400271
1.3307004 -0.30148062 -0.4005371
5.838861 -2.0446115 1.9112549
6.1120043 -1.8809841 1.8993547
6.4232469 -1.7128007 1.9040601
0.98608446 -0.22390395 0.27911553
6.7638783 -2.3637574 1.9130251
7.1464581 -2.2013881 1.9144173
7.5545669 -2.0205486 1.9226844
7.9654436 -1.8186064 1.9244785
8.0955753 -2.8289843 1.9475492
8.3860369 -2.5819447 1.9006435
8.3235044 -2.229634 1.7805659
0 -0 0
8.4390144 -2.9468498 1.6841435
8.391408 -2.5860035 1.5637895
8.3146267 -2.2317669 1.4488298
0 -0 0
8.4440069 -2.94942 1.345991
8.3843765 -2.5884843 1.2326002
7.8085866 -2.100322 1.0576674
0.87257886 -0.2010477 0.10858224
7.9535732 -2.7796733 0.952645
7.8790841 -2.4326375 0.85229403
7.8292437 -2.1092489 0.76075757
0.82429552 -0.19034718 0.071455926
7.9476876 -2.7790174 0.64223158
7.9123082 -2.4456182 0.55166334
7.8724394 -2.1229496 0.46656778
0.87392002 -0.20211181 0.042646017
7.9570932 -2.7851119 0.33285362
7.9126849 -2.4499714 0.24786818
7.8430014 -2.1192701 0.16705862
0.85333937 -0.19772872 0.0095554888
7.9647589 -2.7890434 0.024007967
7.9141879 -2.4536161 -0.056545194
7.8910499 -2.1356525 -0.13156199
0.84524685 -0.19618005 -0.022252116
7.9898872 -2.8025401 -0.28680193
7.9241953 -2.4599025 -0.35921797
0 -0 -0
0.83994746 -0.19516636 -0.053799506
1.567827 -0.55110043 -0.11731651
7.9506936 -2.4726932 -0.66699529
7.8656621 -2.1352658 -0.73040938
8.0706596 -1.8777859 -0.8229863
1.5888146 -0.55897623 -0.18124604
6.4729233 -2.0161996 -0.79402798
7.8187962 -2.1247411 -1.0255765
5.4974403 -1.2804955 -0.77090585
1.5959502 -0.56295836 -0.24519517
2.8858805 -0.9006685 -0.4668757
0 -0 -0
1.5504096 -0.36138713 -0.27764294
4.1149387 -1.455065 -0.79814512
4.0178514 -1.2560289 -0.81094611
1.500607 -0.4093903 -0.31487682
1.4106095 -0.32926819 -0.30842289
3.4522848 -1.2244765 -0.81233716
3.3683348 -1.0546602 -0.8174004
1.8585536 -0.50725317 -0.46561459
1.4145212 -0.32966065 -0.36668468
1.4747834 -0.52465016 -0.40948766
1.4399734 -0.45205739 -0.41014293
1.377672 -0.37639418 -0.40324143
1.3484496 -0.31421274 -0.40645224
5.8019114 -2.0717244 1.9032851
6.1021767 -1.9190264 1.8999242
6.4107614 -1.7516739 1.9035093
0.96310204 -0.22490843 0.27299574
6.7565279 -2.40781 1.9150889
7.1383605 -2.2469416 1.9159054
7.5616946 -2.0722544 1.9276983
7.9351835 -1.8629978 1.9198933
8.0900059 -2.8828597 1.9504282
8.4035988 -2.6439111 1.9082648
8.3247776 -2.2848113 1.7838036
0 -0 0
8.4642849 -3.0140691 1.6928457
8.3904066 -2.642175 1.5665947
8.3359566 -2.2924173 1.4549702
0 -0 0
8.4881639 -3.023407 1.3559614
8.3947802 -2.6482232 1.2364953
7.842392 -2.1611028 1.0640224
0.86843079 -0.2057115 0.1082211
7.9747443 -2.8420999 0.95725149
7.9076462 -2.4947033 0.85702336
7.8468661 -2.1657252 0.76374686
0 -0 0
7.9577231 -2.8374429 0.64443725
7.9114256 -2.4986289 0.55266035
7.8563776 -2.1704164 0.46639639
0.83670741 -0.19892195 0.040888887
7.9567943 -2.8399293 0.33356377
7.9184685 -2.5051093 0.2485262
7.8452668 -2.1716213 0.16738756
0.82973737 -0.1976321 0.0093046026
7.9917583 -2.8536668 0.024141677
7.9209094 -2.5090756 -0.056702148
7.8835778 -2.1856337 -0.13165854
0.84402722 -0.20136268 -0.022252116
7.9734821 -2.8518491 -0.28683579
7.931808 -2.5157273 -0.36025605
7.8597627 -2.1842022 -0.4312343
0.87173992 -0.20819935 -0.055916619
1.5794404 -0.56609499 -0.11844319
7.9144711 -2.5147903 -0.6652385
7.8850384 -2.1925604 -0.73344415
7.9912386 -1.9110696 -0.81606787
1.591906 -0.57106453 -0.18199499
1.6117951 -0.51291555 -0.19809987
7.8591332 -2.1875741 -1.0326086
0 -0 -0
1.5822221 -0.56905603 -0.24361791
2.8944232 -0.92286211 -0.46916503
2.9066622 -0.81026626 -0.49613321
1.4418226 -0.3454175 -0.25857219
4.0966792 -1.4769502 -0.79634625
3.9838777 -1.2722938 -0.80564952
2.93572 -0.82029951 -0.61705536
1.4323398 -0.34362152 -0.31362921
3.373095 -1.2197409 -0.79544961
3.3618 -1.0753081 -0.8174004
1.569887 -0.43883541 -0.39396349
3.1002719 -0.74261785 -0.80484599
1.5270147 -0.55380994 -0.42492571
1.4206321 -0.45558009 -0.40542263
1.3734829 -0.38432169 -0.40269798
1.3390312 -0.3206929 -0.40419886
5.7926812 -2.1085925 1.9044658
6.1058025 -1.9614167 1.9047644
6.3841548 -1.7865725 1.8988284
0.96076667 -0.23058872 0.27272967
6.7216487 -2.4419639 1.9094138
7.1613293 -2.3025608 1.925826
7.5656657 -2.1233361 1.9319957
7.9302263 -1.9132501 1.9214981
8.0446682 -2.9224558 1.9437844
8.3983822 -2.699013 1.910805
8.3266287 -2.340353 1.7872437
8.2369595 -1.9934911 1.6662143
8.4788857 -3.0780203 1.6995113
8.4152737 -2.7068722 1.5743092
8.3473635 -2.3507402 1.4594512
8.3093567 -2.0143905 1.3566409
8.4824657 -3.0801578 1.3580447
8.4113617 -2.7103126 1.2413639
7.8919673 -2.2269547 1.0725822
0 -0 0
7.9711647 -2.8960686 0.95893687
7.9054446 -2.5474479 0.85846269
7.8650475 -2.2227674 0.76682949
0 -0 0
7.9879556 -2.9035895 0.6483162
7.9234843 -2.5560091 0.5545879
7.8515582 -2.2210271 0.46691054
0.84517455 -0.20642209 0.041363787
7.9842901 -2.9050972 0.33545741
7.9286294 -2.5619473 0.24933378
7.8846989 -2.2347126 0.16851828
0.85473388 -0.20913623 0.0095991213
8.0192032 -2.9190681 0.024278231
7.947228 -2.5711744 -0.057002418
7.8863707 -2.2386067 -0.13193209
0.83597928 -0.20487213 -0.022072665
7.9793072 -2.9092782 -0.28768212
7.9323802 -2.5695827 -0.36099136
7.8923154 -2.2455049 -0.43376815
0.83942789 -0.20593473 -0.053924043
1.5656308 -0.57201016 -0.1176686
1.5957069 -0.51783013 -0.13438921
7.9068809 -2.2509916 -0.73674679
8.0363779 -1.9740726 -0.82189906
1.5855706 -0.57979715 -0.181674
1.6067284 -0.52218169 -0.19786721
7.771143 -2.2145481 -1.0228137
0 -0 -0
1.5879927 -0.58216012 -0.24505179
2.8915255 -0.9415226 -0.46962291
2.9595168 -0.84460437 -0.5060299
1.5487279 -0.38109198 -0.27815837
4.1198564 -1.5139345 -0.80264223
3.9731951 -1.295801 -0.80508196
2.917439 -0.83452368 -0.61427766
3.6600316 -0.90183532 -0.80260754
1.6204826 -0.59724927 -0.38300225
3.3356915 -1.0895633 -0.81266254
2.8446333 -0.8140201 -0.7151013
3.1530888 -0.77575672 -0.81977773
1.5263102 -0.56417531 -0.42568496
1.4389029 -0.47119561 -0.41145414
1.3803507 -0.39539206 -0.40541524
1.3314478 -0.32752779 -0.4025088
5.750073 -2.1331296 1.894725
6.0745239 -1.9925698 1.8987852
6.367527 -1.8241228 1.8971763
0.96026957 -0.23671024 0.27299574
6.7110691 -2.4848387 1.9107035
7.0725126 -2.3219817 1.9057368
7.5160956 -2.1592612 1.9226844
7.924006 -1.9632775 1.9228736
8.0055523 -2.9639747 1.9386908
8.4215946 -2.763597 1.919908
8.3459921 -2.4011476 1.7945286
8.2769461 -2.0570107 1.6768248
8.4920979 -3.1419227 1.7059915
8.426568 -2.767673 1.5795693
8.359313 -2.4095619 1.4640981
8.282464 -2.061759 1.3542902
8.4940109 -3.1434731 1.3629555
8.4274969 -2.7727046 1.2462325
7.9295955 -2.290194 1.0795859
0 -0 0
7.9709496 -2.9514799 0.96107155
7.9321842 -2.6098969 0.86308914
7.8761277 -2.2781773 0.7692582
0 -0 0
7.9942994 -2.9615538 0.65029371
7.9389257 -2.6148794 0.55678123
7.8675113 -2.2777684 0.46868151
0 -0 0
8.0056639 -2.9686244 0.33711439
7.9298458 -2.6161849 0.24987216
7.8929234 -2.2894561 0.16899112
0 -0 0
8.0161419 -2.973783 0.024323748
7.9521909 -2.6267891 -0.057152543
7.8907294 -2.2922542 -0.13223782
0.82404232 -0.20731485 -0.021790667
7.9950328 -2.9707153 -0.28890082
1.6087135 -0.53204864 -0.073357455
7.9013996 -2.3005888 -0.43503511
0 -0 -0
1.5948104 -0.59378797 -0.12013323
1.5754675 -0.52196854 -0.13295189
7.9569888 -2.3181303 -0.74272716
7.8050823 -1.9681151 -0.79946393
1.5791881 -0.58847356 -0.18135302
1.6016088 -0.53140503 -0.19763458
6.0697312 -1.7700346 -0.80029362
0 -0 -0
1.5760468 -0.58877581 -0.24376129
2.9082017 -0.96672887 -0.47328585
2.9135497 -0.8508535 -0.49905357
4.5120487 -1.1396763 -0.81162459
1.5983189 -0.5984953 -0.31209868
4.0005727 -1.3319428 -0.81227022
3.0364299 -0.88875204 -0.64046776
3.6458952 -0.92211747 -0.80073327
1.6231852 -0.6095838 -0.38451782
3.3261707 -1.1090857 -0.81198567
3.0121615 -0.88199127 -0.75856179
3.15767 -0.79746324 -0.82222557
1.5354948 -0.57830369 -0.42922813
1.4808304 -0.49500659 -0.42430386
1.3825163 -0.40520769 -0.40677387
1.3508102 -0.34109426 -0.40898725
5.777988 -2.1839104 1.908303
6.0503664 -2.0258482 1.8950839
6.370975 -1.8674854 1.9015819
6.710659 -1.6979487 1.910704
6.6956959 -2.5259702 1.9107035
7.0645618 -2.3674889 1.907473
7.4999099 -2.2045169 1.9219681
7.9108672 -2.0116215 1.9226445
8.0027256 -3.0188913 1.9424556
8.4276476 -2.8229797 1.9252007
8.3498917 -2.4578431 1.7985759
8.3012486 -2.1172154 1.6843485
8.4993258 -3.2040224 1.7113608
8.4318285 -2.8268359 1.5837772
8.3765297 -2.4702921 1.4697406
8.3117628 -2.1232965 1.3611856
8.4958439 -3.2035568 1.3663781
8.4225283 -2.8284607 1.2480408
8.108429 -2.395843 1.1059141
7.7939377 -1.9984064 0.97567517
8.016839 -3.0245349 0.96882391
7.931108 -2.6635854 0.86473405
7.8906417 -2.3349366 0.77206057
0 -0 0
8.0104933 -3.0235784 0.65310788
7.9293523 -2.6657681 0.55724651
7.8897629 -2.3367734 0.4708524
0 -0 0
8.0050573 -3.0244002 0.33786395
7.9439578 -2.6750002 0.25082931
7.8921456 -2.3418248 0.16927893
0 -0 0
8.0052271 -3.0257418 0.024346508
7.9615083 -2.6841593 -0.0573368
7.9100618 -2.3505962 -0.13280101
0 -0 -0
8.0093679 -3.0321007 -0.29008567
1.6082585 -0.54286808 -0.073487215
7.9129758 -2.3567238 -0.43646044
0 -0 -0
1.5743488 -0.59719419 -0.11886571
1.5760123 -0.53290278 -0.13327129
8.0380688 -2.3953547 -0.75165313
7.7928596 -2.015969 -0.79946393
1.5755476 -0.59815222 -0.18135302
1.5926735 -0.53931099 -0.19693662
7.7871132 -2.3227897 -1.0285901
0 -0 -0
1.5742544 -0.59913921 -0.24404806
2.895664 -0.98233259 -0.4722175
2.9593294 -0.88396519 -0.50781459
4.4477525 -1.1525137 -0.80131602
1.6378136 -0.62476927 -0.32055321
4.0118494 -1.3630986 -0.81624264
3.7407629 -1.1198723 -0.79046577
3.6827712 -0.9555245 -0.81010467
1.6230615 -0.62092733 -0.38538384
3.3543494 -1.1413993 -0.82055897
3.0271785 -0.90659195 -0.76373011
3.0729375 -0.79615349 -0.80141902
1.5355304 -0.58910054 -0.43024042
1.4887253 -0.5078221 -0.42745075
1.4002844 -0.41976252 -0.41275182
1.3468342 -0.34889501 -0.40842393
5.7662625 -2.2200089 1.9088935
6.0586863 -2.0700629 1.9016324
6.351109 -1.9040573 1.8991038
6.7122436 -1.7422409 1.9141631
6.689991 -2.5708187 1.9135411
7.0563188 -2.4129858 1.909209
7.4676433 -2.2449028 1.9171932
7.9228635 -2.0665112 1.9286054
7.9867816 -3.0689874 1.9431199
8.4462337 -2.8869655 1.9334569
8.3580961 -2.516088 1.8036348
8.3108845 -2.1740708 1.6889784
8.5125322 -3.268795 1.7180264
8.432024 -2.8845739 1.5871085
8.3952036 -2.5318937 1.4757153
8.3348818 -2.1837683 1.3671404
8.5083361 -3.2680357 1.3715864
8.4396772 -2.8919647 1.2531878
8.3156824 -2.5126619 1.1362629
7.8103313 -2.0537653 0.97928655
8.0343037 -3.08757 0.97320575
7.9419041 -2.7215512 0.8677156
7.8980837 -2.389941 0.77420908
7.8106771 -2.0579376 0.68223995
