# .PCD v0.7 - Point Cloud Data file format
VERSION 0.7
FIELDS x y z
SIZE 4 4 4
TYPE F F F
COUNT 1 1 1
WIDTH 1661
HEIGHT 1
VIEWPOINT 0 0 0 1 0 0 0
POINTS 1661
DATA ascii
-0.78475457 1.9670091 -0.22789495
-0.8969329 2.0305529 -0.25998425
-0.82597488 1.6987686 -0.23909605
-0.89743227 1.6863376 -0.26089284
-0.55152148 1.3857055 -0.21608721
-0.82555026 1.8717786 -0.31593093
-0.81485015 1.6775262 -0.30663565
-0.81939191 1.5402778 -0.30427331
-0 0 -0
-0.70696151 1.604949 -0.33784693
-0 0 -0
-0.74831188 1.4077293 -0.33945259
-0 0 -0
-0.54492539 1.2386168 -0.31337819
-0.55044675 1.1352671 -0.30492824
-0.7177065 1.3490179 -0.38577777
-0 0 -0
-0 0 -0
-0.42971203 0.88684952 -0.27824745
-0.41644561 0.782695 -0.26026464
-0.90658498 2.3035777 0.76479709
-0.98081285 2.2369657 0.72546178
-1.1049253 2.2805285 0.72582829
-0.88575059 1.6666703 0.52098018
-0 0 0
-1.0259799 2.3416462 0.65450799
-1.0763389 2.2257826 0.60786718
-0 0 0
-0.92038101 2.3342083 0.56982535
-0.99302143 2.2655628 0.53581291
-1.0611701 2.1965666 0.50407881
-0 0 0
-0.88475043 2.2423532 0.45417809
-0.9922089 2.2653217 0.4404349
-0.94788498 1.9646103 0.36710325
-0.88607788 1.6765248 0.30088374
-0 0 0
-0.97107428 2.2201262 0.3403874
-1.0583723 2.196547 0.31892139
-0.87015134 1.6499438 0.22619292
-0.94067389 2.3859177 0.28998429
-1.0112468 2.3120809 0.26082873
-1.0605395 2.203306 0.22942297
-0.867962 1.6477436 0.15730403
-0.9201529 2.3349433 0.19143735
-0.93974048 2.1504312 0.15632677
-0.99799997 2.0746751 0.13173813
-0.88394427 1.6794348 0.090230994
-0.85804403 2.1793451 0.092474677
-0.93715042 2.1473634 0.070110172
-1.1312835 2.3547997 0.053719442
-0.88697797 1.6869127 0.020790825
-0.89319479 2.2695541 0.0069386698
-0.96393633 2.2109501 -0.016459934
-1.0460702 2.179667 -0.038908623
-0.89309472 1.7000582 -0.049246907
-0.90246421 2.2966354 -0.083582856
-0.99097073 2.2752342 -0.10744099
-1.0714657 2.2360835 -0.13107537
-0.88984805 1.6948838 -0.11942992
-0.9065038 2.3114178 -0.17527057
-0.96766478 2.224906 -0.19435728
-0.93753046 1.9573578 -0.19449615
-0.8996563 1.7148014 -0.19232993
-0.76323879 1.9477184 -0.22511314
-0.91453224 2.1052518 -0.26882488
-0.9444626 1.9731563 -0.27689433
-0.83783776 1.5979204 -0.24641381
-0 0 -0
-0.79438663 1.8314751 -0.30829972
-0.74750012 1.5632064 -0.28489533
-0.77333945 1.475473 -0.2905286
-0.45466852 1.1657211 -0.2288124
-0.74276716 1.7146783 -0.35997909
-0.62708896 1.3134582 -0.29463896
-0.73058456 1.3949655 -0.33528754
-0 0 -0
-0.48509228 1.1212305 -0.28292027
-0.44340158 0.92896909 -0.24878195
-0.55636907 1.0614198 -0.3025516
-0 0 -0
-0 0 -0
-0 0 -0
-0 0 -0
-0 0 0
-0.96365273 2.2350192 0.72289932
-1.0404216 2.1814055 0.69223529
-0.86835319 1.6584103 0.51672292
-0 0 0
-0.97862661 2.2713838 0.63317883
-1.0488877 2.2034104 0.59998828
-0.86132878 1.6497566 0.43836108
-0 0 0
-0.97794098 2.2689207 0.53517783
-1.0586075 2.2260308 0.50934017
-0 0 0
-0.89227885 2.3027191 0.46528721
-0.97283822 2.2587085 0.43798026
-1.0305784 2.1699226 0.40427828
-0.94236952 1.8098267 0.32376343
-0.95374781 2.4619908 0.39732406
-0.95625973 2.2233136 0.33997008
-1.0414753 2.1958327 0.31788385
-0.87511504 1.6843224 0.23016544
-0.85138983 2.1989048 0.26661476
-0.97857004 2.2752948 0.25599664
-1.0529685 2.2223682 0.23073074
-0.87068677 1.6778028 0.15966065
-0 0 0
-0.96670914 2.2496638 0.16310626
-0.98311496 2.0762482 0.13145249
-0.88006002 1.6972414 0.090895846
-0.9095183 2.3523262 0.099575981
-0.91962087 2.1429694 0.069781162
-1.0330417 2.1845469 0.049689967
-0.8835094 1.7056416 0.020954445
-0.86158794 2.2292869 0.0067992704
-0.94995797 2.215904 -0.016453108
-1.0348117 2.1905649 -0.038989078
-0.87943017 1.6992913 -0.049067453
-0.89842987 2.3282373 -0.084530741
-0.96912527 2.2629042 -0.10657593
-1.0598552 2.2471318 -0.13133933
-0.87759763 1.6967659 -0.11918085
-0.86505824 2.2461903 -0.16991881
-0.95477873 2.2326345 -0.19451699
-0.93229848 1.977488 -0.19592431
-0.8767814 1.6964211 -0.18966143
-0.75984305 1.9746351 -0.22768095
-0.85673219 2.005785 -0.25544763
-0.94629109 2.0085306 -0.28103831
-0.83983964 1.6259191 -0.24993208
-0.59405839 1.5475901 -0.24017656
-0.85563201 2.0063105 -0.33684033
-0.73369229 1.5588355 -0.28327292
-0.78415799 1.5187051 -0.29808819
-0 0 -0
-0.48174176 1.1310787 -0.23683333
-0.51438934 1.0946296 -0.24483804
-0.71259391 1.3811687 -0.33091423
-0 0 -0
-0.44388258 1.0435026 -0.26261497
-0.58979052 1.2554263 -0.33523309
-0.56230187 1.0889357 -0.30940551
-0 0 -0
-0 0 -0
-0 0 -0
-0 0 -0
-0 0 0
-0.95253968 2.2470682 0.72489232
-1.0339619 2.2025423 0.69691628
-0.86434752 1.6757009 0.52044803
-0.92698842 2.438359 0.69648975
-0.96844983 2.2862661 0.63565898
-1.0299921 2.1983733 0.59688449
-0.85786754 1.6679944 0.44180012
-1.0299399 2.7090211 0.65818924
-0.97239 2.2946756 0.53983527
-1.0312289 2.2032146 0.5026623
-0 0 0
-0 0 0
-0.97009361 2.290926 0.4430649
-1.0443878 2.2342732 0.41506568
-0.98037863 1.911363 0.34084487
-0 0 0
-0.9391287 2.2209308 0.33871818
-1.0325959 2.212065 0.31931049
-0.8611455 1.6825905 0.2292024
-0.8484742 2.2319517 0.26998538
-0.95877993 2.267514 0.25445452
-1.0359462 2.2215688 0.22998345
-0.86536455 1.6928735 0.16058648
-0.90913844 2.3926635 0.19524023
-0.95482874 2.2601485 0.16343859
-0.98132133 2.1057696 0.13293782
-0.86644894 1.6963825 0.090563424
-0.87627262 2.308351 0.097485043
-0.90567744 2.1467297 0.069721334
-1.0175089 2.1863124 0.049587179
-0.87393606 1.7128121 0.02097626
-0.86492193 2.2794094 0.0069358251
-0.96896607 2.2990956 -0.017026341
-1.0200865 2.1941531 -0.038940806
-0.86989504 1.7064368 -0.049118727
-0.85969597 2.2692184 -0.082194895
-0.96336317 2.2881444 -0.10748424
-1.0376383 2.235477 -0.13028355
-0.86852914 1.7047867 -0.11936765
-0.85055399 2.2495899 -0.16977796
-0.94724262 2.2531536 -0.19579461
-1.0085988 2.1738086 -0.21475802
-0.88125408 1.7310333 -0.19292293
-0.75157773 1.9894916 -0.2288579
-0.84133261 2.0036778 -0.25451705
-0.88595802 1.910794 -0.26659712
-0.82310796 1.6177955 -0.24790232
-0 0 -0
-0.63926142 1.52482 -0.25533932
-0.72079581 1.5561451 -0.281975
-0.77527118 1.524366 -0.29826
-0 0 -0
-0.46910411 1.1204269 -0.23399588
-0.71624112 1.548792 -0.34543195
-0.68505198 1.3480216 -0.32195935
-0 0 -0
-0 0 -0
-0.50049591 1.0825645 -0.28824881
-0.51121372 1.00508 -0.28468245
-0 0 -0
-0 0 -0
-0 0 -0
-0 0 -0
-0 0 0
-0.94205242 2.2608345 0.72745484
-1.0018821 2.1687 0.68425006
-0.8575424 1.6878481 0.52257663
-0 0 0
-0.96147841 2.3091574 0.6403712
-1.0087585 2.1878967 0.59234822
-0.85245532 1.6827781 0.44432208
-0.83770984 2.2447734 0.54413557
-0.96956581 2.3276649 0.54618627
-1.0209684 2.2166164 0.50428116
-1.0494012 2.0752389 0.45721063
-0.86292243 2.3107338 0.46473181
-0.91705132 2.2032166 0.42500564
-1.0224169 2.2227213 0.41174647
-0.90450209 1.7904011 0.31827858
-0 0 0
-0.92738396 2.2312233 0.33941367
-1.0181756 2.216557 0.31905106
-0.86599809 1.7179828 0.23329531
-0.87297541 2.3395224 0.28234425
-0.95859194 2.3064213 0.25815567
-1.0214651 2.2260735 0.22979662
-0.85182434 1.6919212 0.15999731
-0.88363862 2.3692353 0.19288243
-0.94591725 2.2779443 0.16430263
-0.99002194 2.1589413 0.1359085
-0.86634815 1.7221906 0.091655694
-0.87848985 2.357692 0.099339269
-0.88636225 2.1374733 0.069242768
-0.97951406 2.1388834 0.048374224
-0.8683489 1.7279704 0.02109625
-0.82997793 2.2284467 0.0067651314
-0.92728633 2.2384808 -0.016534999
-1.0074363 2.2021894 -0.038972989
-0.86209941 1.7171025 -0.049272545
-0.87327451 2.3484545 -0.084869273
-0.95197934 2.3004742 -0.10778701
-1.024317 2.2427101 -0.13033633
-0.86879486 1.7314934 -0.12086209
-0.8415935 2.2678595 -0.17076384
-0.92883164 2.2478681 -0.19483639
-1.0068238 2.2053256 -0.21725728
-0.86481792 1.7248439 -0.1916381
-0.7348628 1.9819466 -0.22746699
-0.80287874 1.9454536 -0.24649069
-0.91910136 2.0145762 -0.28028485
-0.79718661 1.5909262 -0.24303088
-0.45040554 1.2178208 -0.18812636
-0.59600782 1.4464756 -0.2416032
-0.7992174 1.7535856 -0.31685683
-0.75531477 1.5079548 -0.29413658
-0 0 -0
-0 0 -0
-0.60402405 1.3274546 -0.2952342
-0.84924281 1.6968093 -0.40401107
-0 0 -0
-0.40660316 0.98939908 -0.24772444
-0.5143705 1.1307384 -0.30022979
-0.46161166 0.92150837 -0.26020417
-0 0 -0
-0 0 -0
-0 0 -0
-0 0 -0
-0 0 0
-0.9372443 2.2887499 0.73457277
-0.9937278 2.1861839 0.68782967
-0.85364002 1.7060089 0.52656782
-0 0 0
-0 0 0
-1.0225948 2.25418 0.60858345
-0.84298295 1.689719 0.44478059
-0 0 0
-0.95822734 2.340806 0.54787982
-1.0041144 2.2157035 0.5026623
-0.93910682 1.8857715 0.41419038
-0 0 0
-0.9463802 2.3135924 0.44516888
-1.0087594 2.2289529 0.41174647
-0.89393926 1.7968016 0.31843528
-0 0 0
-0.98145276 2.4028034 0.36459151
-1.0016974 2.2164378 0.31814322
-0.85102642 1.7143722 0.23209152
-0.8791039 2.4008198 0.28908548
-0.95382476 2.3352809 0.26072592
-1.0057386 2.227762 0.22932956
-0.87152523 1.757823 0.16572052
-0 0 0
-0.93041426 2.2800102 0.16403678
-0.9714188 2.1531448 0.13516584
-0.86596292 1.7480605 0.092747964
-0.84307569 2.3057919 0.096932709
-0.89473104 2.1956339 0.070947669
-0.99224561 2.2022803 0.049669411
-0.86216491 1.742228 0.021205332
-0 0 0
-0.92522168 2.27284 -0.016746551
-0.95492017 2.1217103 -0.03744432
-0.85376251 1.7268406 -0.049400724
-0 0 -0
-0.93935132 2.309974 -0.10796002
-1.0105367 2.2489529 -0.13033633
-0.88379723 1.7886895 -0.12447362
-0.82971019 2.2786045 -0.17118634
-0.90264624 2.223047 -0.19220132
-0.99327314 2.211462 -0.21725728
-0.85686141 1.7354714 -0.19223109
-0.72234797 1.9854838 -0.22735998
-0.81332177 2.0055678 -0.25347012
-0.90631664 2.0192728 -0.28015929
-0.79004037 1.6011187 -0.24384277
-0 0 -0
-0.61493808 1.5188092 -0.25304997
-0.93297017 2.0807953 -0.37493914
-0.76522201 1.5514351 -0.30169615
-0.40884623 1.129356 -0.2196383
-0.46488959 1.1497681 -0.23891413
-0.7928884 1.7712696 -0.39285198
-0.54393286 1.1036605 -0.26198241
-0.34768343 0.96329397 -0.22711666
-0 0 -0
-0.47843847 1.0691057 -0.28308052
-0.53572899 1.0860583 -0.30573377
-0 0 -0
-0 0 -0
-0 0 -0
-0 0 -0
-0 0 0
-0.91423756 2.2722247 0.72745484
-0.99167544 2.2176905 0.69581491
-1.0757803 2.1833334 0.67184621
-0 0 0
-0 0 0
-1.0922456 2.4475236 0.65896052
-1.0695037 2.1771083 0.57133675
-0.84438992 2.3503294 0.56716782
-0.93509358 2.3248796 0.54279906
-1.0267866 2.3032181 0.52107704
-0.9599188 1.9575729 0.42865908
-0 0 0
-0 0 0
-0.99626696 2.2378032 0.41224435
-0.99195617 2.0248735 0.35776955
-0.83684897 2.3283176 0.3723239
-0.96779746 2.4115374 0.36500883
-0.98284233 2.2107637 0.31645715
-1.0811297 2.2118843 0.29854095
-0.8505829 2.3678269 0.28447896
-0.93503237 2.3300118 0.25949219
-1.0001322 2.25209 0.23119782
-0.98006147 2.0075948 0.18869752
-0.85988909 2.3949156 0.19409935
-0 0 0
-0.95980901 2.162715 0.13539435
-1.004545 2.05948 0.10894205
-0.82756227 2.3071594 0.096774906
-0.89164448 2.2270648 0.071785159
-0.99127197 2.2366624 0.050306723
-1.0371677 2.128624 0.02583036
-0.8329438 2.3231833 0.0070211715
-0.90086091 2.2524769 -0.016555471
-0.95240748 2.1513011 -0.037862692
-1.0496724 2.1562948 -0.061500955
-0.8548308 2.3881638 -0.08591871
-0.92664248 2.3194053 -0.10813303
-0.99510366 2.2514577 -0.13012518
-1.0387214 2.1351242 -0.14813545
-0.81302887 2.2761374 -0.17062299
-0.89305162 2.2387283 -0.19307968
-0.97163516 2.1992939 -0.2154721
-0.9153716 1.8829949 -0.20794562
-0.71984315 2.0170348 -0.23046277
-0 0 -0
-0.87187231 1.9748793 -0.27325264
-0.85770178 1.7654604 -0.26806468
-0.49715683 1.3966751 -0.21479671
-0.50844711 1.278284 -0.2124521
-0.90943438 2.0621037 -0.37055862
-0.82196152 1.6925702 -0.32815471
-0.39005905 1.098472 -0.21316248
-0.67894548 1.709278 -0.35430419
-0.67497313 1.5330087 -0.33908284
-0.66695499 1.3744819 -0.32529137
-0 0 -0
-0.40808171 1.0287259 -0.25629777
-0 0 -0
-0.48542592 0.9994927 -0.28052112
-0 0 -0
-0 0 -0
-0 0 -0
-0 0 -0
-0 0 0
-0.90415424 2.2875981 0.73058677
-0.98346782 2.2360535 0.69966978
-1.0653085 2.1959641 0.67370874
-0 0 0
-0 0 0
-1.0530092 2.3990493 0.64415777
-1.0675678 2.2072885 0.57752699
-0.81407309 2.3103986 0.55631608
-0 0 0
-0.98668009 2.2502806 0.5077213
-1.0647757 2.2055407 0.481518
-0 0 0
-0.94033229 2.3818071 0.45603949
-0.98924142 2.2592309 0.41506568
-1.0279953 2.1314452 0.37547785
-0 0 0
-0.91339576 2.3170114 0.34984648
-0.96886158 2.2158442 0.31632748
-1.0675374 2.2184763 0.29854095
-0.84627408 2.402055 0.28796193
-0.9426052 2.3912292 0.26566079
-0.99267089 2.2727826 0.23269244
-0.97894716 2.0369215 0.1908858
-0.81305331 2.3089187 0.18672177
-0.91918379 2.3339617 0.16709419
-0.9505145 2.1777134 0.13596563
-0.9568662 1.9926693 0.10509536
-0.80775321 2.2961698 0.096104234
-0.93905431 2.3878384 0.076780207
-0.97353464 2.2335374 0.050101139
-1.0409534 2.1701097 0.026255777
-0.81469274 2.3169298 0.0069870325
-0.87971038 2.2393475 -0.016418988
-0.96952444 2.2267771 -0.039085627
-1.0541347 2.1996562 -0.062552035
-0.80606484 2.2962339 -0.08243186
-0.91458321 2.3306274 -0.10839256
-0.97967792 2.2538579 -0.12991402
-1.0639694 2.221571 -0.1536773
-0.79377103 2.2660203 -0.1694963
-0.87020701 2.220963 -0.1910834
-0.95335948 2.1942523 -0.21440099
-0.91797608 1.9181973 -0.21120712
-0.69661492 1.9904449 -0.226932
-0.7872014 2.0116978 -0.25300482
-0.86329418 1.988382 -0.27438283
-0.76990527 1.6097994 -0.24370746
-0.60240519 1.7257977 -0.26483947
-0.53547746 1.3706712 -0.22725658
-0.89323074 2.0594976 -0.36909845
-0.82175827 1.7189127 -0.33227813
-0.40013206 1.1491519 -0.22251646
-0.44717631 1.1462386 -0.23702249
-0.60713792 1.4022071 -0.30932131
-0.56365317 1.179974 -0.27843443
-0 0 -0
-0 0 -0
-0 0 -0
-0.4705013 0.98408282 -0.27538067
-0 0 -0
-0 0 -0
-0.43479148 1.005177 -0.30922419
-0 0 -0
-0 0 0
-0 0 0
-0.97583526 2.2561634 0.70407546
-1.0592916 2.2181168 0.67849821
-0 0 0
-0.90171677 2.3248324 0.63838708
-0.97284806 2.2538977 0.60356963
-1.0531673 2.2120399 0.57706845
-0 0 0
-0.85876453 2.2131751 0.51421952
-0.97556829 2.2625873 0.50913781
-1.0449053 2.1987391 0.47862431
-0 0 0
-0.89793974 2.3159335 0.44236356
-0.97965026 2.2752211 0.41689122
-0.97550482 2.054738 0.3609038
-0.80627578 2.332804 0.37143102
-0.89951915 2.3234956 0.3499856
-0.96738845 2.2499859 0.32034802
-1.0530552 2.2231905 0.29830021
-0.79680514 2.3067064 0.27594009
-0.87297285 2.2550421 0.24993089
-0.97517055 2.2705972 0.23185171
-1.0043547 2.1230562 0.19837648
-0.82457775 2.3883224 0.19273032
-0 0 0
-0.96390975 2.2458906 0.13985036
-0.9834649 2.080683 0.10941695
-0.78843617 2.2859688 0.095473006
-0.88009238 2.2788658 0.073101215
-0.94326997 2.2008734 0.049237683
-1.0169451 2.1538506 0.025983077
-0 0 0
-0.85191679 2.2083175 -0.016152846
-0.94836622 2.2152197 -0.038779892
-1.0470153 2.219645 -0.062936574
-0.79716408 2.316257 -0.08297351
-0.89775085 2.3296697 -0.10808978
-0.96465272 2.257072 -0.12975565
-1.0498924 2.2271545 -0.15361503
-0.7766121 2.2614138 -0.16879211
-0.86443788 2.2467277 -0.19284013
-0.94887757 2.221127 -0.21645397
-0.93544823 1.9859097 -0.21802662
-0.66599631 1.9410765 -0.22083342
-0 0 -0
-0.85847807 2.0109775 -0.27676874
-0.87352991 1.8556362 -0.28010798
-0 0 -0
-0.74580884 1.9441724 -0.321578
-0 0 -0
-0.73359942 1.5590179 -0.30049351
-0.36828789 1.0789713 -0.2084855
-0.44399863 1.1590475 -0.2391033
-0.62808412 1.4753447 -0.32459888
-0.86477494 1.8392868 -0.43274999
-0 0 -0
-0 0 -0
-0 0 -0
-0.8190909 1.7405434 -0.48564917
-0 0 -0
-0 0 -0
-0 0 -0
-0 0 -0
-0.77778089 2.3018391 0.75062877
-0.87225842 2.2886677 0.72745484
-0.96122092 2.260339 0.70352471
-1.0481219 2.229809 0.68009466
-0 0 0
-0.86192197 2.2633269 0.6200341
-0.96544904 2.2750211 0.60762841
-1.0420526 2.2237487 0.57844406
-0 0 0
-0.86917704 2.2814202 0.52882683
-0.97007579 2.2883668 0.51358974
-1.0384616 2.2202187 0.48190385
-0 0 0
-0.87985969 2.3112786 0.4404349
-0.97066885 2.292995 0.4190487
-1.028102 2.2002711 0.38535058
-0.75577617 2.2309372 0.35446665
-0.87820864 2.3104579 0.34720352
-0.94893193 2.2449198 0.31879169
-1.0356191 2.2215123 0.29721677
-0.78359246 2.3143759 0.27627715
-0.88244426 2.3217232 0.25671634
-0.96896559 2.2948823 0.23371997
-1.0266378 2.2050598 0.20544632
-0.79105043 2.3376119 0.18824291
-0.88905644 2.3413346 0.16682833
-0.95476842 2.2628007 0.14053589
-0.96941561 2.083961 0.10927448
-0.77247488 2.285084 0.095236294
-0.87459803 2.3066542 0.073819071
-0.9557575 2.2683496 0.050615102
-1.010452 2.1745589 0.026157603
-0.78235769 2.3153841 0.0069528935
-0.87731093 2.31637 -0.016903507
-0.96229452 2.2864289 -0.039922372
-1.0321133 2.2233074 -0.062859669
-0.76153457 2.2576554 -0.08070536
-0.86859161 2.2958884 -0.10627314
-0.96780509 2.3034568 -0.13207836
-1.0370471 2.2353654 -0.15373956
-0.76876748 2.2840991 -0.17013006
-0.84535247 2.2380021 -0.19164236
-0.93638808 2.2296624 -0.21672174
-0.95295995 2.0557122 -0.22504382
-0.65502429 1.9479537 -0.22115441
-0.72389448 1.9189845 -0.24020916
-0.85495257 2.0372474 -0.27965698
-0.87545502 1.8897295 -0.28443813
-0.46223921 1.3783786 -0.21063843
-0.50781965 1.3484679 -0.22252525
-0.59092832 1.4096267 -0.25131142
-0.71822423 1.5509748 -0.29808819
-0.36134848 1.0802779 -0.20830563
-0.38987255 1.0367515 -0.213377
-0.4589676 1.0967202 -0.24067144
-0.50846946 1.0989236 -0.25781736
-0 0 -0
-0 0 -0
-0 0 -0
-0.60955644 1.3161908 -0.36619511
-0 0 -0
-0 0 -0
-0 0 -0
-0 0 -0
-0 0 0
-0 0 0
-0.94622129 2.2635336 0.70269865
-1.0218745 2.2090769 0.67184621
-0 0 0
-0.85548079 2.2885363 0.62549037
-0.96193969 2.3059967 0.61431354
-1.0190135 2.2097707 0.57317084
-0 0 0
-0.88289165 2.3608592 0.54597455
-0.9597832 2.3033159 0.51561332
-1.0289216 2.235462 0.48383301
-0 0 0
-0.86531681 2.3157115 0.44025958
-0.94256383 2.2652206 0.4129082
-1.0170577 2.2119219 0.38629085
-0.76606125 2.3077977 0.36592504
-0.88166958 2.3631213 0.35429782
-0.94503117 2.2745073 0.32216379
-1.0190712 2.2215087 0.29637411
-0.79315603 2.3908176 0.28481603
-0 0 0
-0.96364397 2.3219349 0.23586848
-1.007278 2.1986349 0.20426801
-0.76194292 2.2979395 0.18466821
-0.89453661 2.4000382 0.17061685
-0.976053 2.3534591 0.14579171
-0.95993626 2.097136 0.1096544
-0 0 0
-0.85798776 2.3054199 0.073609702
-0.92269403 2.2279861 0.049587179
-0.9675684 2.1161513 0.02538313
-0.7536785 2.2764723 0.0068220291
-0.87109542 2.3432672 -0.017060461
-0.93104792 2.2507131 -0.039198264
-1.0088987 2.2086844 -0.062270038
-0.75833064 2.2945499 -0.081856363
-0.87465906 2.3554964 -0.10878184
-0.93993151 2.2761235 -0.13017796
-1.0249696 2.2453182 -0.15398863
-0.7488026 2.2707736 -0.16879211
-0.8309114 2.2412775 -0.19148265
-0.9116689 2.2086668 -0.21413322
-0.93578571 2.0515616 -0.22395663
-0.67261475 2.0416479 -0.23131874
-0.66658658 1.8004422 -0.22485439
-0.794016 1.9250622 -0.2635833
-0.91767949 2.0131691 -0.30216476
-1.1642411 3.543704 -0.54043311
-0.49782294 1.3469236 -0.22176214
-0.61083627 1.4825644 -0.26364174
-0.78221852 1.7167147 -0.32901376
-0.34736162 1.06004 -0.2039884
-0 0 -0
-0.43209738 1.0505677 -0.22995728
-0 0 -0
-0.2782625 0.8519336 -0.19875415
-0 0 -0
-0.37777424 0.91876417 -0.24008986
-0.42496839 0.93258077 -0.25873545
-0 0 -0
-0 0 -0
-0 0 -0
-0 0 -0
-0 0 0
-0.85831338 2.3378942 0.73969769
-0.93852526 2.2844136 0.70737964
-1.0186832 2.2381165 0.67876428
-0 0 0
-0 0 0
-0.92346096 2.2525542 0.5985558
-1.0010115 2.2062314 0.57064891
-0 0 0
-0.84212524 2.294667 0.52946192
-0.9189111 2.2439106 0.50104338
-1.0135666 2.238158 0.48306137
-0 0 0
-0.8538031 2.328372 0.44166222
-0.95104194 2.3257275 0.42286578
-1.0022452 2.2154214 0.38582072
-0.75402683 2.3190377 0.36696672
-0.88349521 2.4131222 0.36097479
-0.92580968 2.2674112 0.32034802
-1.0103216 2.2385778 0.29781869
-0.75021911 2.308697 0.27447951
-0.8658554 2.3650699 0.26031467
-0.95125872 2.3324137 0.23633556
-0.9962253 2.2102246 0.20477299
-0 0 0
-0.87293881 2.3867404 0.16928755
-0.93371093 2.2909884 0.14156422
-0.95238245 2.1148267 0.11027177
-0.75115913 2.3153014 0.096104234
-0.83593959 2.2890463 0.07292176
-0.91729707 2.2539783 0.050039463
-0.96194953 2.138463 0.025579475
-0.75296015 2.3219571 0.0069443597
-0.83442688 2.2875056 -0.01661689
-0.91609073 2.2536049 -0.039149992
-0.95394093 2.1227386 -0.05968079
-0.76270467 2.3562107 -0.08388754
-0.83864206 2.301681 -0.10605688
-0.93082911 2.2938774 -0.13086422
-1.0132177 2.2561176 -0.15429997
-0.72995013 2.2601376 -0.16766542
-0.82327724 2.2631953 -0.19291997
-0.90371501 2.2280636 -0.2154721
-0.97003156 2.1616714 -0.23532248
-0.63595551 1.9709848 -0.2228663
-0 0 -0
-0.81386411 2.00805 -0.27425721
-0.88260597 1.9681348 -0.29458696
-1.121863 3.4867179 -0.53068268
-0 0 -0
-0.64023852 1.5814068 -0.28051484
-0.78013241 1.7403599 -0.33262175
-0.34986803 1.0902506 -0.20938492
-0.38614753 1.0663863 -0.21848443
-0.39185604 0.96959758 -0.21170355
-0.44057363 0.98368233 -0.22949493
-0.27987051 0.87501204 -0.20373382
-0 0 -0
-0 0 -0
-0 0 -0
-0 0 -0
-0 0 -0
-0 0 -0
-0 0 -0
-0 0 0
-0 0 0
-0.92413086 2.289238 0.70710427
-1.0037494 2.2416854 0.677966
-0 0 0
-0.82470822 2.2915699 0.62350631
-0.91143626 2.2626817 0.59974957
-1.0124494 2.2683291 0.58509284
-0.7318778 2.2999005 0.54812193
-0.85881996 2.385309 0.54915005
-0.92779011 2.3058352 0.51358974
-1.0405416 2.3357577 0.50273877
-0 0 0
-0.8295024 2.3057754 0.43640226
-0.95660639 2.3809314 0.43182763
-0.99867165 2.2440875 0.3897385
-0.7343834 2.3066599 0.36428815
-0.81912917 2.2805641 0.3403874
-0.97833246 2.4386966 0.34369323
-0.99777544 2.247457 0.29817984
-0.72669923 2.2839031 0.27099657
-0.83417976 2.3225944 0.25507137
-0.95359409 2.3797951 0.24053915
-0.97779822 2.2053645 0.20376301
-0.74184507 2.3327723 0.18672177
-0.84917927 2.3666942 0.16749299
-0.91740936 2.2911136 0.14122145
-0.94828856 2.1407228 0.11131655
-0.7357285 2.3160577 0.095946424
-0.81614757 2.2781353 0.072413273
-0.95541471 2.3895311 0.052917659
-0.98603415 2.2284522 0.02658302
-0.73688298 2.3208148 0.0069272905
-0.84833878 2.3707278 -0.017183296
-0.91707903 2.2963257 -0.03979364
-0.97525215 2.2062697 -0.061859857
-0.75547963 2.3837116 -0.084700003
-0.81071681 2.2682116 -0.1042835
-0.91525745 2.2958353 -0.13065307
-0.9997586 2.2632048 -0.15436225
-0.71757221 2.2693295 -0.16801752
-0.80568999 2.2578773 -0.19204162
-0.89260775 2.2400434 -0.21609691
-0.9266125 2.0993052 -0.22790997
-0.63912404 2.0232017 -0.22832292
-0 0 -0
-0 0 -0
-0.87891036 1.9925505 -0.29742867
-1.0683352 3.3915899 -0.51519662
-0.52232736 1.4683912 -0.24068746
-0.68121296 1.7127533 -0.30306631
-0.94152957 2.135421 -0.40701494
-0.30160201 0.96005279 -0.18402128
-0.37926835 1.0678103 -0.21829526
-0.39385605 0.99202472 -0.2160686
-0.4806639 1.0910904 -0.25386056
-0.26516163 0.84689903 -0.19680557
-0 0 -0
-0.3589409 0.90435833 -0.23515651
-0 0 -0
-0 0 -0
-0 0 -0
-0 0 -0
-0 0 -0
-0.73013008 2.3494303 0.76007432
-0.79954439 2.2632875 0.7129342
-0.91786349 2.3145254 0.71316206
-0.97560012 2.2151616 0.66812116
-0 0 0
-0.83449292 2.3641875 0.64185929
-0.88360089 2.2330163 0.59043813
-0.9828614 2.2388482 0.57592213
-0 0 0
-0.82496738 2.3361616 0.53665972
-0.91614413 2.3178596 0.51500624
-0.99941307 2.2809844 0.48962048
-0 0 0
-0.78749472 2.2319067 0.42149901
-0.9224301 2.3372231 0.42286578
-0.97815114 2.2347918 0.38707438
-0.72374666 2.3224516 0.36607385
-0.81729442 2.3201063 0.34553429
-0.9611693 2.4391186 0.34291506
-0.9974727 2.2844696 0.30227271
-0.7135582 2.2911654 0.27133363
-0.81627756 2.3173487 0.25394046
-0.92985779 2.3624403 0.23820382
-0.95986682 2.2012753 0.2028372
-0.72188699 2.3191912 0.18527667
-0.83397907 2.3699777 0.16736004
-0.90041071 2.2892668 0.14076442
-0.92635858 2.1263547 0.11027177
-0.71913016 2.3128948 0.09563081
-0.80546719 2.2925308 0.072712392
-0 0 0
-0.97872597 2.2491307 0.026757549
-0.71995795 2.3166981 0.0069016861
-0.81854445 2.3324847 -0.016869385
-0.91940278 2.3437965 -0.040517747
-0.97723979 2.247967 -0.062859669
-0.72484994 2.3367562 -0.082871951
-0.82256144 2.3466837 -0.10765725
-0.90734297 2.3172154 -0.13155048
-0.98982984 2.2784507 -0.15498492
-0.71012217 2.2946544 -0.16956672
-0.79247922 2.2646599 -0.19220132
-0.87739426 2.2417684 -0.21573988
-0.9248085 2.1305101 -0.23067731
-0.58235323 1.8836504 -0.21216698
-0.60646671 1.7355225 -0.21531582
-0 0 -0
-0.88677692 2.0442631 -0.30432984
-0.34868234 1.1311176 -0.17149325
-0 0 -0
-0.46998626 1.2031174 -0.21237357
-0.94134182 2.170984 -0.41268465
-0.29628369 0.96376592 -0.18438107
-0 0 -0
-0.4133988 1.0601696 -0.2303541
-0.41952652 0.96837294 -0.22470511
-0.25853026 0.8438428 -0.19572304
-0 0 -0
-0 0 -0
-0 0 -0
-0.24636132 0.80683762 -0.22068805
-0 0 -0
-0 0 -0
-0 0 -0
-0 0 0
-0.78626955 2.2699623 0.7135036
-0.88654858 2.2762196 0.69966978
-0.9757818 2.2529497 0.67769998
-0 0 0
-0.78987139 2.2822926 0.61829799
-0.88571161 2.2791269 0.6011821
-0.96601933 2.2376878 0.57408798
-0 0 0
-0.82404774 2.3799682 0.54555112
-0.90757489 2.3380446 0.51824403
-0.97452724 2.2618423 0.48421887
-0.67889196 2.2258258 0.43844017
-0.79052263 2.2850776 0.43061629
-0.91092294 2.3501949 0.42419347
-0.98238117 2.2824821 0.39428306
-0.69881165 2.2918513 0.36056787
-0.82211703 2.3803027 0.35374141
-0.87461281 2.2600253 0.31697595
-0.96777064 2.2540588 0.29745755
-0.70383108 2.3097582 0.27301893
-0.79425013 2.2997489 0.25147301
-0.89524293 2.3160961 0.23297268
-0.96793908 2.2574937 0.20746627
-0.71606743 2.3512387 0.18748234
-0.81063503 2.3495831 0.16556548
-0.90936905 2.3543525 0.14442064
-0.91447407 2.1347532 0.11041424
-0.70521581 2.3182199 0.095670268
-0.78292131 2.2728584 0.071934715
-0.9091109 2.3572333 0.051951408
-0.96333373 2.2514164 0.026713917
-0.7095111 2.3335097 0.0069386698
-0.79120398 2.2996404 -0.016596418
-0.87661052 2.2756834 -0.039246541
-0.96067774 2.2474864 -0.062680215
-0.71775407 2.3650687 -0.08371827
-0.82178384 2.3913696 -0.10947389
-0.90206748 2.3460412 -0.13287021
-0.96681356 2.2633712 -0.15355276
-0.68273282 2.2550511 -0.16632749
-0.77177596 2.2496798 -0.19052444
-0.84968734 2.210851 -0.21225876
-0.89257795 2.0912983 -0.22583447
-0.58114666 1.9214488 -0.21601874
-0.68625563 2.0032406 -0.2480029
-0 0 -0
-0.86838621 2.0359952 -0.3023001
-0.36716551 1.2175652 -0.18425485
-0.53016961 1.5504355 -0.25304997
-0 0 -0
-0.91718549 2.1513453 -0.40787399
-0 0 -0
-0.34741685 1.0175568 -0.20713457
-0.41144192 1.0745853 -0.23293343
-0.40169466 0.94303387 -0.21824929
-0.25699094 0.85757071 -0.19853763
-0 0 -0
-0 0 -0
-0.41526341 0.97394532 -0.26730284
-0 0 -0
-0 0 -0
-0 0 -0
-0 0 -0
-0 0 0
-0.78804433 2.3210378 0.7280243
-0 0 0
-0.95589674 2.2447045 0.67344272
-0 0 0
-0.80510664 2.3733327 0.64161128
-0.86340189 2.2627442 0.59545201
-0.94390428 2.223861 0.56904405
-0 0 0
-0 0 0
-0.88623637 2.3252673 0.51419681
-0.95948231 2.2650685 0.4836401
-0 0 0
-0.75151026 2.2162285 0.41676503
-0 0 0
-0.96489376 2.2802808 0.39287269
-0.68954015 2.3122056 0.36309764
-0.77764779 2.2971313 0.34066564
-0.92024767 2.4219959 0.33889452
-0.95353568 2.2590396 0.29733714
-0.68027985 2.2826083 0.26931125
-0.77278858 2.2829087 0.24910839
-0.8976177 2.3652954 0.2373631
-0.93936133 2.2284982 0.20426801
-0.67971003 2.2820058 0.18162589
-0.81474155 2.4093347 0.16942047
-0.87154204 2.2982769 0.14065015
-0.91376406 2.1697824 0.11193392
-0.70038122 2.3541086 0.096972167
-0.78430778 2.3230772 0.073370412
-0.89533806 2.3646369 0.051992524
-0.94717485 2.2517548 0.026648469
-0.69004911 2.3205659 0.0068874615
-0.77707875 2.3044517 -0.016596418
-0 0 -0
-0.95771277 2.2791438 -0.063398018
-0.70578808 2.3780513 -0.084022947
-0.77456903 2.2997928 -0.10506206
-0.88060218 2.3328469 -0.13181444
-0.95870394 2.2830644 -0.15448679
-0.66633457 2.2505896 -0.16569373
-0.76462865 2.2742143 -0.19220132
-0.84946668 2.2514346 -0.21565062
-0.88819921 2.1169231 -0.22800881
-0.58400959 1.974557 -0.22158237
-0.63538527 1.8925427 -0.23381133
-0.64009893 1.6978701 -0.22967787
-0.88461071 2.1098154 -0.31244892
-0.35716853 1.2112517 -0.18296435
-0.42329988 1.2631681 -0.20573665
-0 0 -0
-0.841901 2.0088365 -0.37986916
-0 0 -0
-0.3461518 1.0345687 -0.21016121
-0.4103581 1.091769 -0.23610801
-0.4023228 0.96081781 -0.22178958
-0.25227314 0.86100525 -0.19897065
-0.28863093 0.86395466 -0.21094932
-0 0 -0
-0 0 -0
-0 0 -0
-0 0 -0
-0 0 -0
-0 0 -0
-0 0 0
-0.76713032 2.3058183 0.72176045
-0.85381883 2.2743273 0.69581491
-0.95178342 2.2736464 0.68036073
-0 0 0
-0.76241589 2.2936525 0.61879402
-0.90297866 2.4107721 0.6329363
-0.93323952 2.2367973 0.57087821
-0.66348398 2.2769113 0.53859901
-0.78244334 2.3528056 0.53708315
-0.86097121 2.3013103 0.5077213
-0.95650393 2.2971821 0.48923466
-0.69142157 2.3707833 0.46528721
-0.73789757 2.220798 0.41676503
-0.86683041 2.3205497 0.41689122
-0.95240122 2.2898061 0.39349952
-0 0 0
-0.82371092 2.483264 0.3675127
-0.85443568 2.2910271 0.31982926
-1.0016663 2.4143097 0.31695899
-0.67737949 2.3248994 0.27380538
-0.75907952 2.2885516 0.24921119
-0.88552034 2.3772898 0.23801699
-0.94512153 2.2811692 0.20856042
-0.67768216 2.3272994 0.18489638
-0.78676218 2.3745084 0.16662893
-0.87414032 2.3484929 0.14339232
-0.95582694 2.3091733 0.11881997
-0.67894703 2.3343751 0.095985875
-0.76156312 2.3022234 0.072562829
-0.84493881 2.2735584 0.049874995
-0.93563282 2.2630684 0.026713917
-0.67468083 2.3209152 0.0068760822
-0.76606131 2.3186715 -0.01666466
-0.8392241 2.2609603 -0.038812079
-0.9459998 2.2905211 -0.063551836
-0.68672764 2.3669796 -0.083481297
-0.76326084 2.3130407 -0.10545135
-0.85551679 2.3091776 -0.13017796
-0.96371549 2.3350325 -0.15760018
-0.66194123 2.2872143 -0.16808793
-0.74442267 2.259928 -0.19060428
-0.83494437 2.2547364 -0.2154721
-0.86950278 2.1085339 -0.22652631
-0.55614311 1.9236602 -0.21548378
-0.6395877 1.9445236 -0.23974387
-0.61624247 1.6654787 -0.22478043
-0.64892328 1.5747228 -0.2326114
-0.34452215 1.1953523 -0.18023996
-0.40629333 1.2375724 -0.20115794
-0 0 -0
-0.470121 1.1413375 -0.21527636
-0.2814824 0.97945583 -0.18635976
-0 0 -0
-0.36091182 0.97840273 -0.21110833
-0 0 -0
-0.24671662 0.86159837 -0.19875415
-0.29150593 0.89070851 -0.21704091
-0 0 -0
-0 0 -0
-0.23518457 0.82426006 -0.2242312
-0.25664273 0.78617793 -0.22473945
-0 0 -0
-0 0 -0
-0.62212706 2.190177 0.70340079
-0.75237358 2.3086593 0.72119105
-0.85646522 2.3246267 0.70958251
-0.95065135 2.3106441 0.68967342
-0 0 0
-0.75102735 2.3065779 0.62102616
-0.8292039 2.2558513 0.59091568
-0.93131405 2.2713006 0.57821476
-0 0 0
-0.76163501 2.3380475 0.53263742
-0.8731609 2.3782561 0.52350539
-0.94610673 2.3120892 0.49116379
-0.6547755 2.2974849 0.45010477
-0.72578061 2.2299647 0.41764173
-0.87056375 2.3748968 0.42568707
-0.96187568 2.3532026 0.40337226
-0.65759152 2.30813 0.36116311
-0.75704998 2.3300467 0.34414324
-0.83116108 2.2710855 0.31632748
-0.98795784 2.4231682 0.31732014
-0.64704764 2.2726262 0.26717654
-0.74010533 2.2780299 0.24756625
-0.86202997 2.3583653 0.23558824
-0.92659771 2.2758505 0.20755044
-0.67048436 2.3563485 0.18687387
-0.72998047 2.24927 0.15752316
-0.84943825 2.3256788 0.14167847
-0.92357516 2.2705824 0.11654045
-0.66297179 2.3327301 0.095749162
-0.74742264 2.3068531 0.072562829
-0.83337027 2.285275 0.050018907
-0.95974267 2.3623338 0.027815636
-0.66206676 2.3307831 0.0068931514
-0.74720168 2.309057 -0.016562296
-0.84689254 2.3252554 -0.039825823
-0.93531102 2.3046193 -0.063782565
-0.65828949 2.3221104 -0.081754804
-0.76472318 2.3661635 -0.10765725
-0.84235537 2.317199 -0.13033633
-0.93399084 2.3029809 -0.15504718
-0.63540906 2.2470784 -0.1648487
-0.72472703 2.2464285 -0.18908712
-0.81497139 2.2429667 -0.21386544
-0.82926774 2.046504 -0.21931146
-0.54027516 1.912684 -0.21387887
-0 0 -0
-0.68455619 1.8855754 -0.25391397
-0.63999248 1.5805116 -0.23288202
-0.31411222 1.1155183 -0.1679085
-0.40292701 1.2532139 -0.20329466
-0.44233701 1.219855 -0.21334702
-0 0 -0
-0 0 -0
-0.30521899 0.95085251 -0.1923798
-0.33989173 0.93912619 -0.20217988
-0.39123511 0.96749604 -0.22220609
-0.24195129 0.86497635 -0.19918716
-0.26789778 0.83588856 -0.20327844
-0 0 -0
-0 0 -0
-0 0 -0
-0.26121661 0.81715167 -0.23313111
-0 0 -0
-0 0 -0
-0 0 0
-0.73323941 2.2977071 0.71635079
-0 0 0
-0.90791392 2.2458327 0.66865325
-0 0 0
-0.72950345 2.2880681 0.61482579
-0.81271112 2.2535887 0.58900559
-0.91299522 2.2661383 0.57546359
-0.65482932 2.3544052 0.55498731
-0.74816567 2.34547 0.5332725
-0.84693623 2.351321 0.51642275
-0.9267779 2.3051054 0.48846298
-0.63407755 2.2777913 0.44547597
-0.73211336 2.2972238 0.42938897
-0.82527363 2.2948222 0.41041878
-0.9282788 2.3114026 0.39522332
-0.64103085 2.3035476 0.35982385
-0.73763508 2.3186054 0.34177846
-0.82290632 2.2920077 0.31853229
-0.9261893 2.3121486 0.30203196
-0.6479997 2.3301647 0.27346832
-0.73123991 2.2986424 0.24931403
-0.82267469 2.2942579 0.22867568
-0.91483641 2.2870443 0.20805542
-0.65628052 2.3613789 0.18694994
-0.74668562 2.3497508 0.16423617
-0.82909065 2.3139298 0.14065015
-0.89183348 2.2316842 0.11426093
-0.65158588 2.3473451 0.096183136
-0.75229561 2.3714194 0.074447192
-0.83044541 2.3214104 0.050697338
-0.89444661 2.2409468 0.026321227
-0.65015888 2.3434739 0.0069187554
-0.73815399 2.3298039 -0.016678307
-0.82352608 2.3049855 -0.039391361
-0.90893471 2.2796717 -0.062936574
-0.64909577 2.3444064 -0.082398005
-0.75199872 2.3765264 -0.10791677
-0.83784831 2.3496013 -0.13186722
-0.91097647 2.2864163 -0.15355276
-0.62665439 2.2692039 -0.16618665
-0.71903563 2.2764974 -0.19124311
-0.80654365 2.2629364 -0.21529359
-0.85865235 2.1569514 -0.23057848
-0.57479835 2.0836935 -0.23260264
-0.57863504 1.8347702 -0.22531968
-0.63835979 1.7925431 -0.24085411
-0.63174748 1.5880913 -0.23342329
-0.322218 1.1718169 -0.17608169
-0.37920707 1.2047575 -0.19505301
-0 0 -0
-0 0 -0
-0 0 -0
-0 0 -0
-0.33445087 0.94211775 -0.2023783
-0.38998556 0.98169512 -0.22491337
-0.23355274 0.85514325 -0.19658907
-0.26538855 0.84588248 -0.20530896
-0.30850631 0.86932302 -0.22294059
-0 0 -0
-0 0 -0
-0.23746563 0.75887626 -0.21608554
-0 0 -0
-0 0 -0
-0.6014477 2.2207019 0.7107802
-0.71283907 2.2820327 0.71008706
-0 0 0
-0.93289858 2.3490129 0.6976558
-0 0 0
-0.70794666 2.2684572 0.60837746
-0.81052566 2.2914908 0.59760076
-0.90659535 2.2907038 0.58027822
-0 0 0
-0.71803045 2.2996392 0.52184075
-0.80248135 2.2715223 0.49780563
-0.90901226 2.3016224 0.48653382
-0.62447071 2.2977605 0.44862354
-0 0 0
-0.79412061 2.2514837 0.40178886
-0.95539725 2.4217908 0.41308829
-0.62688446 2.3074374 0.35982385
-0.73811561 2.370363 0.34873366
-0.80454612 2.2848551 0.31684625
-0.91125786 2.3159406 0.30179122
-0.63863653 2.3523171 0.27560306
-0.71534759 2.2973876 0.24869716
-0.79239702 2.2532396 0.22409841
-0.89896411 2.2879775 0.2076346
-0.62193555 2.2922256 0.18116955
-0.72780865 2.3399966 0.16323918
-0.81024331 2.3057868 0.13985036
-0.90659124 2.3096392 0.11796515
-0.64187485 2.3686588 0.096893266
-0.71490818 2.3024869 0.072144084
-0.80129194 2.2840085 0.049772203
-0.91717684 2.339488 0.027412035
-0.63968861 2.3618975 0.0069614286
-0.72058678 2.3237832 -0.016603241
-0.8083756 2.3071642 -0.039343089
-0.90367854 2.3075459 -0.063551836
-0.63913155 2.364747 -0.08297351
-0.73474246 2.3725066 -0.10752749
-0.80924159 2.3141646 -0.12959729
-0.89874882 2.2966101 -0.1538641
-0.61064196 2.2653012 -0.16562329
-0.70711446 2.2875328 -0.19180207
-0.78869987 2.2565596 -0.21422248
-0.79430765 2.0315034 -0.21664296
-0.53589272 1.9902148 -0.22179636
-0.57468897 1.8620121 -0.22822779
-0.60085505 1.7205604 -0.23068248
-0.62631822 1.6030121 -0.23504712
-0.31322607 1.1670811 -0.17507796
-0.35958862 1.1673928 -0.1886428
-0.47737944 1.3686738 -0.23833215
-0 0 -0
-0 0 -0
-0 0 -0
-0.32511944 0.93397009 -0.20019577
-0.39462006 1.0114048 -0.23116097
-0.22830129 0.85656017 -0.19658907
-0.25676221 0.83631927 -0.2026016
-0.29102701 0.83631492 -0.21401358
-0.36755544 0.94106835 -0.25506371
-0.21401416 0.80600834 -0.21815722
-0.24184576 0.789846 -0.2244772
-0 0 -0
-0.29464802 0.75432265 -0.23773089
-0.64053756 2.423877 0.77453786
-0 0 0
-0.78890753 2.2691712 0.68810499
-0.87363023 2.2397423 0.66359782
-0 0 0
-0 0 0
-0.7999503 2.3065133 0.60022706
-0.88264894 2.2708206 0.57385868
-0 0 0
-0.70619106 2.3114791 0.5235343
-0.80904305 2.3356271 0.51075667
-0.89558232 2.3089864 0.48691967
-0.60053593 2.2645037 0.44140261
-0 0 0
-0.8086533 2.3383279 0.41639334
-0.8980605 2.3180153 0.39443979
-0 0 0
-0.7065292 2.3189573 0.34052655
-0.7973066 2.3094316 0.31956989
-0.88343352 2.2863002 0.29721677
-0.61553931 2.3235333 0.27178302
-0.70007807 2.2979274 0.24828592
-0.77466208 2.2467642 0.22297746
-0.8852672 2.2943799 0.20771877
-0.61347312 2.3172042 0.18284281
-0.7064653 2.3215086 0.16164401
-0.82046962 2.3815086 0.14413498
-0.89707285 2.3272748 0.11858252
-0.61787814 2.3368099 0.095433556
-0.71006393 2.3374348 0.073101215
-0.79701793 2.3172452 0.050388962
-0.87370527 2.2694845 0.02652848
-0.61649758 2.3329065 0.0068647028
-0.70428264 2.3214626 -0.016555471
-0.79615289 2.3177547 -0.039439637
-0.88412052 2.2990515 -0.063167304
-0.61569035 2.3348002 -0.081788652
-0.71263927 2.3521106 -0.10640291
-0.82028639 2.3927684 -0.13371484
-0.89717042 2.3346889 -0.15604347
-0.59292519 2.2545347 -0.16456704
-0.68642879 2.2698834 -0.18996549
-0.77806753 2.2707789 -0.21511506
-0.78396767 2.0419128 -0.21723597
-0.48022109 1.8280647 -0.20339358
-0 0 -0
-0.54272944 1.5853015 -0.21209729
-0.61150181 1.5938741 -0.23315266
-0.29452863 1.1249409 -0.16848207
-0.33417064 1.1090167 -0.17887489
-0.36777145 1.0756004 -0.18690172
-0 0 -0
-0 0 -0
-0 0 -0
-0.32951164 0.96563053 -0.20654489
-0.3607634 0.94165325 -0.21470897
-0 0 -0
-0.25330704 0.84347725 -0.20395528
-0.2862038 0.83900481 -0.21424849
-0 0 -0
-0 0 -0
-0.23035006 0.76912862 -0.21818344
-0 0 -0
-0 0 -0
-0.58440363 2.2676997 0.72347271
-0.69823539 2.3356125 0.72403824
-0.77093786 2.2621398 0.68452543
-0.88090229 2.2999716 0.67982852
-0 0 0
-0.66730314 2.2342749 0.59696883
-0.77015465 2.2654083 0.58828938
-0.86696357 2.2716467 0.57271236
-0.60650212 2.3471766 0.55055803
-0.69395351 2.3223236 0.52501619
-0.79501152 2.3414745 0.51095903
-0.88698512 2.3291097 0.49000633
-0.60262442 2.329987 0.45343751
-0.66858292 2.2395575 0.41623902
-0.78036106 2.3021526 0.40909111
-0.87925571 2.3114815 0.39240256
-0.59579861 2.3044252 0.3581869
-0.69370097 2.3279939 0.34122205
-0.77612901 2.293617 0.31671655
-0.85248655 2.2471251 0.29143855
-0.60425353 2.3388114 0.27313128
-0.67772782 2.2745345 0.24530444
-0.76851165 2.2741125 0.22521937
-0.86481863 2.2829957 0.20620379
-0.6134519 2.3759551 0.18717812
-0.67000675 2.2512059 0.1564597
-0.78380311 2.3212316 0.14019313
-0.8803013 2.3261957 0.11825009
-0.59778976 2.3183031 0.094526164
-0.67692083 2.2785089 0.071127124
-0.77288395 2.2927222 0.049751643
-0.85870296 2.2719967 0.026495757
-0.60316974 2.3405187 0.0068760822
-0.69514483 2.3429964 -0.016678307
-0.7803213 2.317858 -0.039359178
-0.87070328 2.3063035 -0.063218571
-0.60633075 2.357893 -0.082465716
-0.70046413 2.3641024 -0.10674894
-0.77855599 2.3172948 -0.12922776
-0.87613475 2.3224075 -0.15486039
-0.59023094 2.3016119 -0.16773586
-0.67531484 2.2836113 -0.190764
-0.75968075 2.2622917 -0.21386544
-0.75563049 2.0047827 -0.21278846
-0.48133075 1.879135 -0.20874321
-0.54279619 1.8384422 -0.22450542
-0.55539721 1.6553813 -0.22101316
-0.60205972 1.5985234 -0.23328799
-0.29447451 1.1535765 -0.17249696
-0.31953868 1.0845025 -0.17460144
-0.40254819 1.2013388 -0.20831755
-0.46092039 1.2243687 -0.22816202
-0 0 -0
-0 0 -0
-0 0 -0
-0.35153568 0.93469447 -0.21262644
-0.22280937 0.87917089 -0.20113572
-0.24949919 0.84968936 -0.20508336
-0.27673602 0.82783896 -0.21095958
-0 0 -0
-0.20836918 0.82545829 -0.22271271
-0.22318578 0.76219255 -0.21582328
-0 0 -0
-0 0 -0
-0 0 0
-0 0 0
-0 0 0
-0.85625672 2.2773628 0.6715802
-0.61371022 2.4368801 0.67095178
-0.66498572 2.277384 0.6073854
-0.75746751 2.2737763 0.58924443
-0.86256999 2.3024454 0.57913184
-0.58232379 2.3120828 0.54147804
-0.67311329 2.304023 0.51993543
-0.7688815 2.310998 0.50326937
-0.87714374 2.3464565 0.49251425
-0 0 0
-0.66503447 2.2785857 0.42272633
-0.75285447 2.2666554 0.40195483
-0.86712897 2.3223846 0.39334282
-0.53355968 2.1172194 0.32857361
-0.68134236 2.3388619 0.34219575
-0.76235306 2.2992773 0.31684625
-0.85011435 2.2830145 0.29541111
-0.58989149 2.3424752 0.27313128
-0.6754427 2.3187606 0.24962245
-0.75673425 2.2854013 0.22587328
-0.84593254 2.2751834 0.20502549
-0 0 0
-0.67792362 2.3300033 0.16164401
-0.76923192 2.3250492 0.140136
-0.86357689 2.3249989 0.11791766
-0.5906167 2.3500309 0.095670268
-0.67937511 2.3392532 0.072891846
-0.7597422 2.3002696 0.049813319
-0.84265941 2.2715976 0.026430307
-0.58611757 2.3335073 0.0068447883
-0.67657733 2.3328116 -0.016575946
-0.76295251 2.313107 -0.039198264
-0.86626118 2.3378496 -0.063936383
-0.59039378 2.3557522 -0.082262591
-0.66676754 2.3021417 -0.10376447
-0.7643227 2.3220284 -0.12922776
-0.84904587 2.2931087 -0.15255646
-0.58045077 2.3226097 -0.16900337
-0.65796846 2.2762208 -0.18980578
-0.74671912 2.2697487 -0.21413322
-0.73710066 1.9925818 -0.21100944
-0.49531585 1.9843071 -0.22008447
-0.53288251 1.8465095 -0.22508705
-0.54894704 1.6700678 -0.22252005
-0.59017885 1.5966114 -0.23247607
-0.29025748 1.1668864 -0.17421763
-0.31342527 1.088342 -0.17490667
-0.38562864 1.1747228 -0.20328806
-0.45237488 1.2244016 -0.22764659
-0.23979609 0.96719277 -0.18222244
-0 0 -0
-0 0 -0
-0 0 -0
-0.21951693 0.8890518 -0.20308429
-0.24374343 0.8493315 -0.20463212
-0.26983622 0.8239789 -0.20955005
-0 0 -0
-0 0 -0
-0.22248733 0.77746409 -0.21975689
-0.25168398 0.76922953 -0.22852157
-0 0 -0
-0 0 0
-0.6634658 2.3228049 0.71748972
-0.73863608 2.2577248 0.68039519
-0.83559293 2.2644868 0.66625863
-0 0 0
-0.64727795 2.2683797 0.60391325
-0.73657268 2.2571485 0.58375305
-0.83599877 2.2738926 0.57064891
-0.56603485 2.3070884 0.53948486
-0.65547544 2.2958925 0.5171833
-0.75468701 2.3156722 0.50326937
-0.86272961 2.3517945 0.49251425
-0.59578347 2.4259615 0.47065663
-0.63726932 2.234339 0.41378438
-0.72581345 2.2309091 0.39481857
-0.8498047 2.3193152 0.39193243
-0.57195437 2.3298097 0.36101431
-0.65803128 2.311568 0.33760533
-0.74669927 2.2991965 0.31619778
-0.83711207 2.2909849 0.29577222
-0.57953173 2.3624563 0.27504128
-0.65875143 2.3142512 0.24869716
-0.74331135 2.2918956 0.22606009
-0.82888258 2.2719061 0.20426801
-0.57950097 2.3639357 0.18565696
-0.66607004 2.342757 0.1622422
-0.75495124 2.3297253 0.140136
-0.84142768 2.3086689 0.11682539
-0.57333481 2.3419638 0.095196843
-0.65218359 2.2981834 0.071486056
-0.74869096 2.3144004 0.050018907
-0.83486164 2.2936389 0.026626654
-0.57345194 2.343859 0.0068647028
-0.6622507 2.3369191 -0.016575946
-0.7524336 2.3291624 -0.039391361
-0.84541005 2.3252702 -0.063449293
-0.5797202 2.3748651 -0.08280424
-0.66242284 2.3407967 -0.10532159
-0.75343096 2.3371294 -0.12980844
-0.83768606 2.3057799 -0.15305462
-0.55439299 2.2776666 -0.16548248
-0.64317667 2.2773373 -0.18956622
-0.73644352 2.2856638 -0.21520431
-0.73810154 2.0335476 -0.21486396
-0.49111664 2.0201569 -0.22372222
-0.49998003 1.7732693 -0.21578112
-0.52956933 1.6450738 -0.21875279
-0.58239806 1.6057912 -0.23328799
-0.29008207 1.1975008 -0.17851929
-0.30379716 1.0797799 -0.17322783
-0.35908505 1.1169453 -0.19290464
-0.51132983 1.4105328 -0.26166475
-0.2495552 1.0336686 -0.19445457
-0 0 -0
-0 0 -0
-0.38200277 1.0548109 -0.23886634
-0.21451409 0.89228052 -0.20351732
-0.23879042 0.85174912 -0.20485774
-0.26418164 0.8237679 -0.20908022
-0 0 -0
-0 0 -0
-0.22005092 0.78717893 -0.22211705
-0.24549109 0.766177 -0.22716294
-0 0 -0
-0 0 0
-0.6533227 2.3416054 0.72204518
-0.71069014 2.2182701 0.66717821
-0.81446332 2.2496309 0.66040492
-0 0 0
-0.65545589 2.3516293 0.6249944
-0.72034448 2.2542253 0.58184302
-0.83821368 2.3238447 0.58188307
-0.55662566 2.3304362 0.54413557
-0.73011297 2.6180689 0.58873796
-0.74135721 2.3230579 0.50387645
-0.83765042 2.3274999 0.48634094
-0.569004 2.3798711 0.46102872
-0.63913637 2.2941623 0.42412901
-0.71181178 2.2343807 0.39465258
-0.8285417 2.3049679 0.38864148
-0.5537405 2.316925 0.35848454
-0.63959092 2.3002968 0.33537966
-0.73197663 2.3018448 0.31593838
-0.82605392 2.3044887 0.29685563
-0.56110132 2.3495376 0.27313128
-0.64294034 2.3124993 0.2480803
-0.72501582 2.2831283 0.22475231
-0.82130659 2.2947748 0.20586714
-0.57100308 2.3926632 0.18763445
-0.64420736 2.3198802 0.16038117
-0.73611313 2.3200395 0.13927908
-0.82186568 2.2987392 0.11606555
-0.56289196 2.3619616 0.095867522
-0.65729213 2.371495 0.073639609
-0.73115528 2.3084664 0.049792763
-0.81740993 2.2893012 0.026517574
-0.55998623 2.3512247 0.0068760822
-0.64283121 2.3226273 -0.016446285
-0.73541427 2.3251553 -0.039246541
-0.83011913 2.327589 -0.063372388
-0.55751288 2.3462899 -0.081687093
-0.64618456 2.3380766 -0.10501881
-0.73426747 2.3264713 -0.12896381
-0.82084197 2.3033552 -0.15255646
-0.5500654 2.3217926 -0.16844003
-0.63078129 2.2870064 -0.19004534
-0.71551359 2.2682924 -0.21315135
-0.71860099 2.0183516 -0.21278846
-0.43086365 1.8209159 -0.2013607
-0.51519239 1.8711038 -0.2272972
-0.52006179 1.6501846 -0.21900395
-0.57020944 1.6028001 -0.23234077
-0.26410741 1.120271 -0.1667614
-0.32046804 1.1664382 -0.18681133
-0.34807754 1.1059504 -0.19063327
-0.42543373 1.1964456 -0.22146147
-0 0 -0
-0 0 -0
-0.2869195 0.91358078 -0.19384666
-0.33590844 0.94561499 -0.21366771
-0 0 -0
-0.23278801 0.85037929 -0.2041809
-0.26407167 0.84113896 -0.21307388
-0 0 -0
-0.19445676 0.83480716 -0.2242312
-0.21674129 0.79410005 -0.22369048
-0.23416081 0.74654877 -0.22091325
-0 0 -0
-0 0 0
-0.64574528 2.3705428 0.72973257
-0.72698522 2.3179872 0.69581491
-0.80967677 2.2800207 0.66785508
-0 0 0
-0.64050543 2.3537374 0.62449837
-0.71403682 2.2826996 0.5880506
-0.82361448 2.3280265 0.58165383
-0.53790146 2.3148108 0.53970629
-0.62776548 2.3056495 0.51760674
-0.71862119 2.3004551 0.49800801
-0.81878102 2.3196423 0.4836401
-0.5508284 2.3680034 0.45806631
-0.65786326 2.4186902 0.4463962
-0.6992628 2.2424722 0.39531645
-0.83145887 2.358444 0.39679042
-0.54108137 2.3270214 0.35952622
-0.63013411 2.3213804 0.33788356
-0.71489221 2.2968254 0.31464145
-0.81058139 2.3057678 0.29637411
-0.55139661 2.3732617 0.2754907
-0.62978125 2.3202407 0.24849153
-0.71985841 2.3160567 0.22755471
-0.82470131 2.3496025 0.21032786
-0.53804564 2.3174493 0.18147378
-0.61690724 2.2756379 0.1570579
-0.72630507 2.3388143 0.140136
-0.81005895 2.3103373 0.11639798
-0.5513224 2.3780253 0.09638039
-0.64481699 2.3832023 0.073878892
-0.716681 2.3119543 0.049772203
-0.80731314 2.3055985 0.026648469
-0.54532313 2.3536422 0.0068732374
-0.62648124 2.3188052 -0.016391693
-0.72024649 2.3267584 -0.039198264
-0.81120133 2.319428 -0.063013487
-0.5476073 2.3691416 -0.082364149
-0.63104552 2.3391037 -0.10488905
-0.7226311 2.3395202 -0.12943892
-0.80603492 2.3064642 -0.15243194
-0.53670478 2.3290122 -0.16872171
-0.61259049 2.2754331 -0.18876772
-0.69100553 2.2383792 -0.20993802
-0.71505928 2.048089 -0.21545695
-0.44153646 1.9184805 -0.21184602
-0.45910594 1.7082922 -0.20717314
-0.5105114 1.6552407 -0.21925509
-0.52087426 1.4930722 -0.2159673
-0.26098856 1.1382692 -0.169199
-0.30204228 1.1263819 -0.18009588
-0.34186593 1.1099514 -0.19095775
-0.45246536 1.2976352 -0.23967321
-0.226992 0.99349922 -0.18635976
-0 0 -0
-0 0 -0
-0 0 -0
-0.20354828 0.89484572 -0.20351732
-0.22806872 0.85367411 -0.20463212
-0.25804919 0.83995599 -0.21236911
-0 0 -0
-0 0 -0
-0.21161632 0.79448253 -0.22342825
-0.22985804 0.74889153 -0.22118497
-0 0 -0
-0.51624691 2.2920156 0.72583407
-0.58858311 2.2141867 0.68047631
-0.71528703 2.3306754 0.69829303
-0.81025362 2.3268213 0.68009466
-0 0 0
-0.60541487 2.2799096 0.60391325
-0.69291168 2.263824 0.58208179
-0.80293441 2.3146443 0.57706845
-0.53830045 2.3827491 0.55476582
-0.61034393 2.2971787 0.51485461
-0.70334727 2.3010747 0.49719855
-0.78816587 2.2773325 0.47380137
-0.53520435 2.3665462 0.45714054
-0.61093539 2.3018329 0.42412901
-0.69585013 2.2806761 0.40129101
-0.81116426 2.3466992 0.39396966
-0.53442436 2.3640561 0.36473459
-0.61511791 2.3223314 0.33746624
-0.71089602 2.3343678 0.31918079
-0.79512423 2.3069439 0.29589263
-0.53200763 2.3552768 0.27301893
-0.61451399 2.3202152 0.2480803
-0.69143999 2.2737548 0.22297746
-0.78724808 2.2877207 0.20435219
-0.53106064 2.3528039 0.18398368
-0.61518002 2.3256817 0.16024823
-0.70265323 2.3126588 0.13830788
-0.79976422 2.3265994 0.11696786
-0.52749342 2.3404229 0.094723418
-0.6240586 2.3639193 0.073161043
-0.70306194 2.3182218 0.049813319
-0.79509902 2.3161833 0.026713917
-0.52911341 2.3491397 0.0068504787
-0.61147684 2.3197048 -0.01637122
-0.71262163 2.3531439 -0.039568365
-0.80376315 2.3442199 -0.063551836
-0.53130752 2.3646562 -0.082093336
-0.61693543 2.3438976 -0.1049323
-0.70797366 2.3429542 -0.12938613
-0.78410405 2.2887058 -0.1509375
-0.51651728 2.3059797 -0.16682042
