# .PCD v0.7 - Point Cloud Data file format
VERSION 0.7
FIELDS x y z
SIZE 4 4 4
TYPE F F F
COUNT 1 1 1
WIDTH 1701
HEIGHT 1
VIEWPOINT 0 0 0 1 0 0 0
POINTS 1701
DATA ascii
0 -0 -0
0 -0 -0
0 -0 -0
2.9290125 -0.85460639 -0.44206828
0 -0 -0
0.84917361 -0.18143965 -0.14277215
0.82571906 -0.14495489 -0.14620924
2.9635348 -0.86714917 -0.56465572
4.085813 -1.0335519 -0.81189191
0 -0 -0
0.85829175 -0.15095098 -0.18555354
3.0509267 -0.89590091 -0.70516586
3.3515296 -0.84942514 -0.80070496
3.2580156 -0.69856578 -0.8053112
0.83465284 -0.14649318 -0.2139402
1.4021982 -0.41318968 -0.38240781
1.325248 -0.33693483 -0.37159368
2.7428246 -0.58885247 -0.79208136
0 -0 -0
5.9037509 -1.7472438 1.9021044
0.76544398 -0.19501497 0.23460774
0.76509553 -0.16427894 0.22413664
0 -0 0
0 -0 0
0.78757381 -0.20087266 0.20808345
0.76702416 -0.16529532 0.19291307
0 -0 0
0 -0 0
0.7907877 -0.20157477 0.17676957
0.78207684 -0.16885348 0.16532813
0 -0 0
0 -0 0
0.77746093 -0.19839451 0.14289588
0 -0 0
0 -0 0
0 -0 0
0.77711815 -0.19872603 0.11267422
0 -0 0
0 -0 0
0.76239038 -0.22512671 0.089882769
0.78251314 -0.2001202 0.08348164
0 -0 0
0 -0 0
0.7621218 -0.22517756 0.060618024
0.77038008 -0.19727516 0.052972976
0 -0 0
0 -0 0
0.78379154 -0.23184788 0.032271452
0.76874065 -0.19725572 0.023748923
0 -0 0
0 -0 0
0.76998335 -0.22788031 0.0022844409
0.77771103 -0.19986132 -0.0054798201
0 -0 -0
0 -0 -0
0 -0 -0
0.78950602 -0.20320097 -0.035294626
0 -0 -0
0 -0 -0
0.77258557 -0.22964804 -0.0568978
0.7876159 -0.20315427 -0.065158404
0 -0 -0
0 -0 -0
0 -0 -0
0.76833892 -0.19853964 -0.092942916
0 -0 -0
0 -0 -0
2.9294035 -0.87426049 -0.44292861
0 -0 -0
0.83262533 -0.18325309 -0.1401763
0.82772177 -0.15054753 -0.14672467
3.9891317 -1.1938661 -0.7614488
4.0689392 -1.0558894 -0.80981112
0 -0 -0
0.86312276 -0.15726647 -0.18680304
3.446497 -1.0350724 -0.79804766
3.3500261 -0.87095428 -0.80160743
3.1967192 -0.70596689 -0.79121596
0 -0 -0
1.4431726 -0.43490538 -0.39430273
1.3222219 -0.34481654 -0.37133142
2.7278836 -0.60317773 -0.78882062
2.6838925 -0.48795763 -0.80079257
5.8755441 -1.7781771 1.8964961
0 -0 0
0.76407313 -0.16897039 0.22413664
0 -0 0
6.857286 -2.0705898 1.9125093
0.78257757 -0.20472063 0.20709139
0.77547562 -0.17210253 0.19530061
0 -0 0
8.151701 -2.4612892 1.9338185
0.78764492 -0.20592874 0.17634618
0.77433431 -0.17216122 0.16391163
0 -0 0
0 -0 0
0.77718139 -0.20341045 0.14307122
0 -0 0
0 -0 0
0 -0 0
0 -0 0
0 -0 0
0 -0 0
0 -0 0
0.78030831 -0.20466548 0.083378829
0 -0 0
0 -0 0
0 -0 0
0 -0 0
0 -0 0
0 -0 0
0 -0 0
0.76751584 -0.20196891 0.023748923
0 -0 0
0 -0 0
0 -0 0
0.7629326 -0.20106186 -0.0053842817
0 -0 -0
0 -0 -0
0 -0 -0
0.76989061 -0.20319736 -0.034472816
0 -0 -0
0 -0 -0
0 -0 -0
0.78057253 -0.20645389 -0.064679295
0.78597391 -0.17751519 -0.072210826
0 -0 -0
0 -0 -0
0.76134574 -0.20172407 -0.092244975
0.77315426 -0.17483258 -0.10033495
0 -0 -0
2.9097853 -0.88788593 -0.44077775
0 -0 -0
0.84207129 -0.19075662 -0.14196095
0.82581437 -0.15544127 -0.14655286
4.2498136 -1.3003477 -0.81271571
1.4300426 -0.38047653 -0.28507015
1.2138236 -0.27575028 -0.25198081
0.85925817 -0.16201586 -0.1861783
3.4736793 -1.0665158 -0.80584198
2.9473689 -0.78560799 -0.70639819
1.3525685 -0.30741861 -0.33523309
0 -0 -0
1.4663647 -0.45172736 -0.40138903
1.340591 -0.35840634 -0.37710071
2.7260079 -0.62033147 -0.7893641
2.7034791 -0.50867468 -0.8075527
5.8836908 -1.820125 1.9026947
0.75280756 -0.20166489 0.23147584
0.77145839 -0.17557549 0.2266148
0 -0 0
6.8823023 -2.1243093 1.9230856
0.77943534 -0.20901676 0.20659536
0.77913851 -0.17793855 0.19649437
0 -0 0
8.1560135 -2.5173001 1.9384692
0.78636652 -0.21075776 0.17634618
0.78090048 -0.17865644 0.16553049
0 -0 0
8.3539476 -2.5763156 1.6471132
0.76450807 -0.2051139 0.14096722
0.7939381 -0.18206216 0.13708286
0 -0 0
0 -0 0
0.78992206 -0.21236102 0.11489988
0 -0 0
0 -0 0
0 -0 0
0.78095901 -0.20996602 0.08358445
0 -0 0
0 -0 0
0 -0 0
0.76501071 -0.20593596 0.05277358
0 -0 0
0 -0 0
0 -0 0
0.76047176 -0.20511273 0.023569461
0 -0 0
0 -0 0
0 -0 0
0.76361531 -0.20626086 -0.0053979298
0 -0 -0
0 -0 -0
0 -0 -0
0.78309536 -0.21183062 -0.035121612
0.78986353 -0.18336383 -0.042864762
0 -0 -0
0 -0 -0
0.77736688 -0.21071792 -0.064519592
0 -0 -0
0 -0 -0
1.0823354 -0.33656085 -0.12197195
0.75913519 -0.20613153 -0.092128649
0.77496582 -0.18024753 -0.10071167
0 -0 -0
2.9156201 -0.90925902 -0.44249845
0 -0 -0
0.81205463 -0.18920262 -0.13709371
0.80840611 -0.15730663 -0.14363211
4.2079558 -1.3158308 -0.8062399
1.4115759 -0.38485301 -0.28185439
1.4115818 -0.32979718 -0.29344851
0.85536784 -0.16672376 -0.18555354
3.4475083 -1.0816723 -0.80129528
1.391834 -0.38014916 -0.3341347
1.075225 -0.25133067 -0.26687092
0 -0 -0
1.3934324 -0.4386391 -0.38215476
1.3607037 -0.3727442 -0.38339445
1.318439 -0.30854526 -0.3823185
2.7426906 -0.53349763 -0.82022792
5.8760562 -1.8573443 1.9038755
0 -0 0
0.77036655 -0.18030576 0.2266148
0 -0 0
6.8737454 -2.1679513 1.9243754
0.79682094 -0.21892849 0.21155563
0.77708673 -0.1824939 0.19625562
0 -0 0
8.168314 -2.5760963 1.9451131
0.78128874 -0.21454366 0.17549938
0.7816962 -0.18389313 0.16593522
0 -0 0
8.3998432 -2.6470199 1.6593332
0.77177876 -0.2121495 0.14254521
0.79472572 -0.18738288 0.13741478
0 -0 0
8.408844 -2.6506631 1.3267945
0.77046436 -0.21220769 0.11225691
0.79803103 -0.18860334 0.10725823
0 -0 0
7.8995833 -2.491648 0.93657845
0.76143521 -0.2097351 0.081631064
0.78863847 -0.18671784 0.07603839
0 -0 0
0 -0 0
0.76084703 -0.20983027 0.052574184
0.78493387 -0.18604331 0.046159759
0 -0 0
0 -0 0
0.7649796 -0.2113723 0.023748923
0 -0 0
0 -0 0
7.9140282 -2.5015206 0.023612529
0 -0 -0
0.7830286 -0.18634245 -0.01295345
0 -0 -0
7.8948746 -2.5000138 -0.2805053
0.76830184 -0.21289659 -0.034516066
0.79066622 -0.18867044 -0.042970341
0 -0 -0
7.8847914 -2.5025759 -0.58397704
0.78182209 -0.2170839 -0.064998694
0.78373635 -0.18714695 -0.072210826
0 -0 -0
1.5369871 -0.4883011 -0.17354254
0.77029562 -0.21424548 -0.093640864
0.78638893 -0.18799798 -0.10234416
0 -0 -0
2.9156439 -0.92893445 -0.44335878
2.8740702 -0.80110657 -0.46077073
0 -0 -0
0.81901556 -0.1645931 -0.14569382
4.1670065 -1.3311486 -0.79994392
2.9394336 -0.8208186 -0.58792168
1.1665089 -0.28009844 -0.24285395
0.85432875 -0.17196906 -0.18555354
3.4166343 -1.0950581 -0.7956661
1.3284922 -0.37162316 -0.31946975
3.228549 -0.77558655 -0.80249214
3.1777868 -0.63850713 -0.81830907
1.4441329 -0.46435726 -0.39683354
1.3713988 -0.38473558 -0.38706583
1.3342993 -0.320905 -0.3874813
2.7186697 -0.54615879 -0.81403112
5.8718228 -1.8957125 1.9062368
0 -0 0
0.76644164 -0.1843548 0.22578876
0.76259762 -0.1535814 0.21472472
6.8216896 -2.197644 1.9135411
0 -0 0
0.79294395 -0.19135913 0.20055319
0 -0 0
8.1328611 -2.6198885 1.9404624
0.7743125 -0.21774605 0.17422917
0.77579367 -0.18753554 0.16492341
0 -0 0
8.3927965 -2.7015212 1.6611847
0.75719506 -0.21314633 0.14009055
0.79068577 -0.19155911 0.13691691
0 -0 0
8.3952456 -2.7031183 1.3272411
0.75103897 -0.21182375 0.10961393
0.79782236 -0.1937304 0.10738793
0 -0 0
7.9323812 -2.5556121 0.94230849
0.78693974 -0.22196405 0.084509738
0.79328251 -0.19296527 0.076598875
0 -0 0
7.917644 -2.552237 0.63454974
0.7605055 -0.21476597 0.05264065
0 -0 0
0 -0 0
7.9298553 -2.5589237 0.32898736
0.76078284 -0.21524578 0.023659192
0 -0 0
0 -0 0
7.9432569 -2.5644729 0.023746237
0.7716099 -0.21861452 -0.0054729963
0.77215779 -0.18876906 -0.012792537
0 -0 -0
7.9735284 -2.5788569 -0.28385672
0.77659237 -0.2203337 -0.034948599
0 -0 -0
0 -0 -0
1.5163537 -0.49154136 -0.11252808
0.78431064 -0.2229673 -0.0653181
0.78837729 -0.19337597 -0.072746381
0 -0 -0
1.5188304 -0.49281296 -0.17183065
0.77374274 -0.22032794 -0.094222486
0.76595134 -0.18808785 -0.099832647
0 -0 -0
2.0581913 -0.66968524 -0.31359172
2.8852568 -0.82333678 -0.46336535
0 -0 -0
0.81895483 -0.16981541 -0.14586563
4.1877508 -1.3661494 -0.80552036
2.943783 -0.84153819 -0.58981335
3.8644805 -0.95304346 -0.8057434
0 -0 -0
3.483151 -1.1399918 -0.81277019
2.8958828 -0.82926667 -0.69759929
3.2293916 -0.79677904 -0.80390167
3.0978582 -0.6422475 -0.79872644
1.4614781 -0.47984895 -0.40240136
1.3717949 -0.39394215 -0.38785255
1.2996047 -0.32100889 -0.37797087
2.7293603 -0.56575125 -0.81825626
5.8491912 -1.9281161 1.9026947
0 -0 0
0.77089578 -0.19043744 0.22744086
0.76919127 -0.15982658 0.21685335
6.795228 -2.2352333 1.9099296
0 -0 0
0.79929543 -0.1980897 0.20246322
0 -0 0
8.1138544 -2.6688275 1.9397981
0 -0 0
0.78413296 -0.1946516 0.16694702
0 -0 0
8.4227419 -2.7683096 1.6704422
0 -0 0
0.78088278 -0.19426443 0.13542326
0 -0 0
8.4217138 -2.7687862 1.3340862
0.7497251 -0.21642804 0.10961393
0.79661858 -0.19862209 0.10738793
0 -0 0
7.928822 -2.608273 0.9437691
0.76740515 -0.22154637 0.082556352
0.78435588 -0.19589908 0.075851567
0 -0 0
7.9198303 -2.6066937 0.63599485
0.75533921 -0.21832007 0.052374788
0.78743452 -0.19687241 0.0464454
0 -0 0
7.9529147 -2.6203525 0.33060485
0.74600625 -0.21601759 0.023240445
0.78263718 -0.19609395 0.016590735
0 -0 0
7.9596629 -2.6238079 0.023842964
0.75968933 -0.22028157 -0.0053979298
0.77486414 -0.19447698 -0.012856903
0 -0 -0
7.9708409 -2.6321204 -0.28433067
0.78386074 -0.22760187 -0.035337877
0 -0 -0
0 -0 -0
1.5189912 -0.50271678 -0.11295059
0.78484207 -0.22833245 -0.065477803
0.78621006 -0.19796652 -0.072657116
0 -0 -0
1.5223848 -0.50431162 -0.1725796
0 -0 -0
0.76670682 -0.1932691 -0.1000838
0 -0 -0
1.7516191 -0.58184373 -0.26742047
2.8943803 -0.84518009 -0.4656547
0 -0 -0
0.86317563 -0.18451609 -0.15394065
4.157824 -1.3846706 -0.80138302
2.9583557 -0.86537445 -0.59378582
3.885164 -0.98347193 -0.81129885
0 -0 -0
3.5307229 -1.1795949 -0.82554418
2.9440298 -0.86263436 -0.71045929
3.2479987 -0.82254487 -0.80977476
3.1004961 -0.66266203 -0.80043989
1.4447469 -0.48419598 -0.39860511
1.4110157 -0.41459385 -0.39965332
1.3321265 -0.33772776 -0.38802475
2.6883047 -0.57446718 -0.80698937
5.8291006 -1.9612278 1.9000381
6.1456614 -1.809087 1.9027712
0.76505351 -0.1939826 0.22606412
0.76442581 -0.16373566 0.21578903
6.8354235 -2.2950296 1.9251492
0 -0 0
0.79806495 -0.20299037 0.20246322
0 -0 0
8.0927038 -2.7170112 1.9386908
0 -0 0
0.79905683 -0.20356937 0.17038715
0.78738827 -0.17022139 0.15838394
8.4279575 -2.82744 1.674886
0 -0 0
0.77967614 -0.19905218 0.13542326
0 -0 0
8.4289408 -2.8285885 1.3379552
0 -0 0
0.79634547 -0.2037521 0.10751762
0 -0 0
7.9239726 -2.6606698 0.94511735
0.72214907 -0.21329008 0.077827096
0.78024572 -0.19996656 0.075571328
0 -0 0
7.9292064 -2.6638131 0.63804841
0.7539854 -0.22295064 0.052374788
0 -0 0
0 -0 0
7.9594173 -2.6767457 0.3315517
0.75041711 -0.22229436 0.023419909
0.77948266 -0.20039456 0.016549619
0 -0 0
7.9519434 -2.675468 0.023868568
0 -0 -0
0 -0 -0
0 -0 -0
7.9696932 -2.6860862 -0.28487229
0 -0 -0
0.7889933 -0.2036913 -0.043075919
0 -0 -0
1.5706915 -0.53054237 -0.11703483
0.80922198 -0.24082054 -0.067633785
0.78015882 -0.20154126 -0.072210826
0 -0 -0
1.5607046 -0.52765465 -0.1772873
0 -0 -0
0.76934844 -0.19896346 -0.1005861
0 -0 -0
1.5764948 -0.53443456 -0.24118029
2.8862991 -0.86207527 -0.46519682
4.5650296 -1.182446 -0.77535015
0.82161969 -0.18091166 -0.14672467
4.1408672 -1.4073076 -0.79976404
4.0348434 -1.2071919 -0.81132436
3.861032 -1.0026119 -0.80752903
3.67151 -0.80963576 -0.80052501
3.4411776 -1.1731985 -0.80627501
3.3866227 -1.0149242 -0.81875408
3.2024364 -0.83194935 -0.79967308
3.0708055 -0.67604536 -0.79383081
1.465549 -0.50119096 -0.40518525
1.4001276 -0.42074442 -0.39729318
1.3495884 -0.35098186 -0.393731
2.4973135 -0.54969829 -0.75065506
5.8278012 -2.0006802 1.9035803
6.1298561 -1.8453805 1.9013478
0.74896264 -0.19480141 0.22165848
0.76528937 -0.16883835 0.21632119
6.7965345 -2.3284733 1.9181844
7.1653962 -2.1591737 1.9159054
0.78458923 -0.20469649 0.19935943
0 -0 0
8.0758801 -2.7666159 1.9386908
8.3362141 -2.5107107 1.8858243
0.79400271 -0.20747811 0.1695777
0 -0 0
8.4392719 -2.8889663 1.6806257
0 -0 0
0.77748615 -0.20358264 0.1352573
0 -0 0
8.4647522 -2.8985143 1.3464376
0 -0 0
0.79220301 -0.20787953 0.10712853
0 -0 0
7.9253588 -2.7153597 0.94725209
0 -0 0
0.78670746 -0.20677504 0.076318637
0 -0 0
7.93818 -2.7211456 0.64010197
0 -0 0
0.78109723 -0.20550452 0.046216886
0 -0 0
7.9626908 -2.7323439 0.33238018
0 -0 0
0.78307217 -0.20644797 0.016652411
0 -0 0
7.9476738 -2.7284312 0.023905553
0 -0 -0
0 -0 -0
0 -0 -0
7.9795256 -2.7440372 -0.28582022
0 -0 -0
0.78965926 -0.20903973 -0.043181498
0 -0 -0
1.5457157 -0.5326947 -0.11541522
0 -0 -0
0.78853554 -0.20887481 -0.07310342
0 -0 -0
1.5677767 -0.5407874 -0.17846422
0 -0 -0
0 -0 -0
0 -0 -0
1.5816038 -0.54700905 -0.24247079
2.8989141 -0.88525319 -0.46809667
1.4333973 -0.38068268 -0.24384834
0.82145488 -0.18616736 -0.14689648
4.1507421 -1.4391338 -0.80336171
3.9757156 -1.2161289 -0.80092043
1.4519459 -0.3865585 -0.30416268
1.2380548 -0.28099084 -0.27031258
3.43207 -1.1936496 -0.80584198
3.4101388 -1.0448176 -0.82597375
2.9652722 -0.78979111 -0.74164742
1.3692371 -0.31026167 -0.35444555
1.4989845 -0.52292031 -0.41530856
1.4205811 -0.43641213 -0.40384915
1.3464795 -0.35900822 -0.39345926
1.3438016 -0.30444881 -0.40448055
5.8424678 -2.0458744 1.9124354
6.1193337 -1.8832397 1.9016324
0.74682432 -0.19914559 0.22138312
0.76705909 -0.17417124 0.21711943
6.7766471 -2.3682196 1.9166366
7.1733069 -2.2096586 1.9216096
0.79363757 -0.21226674 0.20198572
0.78477746 -0.17917411 0.18960492
8.0707197 -2.8202984 1.9415697
8.3804321 -2.580219 1.8993732
0.79555255 -0.21310627 0.17018478
0 -0 0
8.4510746 -2.9510612 1.6865505
8.3575373 -2.5755656 1.5574775
0.76384085 -0.20502602 0.13309982
0 -0 0
8.4664125 -2.9572461 1.3495625
8.4600735 -2.6118538 1.2437285
0.78995508 -0.21247894 0.10699884
0 -0 0
7.9535732 -2.7796733 0.952645
0 -0 0
0.77100366 -0.20771338 0.074917436
0 -0 0
7.952394 -2.780663 0.64261186
0 -0 0
0.77789378 -0.20977351 0.046102632
0 -0 0
7.9806719 -2.7933648 0.33383992
0 -0 0
0.78468621 -0.21203132 0.016714085
0 -0 0
7.9892979 -2.7976363 0.024081934
0 -0 -0
0.76729256 -0.2076619 -0.012792537
0 -0 -0
7.97857 -2.7985704 -0.2863957
0 -0 -0
0.78932559 -0.21414253 -0.043234289
0 -0 -0
1.5480645 -0.54415375 -0.11583773
0 -0 -0
0.79204518 -0.21501394 -0.073549718
0 -0 -0
1.5681806 -0.5517168 -0.17889218
1.5172396 -0.47259292 -0.18611848
0 -0 -0
0 -0 -0
1.5726178 -0.55472797 -0.24161045
2.9075787 -0.90744042 -0.47038603
0 -0 -0
0 -0 -0
4.0759873 -1.4412915 -0.79058993
3.9794254 -1.2440165 -0.80319041
1.4363087 -0.39184868 -0.30138493
1.4191817 -0.33126915 -0.31029716
3.4154801 -1.2114224 -0.8036769
3.3655455 -1.0537869 -0.81672359
1.6156851 -0.44096729 -0.4047699
1.3267039 -0.30919442 -0.3439199
1.4948362 -0.53178382 -0.41505548
1.4215593 -0.44627658 -0.40489811
1.348893 -0.3685315 -0.39481789
1.3428427 -0.31290621 -0.40476218
5.8190074 -2.0778291 1.9088935
6.1305251 -1.9279414 1.9087504
0 -0 0
0.77348554 -0.18062823 0.21924804
6.7465172 -2.4042423 1.9122514
7.1688542 -2.2565403 1.9240898
0.77358925 -0.21199927 0.19721064
0.79313928 -0.18621078 0.1918976
8.0697975 -2.8756585 1.9455562
8.3858852 -2.6383381 1.9042424
0 -0 0
0 -0 0
8.4615078 -3.0130801 1.6922902
8.3997974 -2.6451321 1.5683481
0.75115842 -0.20657119 0.1311083
0.79495561 -0.18755974 0.12959939
8.4676704 -3.0161073 1.3526875
8.4429445 -2.6634171 1.2435895
0.78672457 -0.21679516 0.10673945
0 -0 0
7.965384 -2.8387642 0.95612794
7.868753 -2.4824333 0.85280812
0.76587564 -0.21138071 0.074543782
0 -0 0
7.9671154 -2.8407917 0.64519787
7.9361639 -2.5064416 0.55438846
0.76985568 -0.21268165 0.045702729
0 -0 0
7.9878497 -2.8510137 0.33486566
0 -0 0
0.76795357 -0.21257459 0.016385149
0 -0 0
7.9927006 -2.8540032 0.024144523
7.9037504 -2.5036404 -0.056579314
0.76600397 -0.21236601 -0.012792537
0 -0 -0
7.9866571 -2.8565612 -0.28730974
7.9070482 -2.5078743 -0.35913146
0.78607243 -0.21844696 -0.043128707
0.80087465 -0.19127445 -0.051371057
1.5794404 -0.56609499 -0.11844319
1.5333041 -0.48720098 -0.12887949
0.78783214 -0.21906929 -0.073281936
0.79747862 -0.19071351 -0.08143878
1.56383 -0.5609929 -0.1787852
1.5351331 -0.4885197 -0.18867762
0 -0 -0
0.77471328 -0.18546942 -0.10879555
1.5822221 -0.56905603 -0.24361791
2.9066639 -0.92676497 -0.47114915
2.9522867 -0.8229847 -0.50392079
0.98197222 -0.23525113 -0.17610398
4.1475759 -1.4952995 -0.8062399
3.9305596 -1.2552662 -0.79486716
2.9055133 -0.81185913 -0.61070621
1.2278556 -0.29456532 -0.26885477
3.4061465 -1.2316927 -0.80324388
3.3673675 -1.077089 -0.81875408
1.4313401 -0.40010694 -0.35919511
3.1276162 -0.74916768 -0.81194466
1.5070062 -0.54655331 -0.4193579
1.4289023 -0.45823222 -0.40778276
1.3373387 -0.37420794 -0.39210063
1.338098 -0.32046941 -0.40391716
5.7846007 -2.1056511 1.9018092
6.1131039 -1.9637622 1.9070421
0 -0 0
0.76955062 -0.18469594 0.2184498
6.723465 -2.4426236 1.9099296
7.1428843 -2.2966301 1.9208657
0 -0 0
0.79955149 -0.19290017 0.19373176
8.0400858 -2.9207909 1.942677
8.4002447 -2.6996112 1.9112285
0.80324811 -0.22576775 0.17241074
0.78964949 -0.19110925 0.15973435
8.4871998 -3.0810382 1.7011776
8.4087133 -2.704762 1.573082
0.76886106 -0.21652257 0.1344275
0.79570949 -0.19289935 0.12991282
8.4713116 -3.0761075 1.356259
8.4292707 -2.716083 1.2440069
0 -0 0
0 -0 0
7.9749002 -2.8974257 0.95938623
7.9357405 -2.5572104 0.86175257
0.77222902 -0.21824223 0.07529109
0.77639794 -0.18935156 0.067500181
7.9748359 -2.8988204 0.64725137
7.9177861 -2.5541708 0.55418903
0.77718222 -0.21984716 0.046216886
0 -0 0
7.9871078 -2.9061222 0.33557579
7.9514565 -2.5693233 0.25005165
0.76663476 -0.21728265 0.016385149
0 -0 0
7.9966502 -2.9108589 0.024209954
7.9481788 -2.5714819 -0.057009239
0 -0 -0
0 -0 -0
8.0065374 -2.9192064 -0.28866383
7.9200239 -2.5655801 -0.36042905
0.79432213 -0.22599885 -0.043656599
0 -0 -0
1.5600091 -0.56995624 -0.11724609
1.5558854 -0.50490743 -0.13103546
0.78743106 -0.22417192 -0.073371194
0.79146159 -0.19441625 -0.080944613
1.5631596 -0.57160211 -0.17910616
1.5415524 -0.50099975 -0.18984085
7.8369761 -2.2333086 -1.0314785
0 -0 -0
1.5842758 -0.58079749 -0.24447823
2.8952842 -0.94274652 -0.47023338
2.9272552 -0.83539736 -0.50051373
0 -0 -0
4.0773835 -1.4983269 -0.79436755
4.0002685 -1.3046306 -0.8105678
2.9400547 -0.84099281 -0.61903948
3.7160621 -0.91564131 -0.81489444
1.6314752 -0.60130072 -0.38560036
3.3718081 -1.1013603 -0.8214615
2.903507 -0.83086741 -0.72990137
3.076827 -0.75699401 -0.7999503
1.5045317 -0.55612528 -0.41961098
1.4233124 -0.46609023 -0.40699604
1.3868268 -0.39724711 -0.40731731
1.3389016 -0.32936141 -0.40476218
5.7554479 -2.1351235 1.8964961
6.0972958 -2.0000393 1.9059032
0 -0 0
0.76372319 -0.18826078 0.21711943
6.7328138 -2.4928899 1.9168946
7.0936818 -2.3289318 1.9114411
0 -0 0
0.79551846 -0.19710024 0.19304396
8.0229273 -2.9704077 1.9428985
8.4150944 -2.7614639 1.9184262
0 -0 0
0.77227372 -0.19192772 0.15645477
8.4948616 -3.1429453 1.7065469
8.4237614 -2.7667513 1.5790433
0.71445501 -0.20594078 0.12513375
0 -0 0
8.4828815 -3.1393545 1.3611697
8.4284372 -2.7730141 1.2463715
0 -0 0
0 -0 0
7.978404 -2.9542401 0.96197033
7.9340739 -2.6105185 0.86329472
0.78809094 -0.22795606 0.076972529
0.76845521 -0.19241764 0.066911027
7.9840145 -2.9577436 0.6494571
7.9247098 -2.6101971 0.55578423
0.7643109 -0.22128004 0.045531347
0 -0 0
7.9934845 -2.9641082 0.33660153
7.9573736 -2.625267 0.25073957
0.7672075 -0.22253959 0.016426265
0 -0 0
8.002079 -2.9685659 0.024281077
7.966434 -2.631494 -0.05725491
0.76141989 -0.22119221 -0.012760355
0 -0 -0
7.9903483 -2.9689748 -0.28873155
1.5698236 -0.51918662 -0.071584076
0.78237379 -0.22779766 -0.043075919
0.79459572 -0.20011304 -0.051121987
1.5611567 -0.58125782 -0.11759818
1.5735751 -0.52134156 -0.13279219
0.77839071 -0.22677058 -0.072657116
0.78639412 -0.19829568 -0.080549277
1.562418 -0.58222431 -0.17942715
1.5761564 -0.52296007 -0.19449382
5.886868 -1.7167087 -0.77618313
0 -0 -0
1.5834635 -0.59154654 -0.24490839
2.8753779 -0.95581776 -0.46794406
2.9220741 -0.85334295 -0.50051373
4.5483432 -1.1488439 -0.81815326
4.1289139 -1.546084 -0.8062399
3.8999531 -1.2984427 -0.79184055
2.9442458 -0.86177009 -0.62102354
3.6895132 -0.93314934 -0.81031293
1.6396363 -0.615762 -0.38841495
3.3520479 -1.1177142 -0.81830287
2.9300709 -0.85795432 -0.73788869
3.1454492 -0.79437685 -0.8190434
1.5074285 -0.56773329 -0.42138255
1.4533738 -0.48582849 -0.41643667
1.3640457 -0.3997941 -0.40133935
1.3433678 -0.33921495 -0.4067339
5.7753067 -2.1828969 1.9074175
6.0630932 -2.0301094 1.89907
0 -0 0
0 -0 0
6.7273345 -2.5379059 1.9197321
7.0893626 -2.3758001 1.9141693
0 -0 0
0.81221759 -0.20653543 0.19740006
8.0018129 -3.0185471 1.9422342
8.4211597 -2.8208067 1.9237188
0 -0 0
0 -0 0
8.5076017 -3.2071426 1.7130274
8.4392967 -2.8293395 1.5851799
0 -0 0
0.79423928 -0.20289385 0.13006954
8.5189762 -3.2122793 1.3700985
8.433794 -2.8322439 1.2497101
0 -0 0
0.80103022 -0.20538835 0.10027606
8.0140505 -3.0234828 0.96848691
7.9339371 -2.6645355 0.86504251
0 -0 0
0.77112055 -0.19812101 0.067247689
8.0151567 -3.0253386 0.6534881
7.9605627 -2.6762607 0.55943984
0.76198149 -0.22568208 0.04547422
0 -0 0
8.012536 -3.0272255 0.33817959
7.9543777 -2.6785088 0.25115833
0 -0 0
0 -0 0
8.0164528 -3.0299845 0.024380649
7.9671931 -2.6860759 -0.057377741
0 -0 -0
0 -0 -0
7.9841323 -3.022547 -0.28917167
1.5827005 -0.53424096 -0.072319373
0 -0 -0
0.7972182 -0.20598353 -0.051371057
1.5659549 -0.59401011 -0.11823194
1.5372965 -0.51981169 -0.12999739
0 -0 -0
0.79286969 -0.20511094 -0.08133994
1.5699705 -0.59603488 -0.18071108
1.5785624 -0.53453273 -0.19519177
7.8726754 -2.3483119 -1.039892
0 -0 -0
1.581654 -0.60195535 -0.24519517
2.9115741 -0.98772997 -0.47481209
2.9782388 -0.88961351 -0.5110594
4.5221357 -1.1717882 -0.81471711
1.6175936 -0.61705613 -0.31659576
3.9309616 -1.3356156 -0.79978544
3.8196344 -1.1434841 -0.80713224
3.6307013 -0.94201458 -0.79865074
1.6157669 -0.61813664 -0.38365179
3.3921633 -1.1542664 -0.82980919
3.243206 -0.9712888 -0.81823194
3.0888934 -0.80028743 -0.80558032
1.5165622 -0.58182347 -0.42492571
1.4421456 -0.49193317 -0.41407654
1.4113466 -0.4230786 -0.41601253
1.3375456 -0.34648883 -0.40560719
5.7716122 -2.2220685 1.9106646
6.0641289 -2.0719225 1.9033407
6.3271666 -1.8968794 1.8919445
0.7632215 -0.19810301 0.21765156
6.7053227 -2.5767105 1.9179264
7.0911512 -2.4248972 1.9186336
7.5150709 -2.2591605 1.9293694
0.77326089 -0.20168872 0.18822932
7.9740376 -3.0640905 1.9400194
8.4305124 -2.8815918 1.929858
8.3365288 -2.5095954 1.7989806
0.78220093 -0.20461845 0.15896268
8.5152845 -3.2698522 1.7185818
8.4478598 -2.8899913 1.5900892
0 -0 0
0.78724706 -0.20626149 0.12912928
8.5295687 -3.276191 1.3750092
8.4481087 -2.8948538 1.2544397
0 -0 0
0.80455536 -0.21156181 0.10087796
8.0241003 -3.0836489 0.97196978
7.935317 -2.7192938 0.86699593
0 -0 0
0 -0 0
8.0169182 -3.0823343 0.65516138
7.9638114 -2.7318544 0.5608356
0 -0 0
0.78135079 -0.20614547 0.038419407
8.0217867 -3.0870988 0.33936313
7.9661522 -2.737009 0.25205564
0 -0 0
0.78983432 -0.20873761 0.0089119114
8.0481043 -3.0985172 0.024534272
7.9704199 -2.7417421 -0.057521056
0 -0 -0
0 -0 -0
8.0335083 -3.0977287 -0.2916429
1.5718356 -0.54133958 -0.071973346
0 -0 -0
0.79883367 -0.21163811 -0.051557861
1.5548368 -0.60073137 -0.1176686
1.5585781 -0.53768671 -0.13207352
0 -0 -0
0.79063439 -0.20971692 -0.081241108
1.5607196 -0.60350525 -0.18006912
1.5686815 -0.5419383 -0.1943775
5.9336815 -1.8096576 -0.78522456
0 -0 -0
1.5705485 -0.60878736 -0.24404806
2.9418821 -1.0181825 -0.48076442
2.9670618 -0.90614158 -0.51008594
1.5700139 -0.41712308 -0.28331262
1.6036909 -0.62305129 -0.31461704
3.9792876 -1.3793278 -0.81132436
3.7769325 -1.1559992 -0.79959267
2.9027178 -0.77217382 -0.63954532
1.6146727 -0.62910241 -0.3843013
3.2193553 -1.1175516 -0.78919864
3.2687857 -1.0008459 -0.8262192
2.9920909 -0.79483038 -0.78159159
1.523777 -0.59534276 -0.42796272
1.4564165 -0.50679851 -0.41905907
1.407804 -0.43144852 -0.41574082
1.3363218 -0.35493568 -0.40588889
5.7471948 -2.2532558 1.9071224
6.053112 -2.1097233 1.9039102
6.3172469 -1.9362298 1.8924953
0.75547087 -0.20104703 0.21578903
6.6992831 -2.6216781 1.920764
7.0596738 -2.4626186 1.9141693
7.4806461 -2.2989535 1.9241168
0.78611374 -0.21020111 0.19166835
7.9623518 -3.1158035 1.9417912
8.4551239 -2.9480677 1.9395963
8.3836851 -2.5799992 1.8125387
0.79609436 -0.21348038 0.16204934
8.5325851 -3.3367133 1.7261732
8.4411221 -2.9456646 1.5921932
8.3974152 -2.5888782 1.4788685
0.78310508 -0.21031953 0.12865914
8.5452213 -3.3425143 1.3808128
8.4544926 -2.9551313 1.2580564
8.4715862 -2.6166027 1.1597377
0.80611765 -0.21726952 0.10123909
8.0179825 -3.1378956 0.97354269
7.9475913 -2.7781079 0.87018305
0 -0 0
0.77921313 -0.21042658 0.068173505
8.0210657 -3.1405551 0.65706283
7.9629097 -2.7862701 0.56196553
0 -0 0
0.78103548 -0.21119662 0.038466897
8.0436287 -3.1523042 0.34109902
7.9793944 -2.7964158 0.25301278
0 -0 0
0.78853863 -0.21358001 0.0089119114
8.0559397 -3.1584263 0.024616774
7.9808102 -2.8001969 -0.057718951
0 -0 -0
0.78052962 -0.21171781 -0.020739587
8.0236521 -3.1506157 -0.29198143
1.5816809 -0.55560964 -0.0725789
0 -0 -0
0.78981453 -0.21444353 -0.051059719
1.5520496 -0.61062557 -0.11773901
1.5637124 -0.55021757 -0.13279219
1.08505 -0.33789831 -0.10184493
0 -0 -0
1.5671636 -0.61707729 -0.18124604
1.5653267 -0.55155331 -0.1943775
1.5561509 -0.48505205 -0.20632081
0 -0 -0
1.5759891 -0.62204611 -0.24548197
1.5796212 -0.55758208 -0.25869703
2.96333 -0.92491812 -0.51041043
1.5797818 -0.43011296 -0.28554615
1.6025819 -0.63396519 -0.3151567
3.9698234 -1.403391 -0.81113523
3.7201908 -1.1636448 -0.78907692
1.4786873 -0.40308791 -0.32633263
1.6053373 -0.63683802 -0.38300225
1.6255045 -0.57546967 -0.39933723
1.7189554 -0.53787261 -0.43530968
2.9338324 -0.79865813 -0.76763898
1.5147017 -0.60253572 -0.4264442
1.4660115 -0.52024359 -0.42273045
1.4280897 -0.44726935 -0.42253396
1.3424513 -0.36539647 -0.40842393
5.7305984 -2.2874148 1.9062368
6.030117 -2.1432934 1.9007782
6.301578 -1.973806 1.8913939
0 -0 0
6.6893535 -2.6652379 1.9225698
7.0471687 -2.5068636 1.9149133
7.4302673 -2.3334637 1.9148055
0 -0 0
7.9648261 -3.1732633 1.9471064
8.4543724 -3.0061131 1.9436187
8.3863802 -2.6372674 1.8165859
0.78814644 -0.21654144 0.16069894
8.521081 -3.3926404 1.7280245
8.4599905 -3.0106058 1.5992066
8.4114704 -2.6498368 1.4841793
0.77799082 -0.21407253 0.1280323
8.5484371 -3.4043965 1.3846818
8.4669828 -3.0179234 1.2626468
8.4298401 -2.6604764 1.1562358
0.79807091 -0.22036213 0.10039643
8.0391951 -3.2032177 0.97848636
7.9660001 -2.8395126 0.87408984
7.9203749 -2.5031846 0.77934682
0.75773931 -0.20962441 0.066406041
8.0285053 -3.2004199 0.6592685
7.9757357 -2.8458071 0.5640924
7.9234681 -2.5062919 0.47553694
0.77491176 -0.21465173 0.038229447
8.0556889 -3.2141895 0.34244037
7.9827929 -2.8527238 0.25367078
7.94873 -2.5187089 0.17145814
0.79299456 -0.22001839 0.0089773592
8.0614834 -3.2178063 0.024693584
7.995491 -2.8605666 -0.057950977
7.9369326 -2.5184772 -0.13400786
0.78017908 -0.21677069 -0.020765224
8.0180902 -3.2053535 -0.29248923
1.5791826 -0.56564111 -0.07262215
7.8968053 -2.5110548 -0.4380441
0.79040694 -0.21982054 -0.051184252
1.5667937 -0.62755519 -0.11914738
1.5631216 -0.56081188 -0.13303174
1.5717578 -0.50006515 -0.14781351
0.80238086 -0.22340713 -0.08272361
1.5642706 -0.62705153 -0.18135302
1.5572394 -0.55946851 -0.19379587
1.579614 -0.50302011 -0.20983693
0 -0 -0
1.5556132 -0.6250627 -0.24290095
1.5994176 -0.57563066 -0.26251262
2.9726408 -0.94787973 -0.51300627
2.9483092 -0.82217395 -0.53380978
1.5931869 -0.64158171 -0.31407738
3.9435859 -1.4213967 -0.80754113
3.8483546 -1.2297071 -0.81784636
2.5096107 -0.70068705 -0.55478632
1.6041152 -0.64777291 -0.38365179
1.6256082 -0.58675575 -0.40023968
1.7017348 -0.54397047 -0.43178588
1.5550318 -0.43358213 -0.40756342
1.5181499 -0.61472321 -0.42846885
1.4664215 -0.53054231 -0.42377937
1.4280683 -0.45690331 -0.42334914
1.3448054 -0.37491509 -0.40983227
5.7138 -2.3214552 1.9053514
6.0267668 -2.1838455 1.9039102
6.3488631 -2.0314779 1.9092919
0 -0 0
6.6576533 -2.7000601 1.9181844
7.0380292 -2.5523689 1.9166493
7.4056387 -2.3757479 1.9121794
0.76473165 -0.21457298 0.18708298
7.9461083 -3.222441 1.9473277
8.467927 -3.0695889 1.9510281
8.4045391 -2.6997576 1.8240733
0 -0 0
8.5538378 -3.4666381 1.7389485
8.4672718 -3.0718598 1.6041158
8.4110107 -2.7065337 1.4870005
0.7880702 -0.22205649 0.12991282
8.5475483 -3.4649577 1.3879557
8.4752979 -3.0796268 1.2666808
8.4275131 -2.7167144 1.1581813
0.79861432 -0.22579502 0.10063719
8.046093 -3.2633154 0.98174465
7.9858227 -2.9019265 0.8782022
7.9266586 -2.5587707 0.78149533
0 -0 0
8.051219 -3.2668672 0.66276723
7.9881296 -2.905606 0.56621927
7.9278908 -2.5613074 0.47673661
0.77358007 -0.21940246 0.038229447
8.0626631 -3.2744615 0.34358448
8.0055227 -2.9163635 0.25495696
7.9388337 -2.5692813 0.17158151
0.80317223 -0.22815891 0.0091082565
8.0730877 -3.2800081 0.024790311
8.0106688 -2.9215641 -0.058189824
7.9308419 -2.5702124 -0.13416877
0.77498817 -0.22045961 -0.02066268
8.0177116 -3.2624013 -0.29320014
1.5813129 -0.57737601 -0.072881669
7.852756 -2.5502081 -0.43646044
0.79480278 -0.22630617 -0.051557861
1.5481343 -0.63113195 -0.11802069
1.5512255 -0.56731105 -0.13231307
1.5790796 -0.51308548 -0.14879535
0.79812407 -0.22750787 -0.082427114
1.5548702 -0.63438439 -0.18071108
1.5547098 -0.56935459 -0.19391219
1.5868757 -0.516078 -0.21121825
1.4739505 -0.42054388 -0.20933673
1.5544965 -0.63571984 -0.2433311
1.5949277 -0.58509332 -0.26236001
2.9836574 -0.97160125 -0.5159266
2.940367 -0.83943766 -0.53329438
1.5901304 -0.65171832 -0.31425726
3.9744241 -1.4601281 -0.8156752
3.8239651 -1.2478241 -0.81427497
2.9387953 -0.83998758 -0.65079105
1.6019164 -0.65834558 -0.38408479
1.6210631 -0.59638292 -0.40001407
1.6521636 -0.53932023 -0.4200398
1.5663271 -0.44710749 -0.41123518
1.5089825 -0.6218152 -0.42695037
1.4812467 -0.54620743 -0.42902416
1.4224936 -0.46476051 -0.42253396
1.3646235 -0.38947976 -0.41659242
5.6632476 -2.3415031 1.8932493
6.0114551 -2.2201197 1.9033407
6.3106923 -2.0620351 1.9015819
0 -0 0
6.623992 -2.7338564 1.9132831
7.0513134 -2.6062529 1.9245858
7.3973818 -2.4232595 1.9138505
0 -0 0
7.9126658 -3.2655568 1.9440058
8.4608498 -3.1258924 1.9537801
8.4148006 -2.7601273 1.8299416
0 -0 0
8.5569353 -3.5291748 1.7439477
8.4851999 -3.1374135 1.611129
8.4045515 -2.7614779 1.4888262
0 -0 0
8.5645208 -3.5331779 1.3942057
8.4933872 -3.1453283 1.272245
8.4408255 -2.7782938 1.1623317
0.81056428 -0.23455422 0.1023225
8.0718422 -3.331579 0.98736221
7.9893203 -2.9588172 0.88056684
7.9420137 -2.6176443 0.78457797
0 -0 0
8.0789471 -3.3359964 0.66672224
7.9907336 -2.9621956 0.56768155
7.9461584 -2.6211631 0.47879326
0.78852701 -0.22887842 0.039036777
8.0821295 -3.3402827 0.34528092
8.0118418 -2.9744747 0.25573462
7.9523482 -2.6276686 0.17221883
0.79503584 -0.23112881 0.0090319002
8.0833054 -3.3420906 0.024884192
8.002902 -2.9744937 -0.058264889
7.9690304 -2.6367295 -0.13508597
0 -0 -0
8.0446367 -3.3310359 -0.29492664
1.5814859 -0.58846158 -0.073054686
1.5725105 -0.52136576 -0.087577142
0.80010664 -0.23313312 -0.051993735
1.5506823 -0.64329481 -0.11851361
1.5551877 -0.57960343 -0.13295189
1.5806284 -0.52433288 -0.14924166
0 -0 -0
1.5555397 -0.64581913 -0.18124604
1.5595618 -0.58200872 -0.19495912
1.5808547 -0.52486736 -0.21084154
1.5826204 -0.46206918 -0.22516891
1.5414294 -0.64144379 -0.24189723
1.5829761 -0.59175408 -0.26098639
2.9664032 -0.98615497 -0.51397973
2.9436715 -0.85994983 -0.53484064
1.5924569 -0.66411328 -0.31551644
3.9782646 -1.4893069 -0.81832349
3.8087976 -1.268786 -0.8126877
2.9138722 -0.852238 -0.64641768
1.5924425 -0.66590255 -0.38278577
1.6100755 -0.60358256 -0.39820915
1.6054817 -0.53500456 -0.40899849
1.5477326 -0.45208842 -0.40707389
1.5203062 -0.63742173 -0.43125278
1.4769641 -0.55494654 -0.42876196
1.4460902 -0.48231021 -0.43041402
1.3539188 -0.39542463 -0.41405734
5.6593418 -2.3806536 1.8967912
5.9788785 -2.2498736 1.8973618
6.2805943 -2.0949385 1.8963503
0 -0 0
6.6284723 -2.7834268 1.9194742
7.0297494 -2.6474211 1.9230977
7.3814526 -2.4682953 1.9136118
0 -0 0
7.9005718 -3.3174443 1.945999
8.4323645 -3.1743054 1.9516633
8.4218512 -2.8197916 1.8352029
0 -0 0
8.5758972 -3.5987244 1.7522795
8.5109339 -3.2064264 1.6197205
8.4192371 -2.8236563 1.4944687
0 -0 0
8.6092415 -3.6136005 1.4050689
8.5054293 -3.2092695 1.2769744
8.4546366 -2.8404543 1.1666117
0 -0 0
8.0814819 -3.3937402 0.99106985
8.0054483 -3.0207763 0.88437074
7.9484506 -2.6739454 0.78681988
0 -0 0
8.0895796 -3.3986359 0.66930813
8.0106783 -3.025625 0.57040668
7.9441185 -2.674649 0.4796502
0 -0 0
8.0927982 -3.4029796 0.34662223
8.0327053 -3.0384309 0.25699085
7.9521799 -2.6818449 0.17256831
0 -0 0
8.0949087 -3.4051971 0.024983762
8.0191021 -3.0366457 -0.058517385
7.9707003 -2.6916552 -0.13539171
0 -0 -0
8.0618076 -3.3962424 -0.2963146
1.5806478 -0.5992167 -0.073184438
1.5834706 -0.53580582 -0.088368982
0 -0 -0
1.5577341 -0.65745205 -0.11935863
1.5665125 -0.5947963 -0.1342295
1.5726644 -0.53242457 -0.14879535
0 -0 -0
1.5460523 -0.6530304 -0.18060407
1.5717437 -0.59756744 -0.19693662
1.5813628 -0.53583091 -0.21134382
1.5645654 -0.46723503 -0.22300383
1.5247056 -0.6454882 -0.23988979
1.5894748 -0.60532492 -0.26266527
2.9986084 -1.0173359 -0.52063161
2.9609928 -0.88476461 -0.53896403
1.5919744 -0.67540872 -0.31623599
1.6138607 -0.61548287 -0.33273947
3.7693901 -1.2814066 -0.80594176
3.6647837 -1.0963163 -0.81447798
1.5865299 -0.67489666 -0.38235274
1.6127124 -0.61588335 -0.39978844
1.6500223 -0.56111896 -0.4212144
1.5319234 -0.45769081 -0.40364689
1.4994586 -0.63952684 -0.4264442
1.4798398 -0.56641322 -0.43059763
1.4622356 -0.49768594 -0.43612024
1.391919 -0.41580895 -0.42645091
5.6516552 -2.4183409 1.8991528
5.9703317 -2.2885756 1.89907
6.2639813 -2.1321969 1.8952488
6.5770774 -1.9682217 1.8950055
6.6130452 -2.8248048 1.9199901
6.9989009 -2.6849535 1.9191296
7.3882256 -2.5210671 1.9193419
7.8526187 -2.3600914 1.9313567
7.8719964 -3.3624115 1.9440058
8.3725758 -3.2105887 1.9423482
8.4340458 -2.881546 1.8416786
8.3642759 -2.5203965 1.7175301
8.575346 -3.6605368 1.7567233
8.5076437 -3.2649374 1.6228764
8.4530687 -2.8928242 1.5035965
0 -0 0
8.6105528 -3.6764536 1.4089379
8.5317955 -3.2791612 1.2839297
8.4604979 -2.900316 1.1698539
0 -0 0
8.0943165 -3.4577067 0.99522704
8.0044041 -3.0766206 0.88632417
7.9516692 -2.7294538 0.78878158
0 -0 0
8.090579 -3.457613 0.67113352
8.0143118 -3.0833189 0.57200176
7.9747672 -2.7395606 0.48250657
0 -0 0
8.1103516 -3.4690764 0.34827921
8.0260363 -3.0923336 0.25737971
7.978117 -2.7452269 0.17349344
0 -0 0
8.1023626 -3.4669976 0.025071954
8.0404358 -3.1012664 -0.058810823
7.9672694 -2.7450716 -0.13561699
0 -0 -0
8.0867491 -3.4653273 -0.29800725
1.5638934 -0.60386592 -0.0725789
1.5782653 -0.54486001 -0.0882634
1.0902824 -0.33225241 -0.071109995
1.5454212 -0.6634562 -0.11872487
1.5544659 -0.60116112 -0.13351084
1.5693679 -0.54206425 -0.14879535
0.9613179 -0.29326352 -0.099821799
1.5356218 -0.65975714 -0.17985512
1.5624903 -0.6050483 -0.19623867
1.586484 -0.54844111 -0.212474
0 -0 -0
1.5179893 -0.6536572 -0.23945962
1.5857307 -0.61506635 -0.26266527
2.9550107 -1.0228058 -0.51414198
2.9894257 -0.9132781 -0.54514915
1.5841874 -0.68360519 -0.31551644
1.6228684 -0.63035119 -0.3353878
3.6790416 -1.2759287 -0.78828329
3.6804352 -1.1256478 -0.81947607
1.5931112 -0.68927079 -0.38495085
1.6197985 -0.63000488 -0.4024958
1.5997139 -0.55498463 -0.40923342
1.5448501 -0.47189718 -0.40780821
1.5123696 -0.65603024 -0.43125278
1.4799329 -0.57688457 -0.43164656
1.4627908 -0.50791138 -0.43720716
1.3820002 -0.42209956 -0.42419752
5.6393385 -2.4541171 1.9000381
5.9722505 -2.3314404 1.9041948
6.2389746 -2.1664922 1.8916693
6.6017475 -2.0198216 1.9056486
6.5760932 -2.8568592 1.914315
6.9669547 -2.7218544 1.9149133
7.377203 -2.5679493 1.9205357
7.8314767 -2.4062285 1.9297519
7.8467445 -3.4087071 1.9428985
8.3399734 -3.2569242 1.9393845
8.4494963 -2.9448447 1.8489634
8.3561554 -2.573982 1.7190733
8.6095133 -3.7377398 1.7683878
8.5167933 -3.3285456 1.628487
8.4435387 -2.9475617 1.5050901
8.4259567 -2.599026 1.3991094
8.6041584 -3.7363074 1.4116164
8.5391788 -3.3422775 1.2881027
8.4603262 -2.9583926 1.1723182
0 -0 0
8.0957327 -3.5172057 0.99803579
8.0363207 -3.145618 0.89197874
7.9488678 -2.7831283 0.79018277
0 -0 0
8.1112776 -3.5254741 0.67463225
8.010107 -3.1382599 0.57306528
7.9644027 -2.7907524 0.48290649
0 -0 0
8.1008244 -3.523957 0.34879208
8.0413389 -3.15503 0.25848639
7.9809332 -2.8010809 0.17392516
0 -0 0
8.1295338 -3.537796 0.025222732
8.0501089 -3.1618762 -0.059022371
7.9955554 -2.8098185 -0.13638937
7.7698059 -2.4178867 -0.20867768
8.0809097 -3.5216694 -0.29858276
1.5564395 -0.61198807 -0.072405882
1.5786601 -0.55586046 -0.088474564
0 -0 -0
1.559605 -0.68090874 -0.12013323
1.5442556 -0.60813117 -0.13295189
1.5669518 -0.55201447 -0.14888462
1.5969508 -0.49790314 -0.16613907
1.5388334 -0.67235172 -0.18071108
1.5587484 -0.61462414 -0.19623867
1.5905739 -0.56080437 -0.21347861
1.5747929 -0.49141693 -0.22530423
1.546586 -0.67725044 -0.24462162
1.5754925 -0.6222434 -0.26159692
2.9347219 -1.0359911 -0.51170832
3.0242009 -0.94422859 -0.55253696
1.5853677 -0.69568437 -0.31659576
1.6034468 -0.63415766 -0.33217198
3.7737098 -1.3347565 -0.81030679
3.6249151 -1.133036 -0.80864686
1.586171 -0.69785345 -0.3843013
1.5986927 -0.63311648 -0.39820915
1.6146054 -0.57127422 -0.41393185
1.5261916 -0.47645539 -0.40364689
1.4959235 -0.65983152 -0.42770961
1.4790562 -0.58702236 -0.43243328
1.4614612 -0.51751977 -0.43775061
1.3958709 -0.43571767 -0.42926762
5.6180577 -2.4859669 1.897972
5.9373436 -2.3598981 1.8976464
6.250031 -2.2133977 1.8991038
6.58463 -2.0588529 1.9043183
6.5177865 -2.8791974 1.9024489
6.9501228 -2.7645516 1.9149133
7.3667979 -2.6151156 1.9219681
7.8184218 -2.4548194 1.9302104
7.8354936 -3.4611237 1.9453346
8.3143835 -3.3058693 1.9381144
8.464488 -3.0084412 1.8562484
8.3916817 -2.6414092 1.7296838
8.6268721 -3.8083556 1.7767196
8.5419464 -3.3989406 1.6372536
8.4513063 -3.008575 1.509737
8.421155 -2.6542406 1.4009899
8.6407747 -3.8153939 1.421438
8.5497885 -3.4070742 1.2928324
8.4737682 -3.0215712 1.1767278
7.8875661 -2.4937809 1.0031216
8.10672 -3.5812693 1.0020806
8.0566015 -3.2107034 0.89639956
7.9700847 -2.8455746 0.79401267
7.8893309 -2.4985802 0.6989888
8.1268845 -3.5917029 0.67775053
8.0342588 -3.2047246 0.57618916
7.9809752 -2.8516619 0.48496312
7.9152765 -2.5096858 0.39478436
8.1201715 -3.5917859 0.35056743
8.0524607 -3.2165473 0.25947344
7.9833636 -2.8570728 0.17435689
7.8893361 -2.5050983 0.090297192
8.1360216 -3.6001554 0.025310924
8.0676966 -3.2260623 -0.059295338
7.9960485 -2.8652339 -0.1366951
7.9386911 -2.5239732 -0.21362545
1.5570056 -0.68994355 -0.057685375
1.573988 -0.63006616 -0.073400706
1.5780393 -0.56654876 -0.088632934
7.8891339 -2.5103402 -0.51651263
1.5426334 -0.68479925 -0.11914738
1.5515978 -0.62204617 -0.13391009
1.5644724 -0.56195539 -0.14897387
1.584384 -0.50467229 -0.16515073
1.5355874 -0.68218482 -0.18081807
1.5623217 -0.62713683 -0.19716927
1.582435 -0.56887531 -0.21285073
1.5915718 -0.5073902 -0.22814591
1.5261275 -0.67948174 -0.24204062
1.5899837 -0.63927209 -0.26464936
2.8373227 -1.0212299 -0.49580875
3.0061493 -0.95887518 -0.5503034
1.5792726 -0.70459735 -0.31623599
1.6122781 -0.6491186 -0.3348203
3.6603408 -1.3199828 -0.78768808
3.6505053 -1.1656698 -0.81593573
1.5782944 -0.70597833 -0.38343528
1.5929707 -0.64218545 -0.39775792
1.6028407 -0.57820195 -0.41181755
1.5500277 -0.49435467 -0.41074562
1.4980259 -0.6717689 -0.42948118
1.4807949 -0.59825557 -0.43400675
1.4682153 -0.53007221 -0.4407396
1.392257 -0.44398287 -0.42898598
5.6122832 -2.5247035 1.9012189
5.9271951 -2.3980823 1.89907
6.2372365 -2.252032 1.899379
6.5884013 -2.104496 1.9091076
6.5431838 -2.9385304 1.9150889
6.9456 -2.8122346 1.9183854
7.3442216 -2.6579549 1.9202968
7.7874556 -2.4976923 1.9263127
7.798986 -3.5023448 1.9415697
8.2939425 -3.3568232 1.9381144
8.4836197 -3.0740004 1.8645452
8.4173517 -2.7063651 1.7383651
8.6302385 -3.8732886 1.7822741
8.5519562 -3.4638553 1.6432151
8.4827433 -3.078541 1.5186988
8.4282122 -2.7134285 1.4049076
8.6442661 -3.8804905 1.4259024
8.5635929 -3.4736152 1.2981184
8.4988689 -3.0894301 1.1828235
7.9146271 -2.5558591 1.0085387
8.1208515 -3.647228 1.0065747
8.0505753 -3.2656856 0.89794165
7.9927049 -2.9090672 0.79802948
7.8994498 -2.5552216 0.70126128
8.1392546 -3.6570299 0.68064076
8.0643663 -3.2742307 0.57977825
7.9980359 -2.9132209 0.48707685
7.9643478 -2.5791318 0.39801365
8.1362553 -3.6587543 0.35222438
8.0547962 -3.274931 0.26019129
7.9910426 -2.9152555 0.17491198
7.9213748 -2.5688822 0.09084259
8.1320181 -3.6582146 0.025367822
8.0681267 -3.2837977 -0.059445474
8.0130663 -2.9269357 -0.13729048
7.9629884 -2.5856032 -0.21470216
0 -0 -0
1.5451115 -0.62953401 -0.072232872
1.6017289 -0.5861733 -0.090163812
1.5794624 -0.51328224 -0.10361386
1.5393119 -0.69466209 -0.1192178
1.5625187 -0.63758051 -0.13518772
1.5638008 -0.57257158 -0.14924166
1.5888278 -0.51684701 -0.1659414
1.5268421 -0.68954802 -0.1802831
1.553847 -0.63483304 -0.19658765
1.5742571 -0.57686752 -0.21222286
1.5950235 -0.51929349 -0.22909313
1.5237328 -0.68964922 -0.24232739
1.5695673 -0.64227885 -0.26190215
1.6193041 -0.59407979 -0.28359741
3.0030193 -0.9782179 -0.55081886
1.5695443 -0.71183652 -0.3151567
1.6019045 -0.65639293 -0.33349615
3.6898901 -1.356281 -0.79582286
3.5558748 -1.1595435 -0.79635996
1.5632682 -0.71080017 -0.38083717
1.5917042 -0.65305704 -0.39843476
1.6111225 -0.5923866 -0.41487151
1.5746225 -0.51286429 -0.41808909
1.4912349 -0.67974424 -0.42872196
1.4842364 -0.61026603 -0.43610466
1.4775795 -0.54372394 -0.44454375
1.4086658 -0.45875677 -0.43490106
5.6036377 -2.5622709 1.9035803
5.9274378 -2.4406102 1.9039102
6.2070613 -2.2842844 1.8944227
6.5918603 -2.1502631 1.913897
6.5285459 -2.9802282 1.9161208
6.9255271 -2.8536921 1.9176414
7.3514624 -2.7117059 1.9265044
7.7701335 -2.5448225 1.9258542
7.7897687 -3.5558019 1.9446701
8.2704782 -3.406534 1.9374793
8.4884834 -3.1348178 1.8698066
8.4416065 -2.7714291 1.7468532
8.6340265 -3.9388139 1.7880139
8.5715008 -3.5331473 1.6511049
8.4784937 -3.1360061 1.5213543
8.4245405 -2.7694099 1.4071015
8.6427832 -3.9437201 1.4296227
8.5604248 -3.5336518 1.3009003
8.4974184 -3.1480649 1.1852878
7.9242516 -2.6127675 1.0117891
8.1127825 -3.7035904 1.0083723
8.0552111 -3.3252697 0.90071756
7.9999089 -2.9674037 0.80055165
7.9186316 -2.6152055 0.70437533
8.1556635 -3.7247143 0.68391126
8.0736332 -3.3358438 0.58190513
7.9959216 -2.9681475 0.48804805
7.9635463 -2.6329684 0.39877349
8.1581821 -3.7289627 0.35415751
8.091814 -3.347986 0.26204574
8.0067406 -2.9767756 0.1756521
7.9586225 -2.6350391 0.091453448
8.1612558 -3.7317452 0.025529979
8.0709219 -3.3428071 -0.059616074
8.0174456 -2.9844193 -0.13767667
7.9640541 -2.6400769 -0.21516362
1.5311564 -0.7010929 -0.05704217
1.5458341 -0.64091599 -0.07244914
1.5952951 -0.59494346 -0.090005443
1.5829144 -0.52516401 -0.10404974
1.5205135 -0.69743991 -0.11809111
1.5493711 -0.64333338 -0.13438921
1.5555923 -0.58041519 -0.14879535
1.5827935 -0.52564526 -0.1656449
1.511739 -0.69392622 -0.17899919
1.5480883 -0.64359277 -0.196355
1.5678997 -0.58547497 -0.21184613
1.5899267 -0.5284456 -0.2288225
1.514977 -0.69691771 -0.24161045
1.579282 -0.65759581 -0.26419151
1.6147043 -0.60365897 -0.28343517
2.9969606 -0.99662566 -0.55081886
1.562467 -0.7202183 -0.31461704
1.6023784 -0.66809911 -0.33444196
1.6264313 -0.6091758 -0.35158268
3.6210778 -1.2054366 -0.81260371
1.5579911 -0.71996933 -0.38062069
1.5795761 -0.65943336 -0.39640424
1.5901632 -0.59578156 -0.41040802
1.5880069 -0.52802294 -0.42249519
1.4931808 -0.69172812 -0.43049353
1.4769028 -0.61787188 -0.43505567
1.4552922 -0.5456844 -0.43883753
1.4176611 -0.47132686 -0.43856278
5.5817451 -2.5937874 1.9015141
5.9079304 -2.4750822 1.9024866
6.198329 -2.3243525 1.8960748
6.5867734 -2.1934104 1.9162917
6.5075073 -3.0190105 1.9153467
6.8864446 -2.8871429 1.911689
7.3274136 -2.7540295 1.9245945
7.7608342 -2.5946116 1.9274591
7.7731123 -3.6059945 1.945999
8.2737579 -3.467416 1.9431952
8.491087 -3.1951208 1.8746634
8.4495621 -2.8315918 1.7520621
8.6569471 -4.0136242 1.7978269
8.5850677 -3.6005244 1.6579429
8.5043077 -3.2050107 1.5294863
8.4373522 -2.8311038 1.4121164
8.670455 -4.0208063 1.4382536
8.5860586 -3.606051 1.3081337
8.5224695 -3.2169523 1.1915131
7.9287696 -2.6683066 1.0144373
8.1349745 -3.7742095 1.01399
8.0832615 -3.3950477 0.90616643
8.0039034 -3.0248818 0.80279362
7.9402056 -2.6764758 0.70774192
8.1597881 -3.7872796 0.68619299
8.0796881 -3.3965335 0.58383268
8.0195808 -3.0330465 0.49061882
7.9661703 -2.68817 0.39972332
8.1623344 -3.791579 0.35534105
8.114418 -3.4158001 0.26345155
8.031333 -3.0421386 0.17659777
7.9593558 -2.6895845 0.091649793
8.1762943 -3.7994511 0.025649466
8.090806 -3.4093521 -0.059916344
8.0186157 -3.0410028 -0.13801458
7.9751658 -2.6981843 -0.21590705
1.5331687 -0.71342623 -0.05727914
1.5510776 -0.6542719 -0.072881669
1.5720112 -0.59727269 -0.088896878
1.5711541 -0.53198588 -0.10348933
1.5216302 -0.70928514 -0.11851361
1.5564134 -0.65748274 -0.13534741
1.5734149 -0.59808892 -0.15084833
1.5804808 -0.53566658 -0.16574372
1.5110569 -0.70487028 -0.17942715
1.5431954 -0.65269268 -0.19623867
1.5698413 -0.59720087 -0.21259959
1.5969754 -0.54169214 -0.23031098
1.5133619 -0.70745766 -0.24204062
1.5551974 -0.65879309 -0.2608338
1.6174247 -0.61601365 -0.28457084
3.0029163 -1.0191116 -0.55305237
1.5571275 -0.72937453 -0.31443715
1.5901129 -0.67446756 -0.33273947
1.6373144 -0.6247344 -0.35475725
3.574717 -1.2144184 -0.80385703
1.5526605 -0.72910041 -0.38040417
1.5755001 -0.6691131 -0.39640424
1.5991912 -0.61037993 -0.41369691
1.5819826 -0.53682214 -0.42176083
1.4906589 -0.7017011 -0.4309997
1.4739718 -0.62730026 -0.43531793
1.4564117 -0.55632067 -0.44019616
1.4410927 -0.48895717 -0.44673127
5.570045 -2.6300273 1.90299
5.8555937 -2.4955013 1.8905284
6.186645 -2.3633702 1.8969009
6.5540242 -2.2272716 1.910704
6.4643908 -3.047348 1.908124
6.8766198 -2.9327633 1.9139212
7.3130975 -2.7999792 1.9253106
7.7373977 -2.639668 1.9256248
7.7473111 -3.651958 1.9451131
8.2577209 -3.5204172 1.9444653
8.4978399 -3.2573256 1.8805317
8.4552393 -2.8913209 1.7568848
8.6748295 -4.0867701 1.8067142
8.58183 -3.6612465 1.6616248
8.5203857 -3.270915 1.5359586
8.481492 -2.9039361 1.4224592
8.676034 -4.0882626 1.4433131
8.6047497 -3.6761737 1.3143934
8.5377398 -3.282707 1.1964415
7.9366598 -2.7252889 1.0175672
8.1655903 -3.8494766 1.0207312
8.0796566 -3.4520071 0.90811986
8.0177126 -3.0864549 0.80606306
7.9490757 -2.7338955 0.7100144
8.1598444 -3.8483343 0.68817049
8.1045675 -3.465661 0.58715594
8.0315628 -3.0940402 0.49250406
7.9721923 -2.7448027 0.40086302
8.173254 -3.8577981 0.35684019
8.1061697 -3.4710333 0.2638703
8.0311718 -3.0985584 0.17700896
8.0013142 -2.7585788 0.092326097
8.1908054 -3.867481 0.025768951
8.1193657 -3.4802058 -0.060284849
8.031517 -3.1023962 -0.13856168
7.9896445 -2.7578323 -0.21675307
0 -0 -0
1.5497882 -0.6649586 -0.073011428
1.5841489 -0.61303383 -0.089794286
1.5942743 -0.55074102 -0.10523283
1.4820904 -0.70195609 -0.11576731
1.5605925 -0.67056209 -0.13606608
1.5483526 -0.59946102 -0.14879535
1.5743428 -0.54437858 -0.16544722
1.5004144 -0.71114784 -0.1786782
1.5409863 -0.66293424 -0.19647133
1.5670725 -0.60718048 -0.21272516
1.6067302 -0.5560171 -0.23220544
1.5054168 -0.71503174 -0.24146707
1.5420495 -0.66441262 -0.25930756
1.6090147 -0.62414211 -0.28375965
3.003123 -1.0397742 -0.55425501
1.54907 -0.73722434 -0.3137176
1.5904527 -0.68615651 -0.33368531
1.6261418 -0.63192886 -0.35316995
3.583833 -1.242095 -0.80760562
1.544633 -0.7369321 -0.37953815
1.5704705 -0.6783812 -0.3961786
1.591792 -0.61877221 -0.41275722
1.5740778 -0.54493296 -0.42053691
1.4863253 -0.71083444 -0.4309997
1.4745231 -0.63824922 -0.43662915
1.4753932 -0.57396948 -0.4469893
1.4770546 -0.51128656 -0.45884314
5.5503564 -2.6625021 1.9018092
5.8788714 -2.5481579 1.903056
6.1854658 -2.4065146 1.9010311
6.5429673 -2.2683916 1.9115024
6.4690981 -3.098223 1.9150889
6.8558288 -2.9737458 1.9131771
7.2813039 -2.8391545 1.9214907
7.7366834 -2.692533 1.9295225
7.7159624 -3.6952143 1.9428985
8.2036839 -3.5570228 1.9368441
8.5278683 -3.3289928 1.8916615
8.4623547 -2.9518728 1.7620937
8.702775 -4.1653767 1.8178234
8.6106834 -3.7361717 1.6716188
8.5166883 -3.3295968 1.538946
8.4691086 -2.9578767 1.4233994
8.7043009 -4.1670408 1.4522419
8.6147289 -3.7431092 1.3194013
