# .PCD v0.7 - Point Cloud Data file format
VERSION 0.7
FIELDS x y z
SIZE 4 4 4
TYPE F F F
COUNT 1 1 1
WIDTH 1735
HEIGHT 1
VIEWPOINT 0 0 0 1 0 0 0
POINTS 1735
DATA ascii
1.5118952 -0.77705443 -0.36194393
2.4560044 -1.6312325 -0.65385354
1.2001296 -0.73395377 -0.32578698
1.4457124 -0.81223774 -0.40077624
1.496442 -0.76845187 -0.42469823
2.3935924 -1.5930327 -0.7521615
1.2400743 -0.75966173 -0.39519528
1.3170739 -0.74041909 -0.42660984
1.346068 -0.6911726 -0.44419622
5.0872931 -3.3944628 1.8894119
5.4334044 -3.3321958 1.8930908
5.7779331 -3.2483864 1.8985531
6.1219864 -3.1472108 1.900061
5.9400487 -3.9580665 1.9058024
6.3528738 -3.8983767 1.908217
6.8036413 -3.831768 1.9198194
7.2723885 -3.749532 1.9272298
7.0918975 -4.7254062 1.9353687
7.6267986 -4.6786418 1.9381144
8.1676378 -4.604094 1.9373949
8.7572269 -4.5230274 1.9378399
8.6683388 -5.7729654 1.962242
8.9116077 -5.470017 1.862205
8.8422365 -4.9902644 1.7087229
8.7549553 -4.526113 1.5638118
8.9319963 -5.9496822 1.6150405
8.9306631 -5.4879384 1.4724154
8.8467827 -4.998939 1.32912
8.770402 -4.5439963 1.1977752
8.8263168 -5.8815126 1.199261
0 -0 0
8.3446751 -4.7196398 0.89947629
8.2500086 -4.2794929 0.78500527
8.9795237 -5.9856405 0.82317299
8.9056234 -5.4766202 0.69642514
8.3630018 -4.7327027 0.54986095
8.2712803 -4.2940087 0.44308168
8.9825811 -5.9917555 0.42631459
8.9842243 -5.5310097 0.31570515
8.3768616 -4.7461457 0.19797865
8.2756672 -4.3006878 0.10173978
9.0153246 -6.0154157 0.030832842
8.9681301 -5.5256352 -0.071885958
8.3643351 -4.743485 -0.15474948
8.2851658 -4.3094816 -0.23949224
0 -0 -0
0 -0 -0
1.405848 -0.79840362 -0.08546558
1.474075 -0.76718932 -0.10367613
2.4218194 -1.6201001 -0.20569119
8.7965403 -5.4307199 -0.82813454
1.3925403 -0.79113531 -0.14352906
1.4686003 -0.76489383 -0.16445889
2.4432037 -1.6353933 -0.31637812
8.8841143 -5.4901414 -1.2231474
1.3877097 -0.78887153 -0.20205124
1.4339489 -0.7472918 -0.22083874
2.4124968 -1.6177063 -0.4208467
0 -0 -0
4.1895895 -2.3837857 -0.79254764
1.478036 -0.77056271 -0.29070041
2.4562984 -1.6498134 -0.54109091
0 -0 -0
3.4216611 -1.9496188 -0.79721171
1.5114346 -0.78857875 -0.36298519
2.4338002 -1.6380947 -0.65060586
0 -0 -0
1.4246562 -0.81194848 -0.39631271
1.4848205 -0.77403384 -0.42273998
2.3909914 -1.6125581 -0.75443929
0 -0 -0
1.2916063 -0.73656797 -0.4198167
1.3273373 -0.69187921 -0.4394078
5.1004038 -3.448626 1.9021044
5.4071574 -3.3619285 1.8910978
5.7553873 -3.2823491 1.8977269
6.1145244 -3.190959 1.9037861
5.9124475 -3.9922767 1.9047705
6.3214312 -3.9326782 1.9059849
6.7934928 -3.8811495 1.9236394
7.2371716 -3.787765 1.9240201
7.0457978 -4.7573724 1.9307179
7.5689006 -4.7072859 1.930705
8.1264811 -4.646831 1.9343593
8.7588568 -4.5921664 1.9443991
8.6221638 -5.8188977 1.9598349
8.9288654 -5.556324 1.8729002
8.8602324 -5.0723519 1.7181827
8.7908602 -4.6132498 1.5752517
8.9141722 -6.0171003 1.6184632
8.9590206 -5.5813813 1.4827093
8.8796024 -5.0896163 1.3387176
8.785408 -4.6203671 1.2036738
14.085181 -9.5111294 1.9216936
0 -0 0
0 -0 0
8.2403479 -4.3388543 0.7866044
8.9839401 -6.068531 0.82697582
8.8930187 -5.5443578 0.6980868
8.8983393 -5.1079931 0.58710873
8.283659 -4.3651686 0.44517124
9.0905199 -6.1446843 0.43321863
8.9747086 -5.6013799 0.31657255
8.9092894 -5.1202755 0.2113006
8.2809629 -4.3681808 0.10213247
8.9832153 -6.0739803 0.030849911
8.9832478 -5.6112852 -0.07228177
8.923563 -5.133245 -0.16567543
8.2700605 -4.3663049 -0.23982552
0 -0 -0
0 -0 -0
1.373233 -0.79106385 -0.083776332
1.4481602 -0.76503086 -0.1021817
2.4068789 -1.6315714 -0.20526868
8.9413385 -5.5961776 -0.8449831
1.381619 -0.79618376 -0.14290424
1.4480441 -0.7655192 -0.16267988
2.4355915 -1.6520278 -0.31669909
8.85952 -5.5503502 -1.224427
1.3742487 -0.79241586 -0.20079547
1.4345915 -0.758856 -0.22165066
2.4000695 -1.63081 -0.42041653
0 -0 -0
4.1902676 -2.4183259 -0.79546803
1.4802459 -0.78330344 -0.29207489
2.4225459 -1.6488031 -0.53587431
0 -0 -0
3.4571552 -1.9980416 -0.80832273
1.4987884 -0.79371828 -0.36111093
2.3930542 -1.6320943 -0.64237863
2.8348882 -1.7818749 -0.77543616
2.9057748 -1.6797806 -0.81118423
1.4766151 -0.7813161 -0.42176083
2.3818505 -1.6277444 -0.75469238
2.4229357 -1.5254793 -0.77806526
1.2695684 -0.7343601 -0.41411045
1.3256114 -0.70135677 -0.44025284
5.0775709 -3.4787767 1.9015141
5.3864274 -3.3950429 1.8910978
5.7243209 -3.3113439 1.8941474
6.083756 -3.2225511 1.900327
5.8846507 -4.0262971 1.9037386
6.2988205 -3.9724252 1.9064808
6.7762723 -3.9266558 1.9255495
7.2103558 -3.8302736 1.923103
7.0044017 -4.7922554 1.9273959
7.550622 -4.7604151 1.9334569
8.1240778 -4.7118378 1.9406325
8.7322474 -4.6467452 1.9447849
8.578186 -5.8661461 1.9579835
8.9404011 -5.6398964 1.8825437
8.871582 -5.151381 1.7264807
8.8120756 -4.6935673 1.5841842
8.8827972 -6.0755911 1.6195048
8.9664688 -5.6626868 1.4896644
8.873065 -5.1584568 1.3424788
8.8155699 -4.7055063 1.2117393
14.020816 -9.5934477 1.9209071
8.982872 -5.673265 1.0981126
0 -0 0
8.2601471 -4.4142256 0.7910651
0 -0 0
8.9777594 -5.6739826 0.70745838
8.9004793 -5.1820874 0.58933675
8.2857857 -4.4314599 0.44673839
9.1243677 -6.2494712 0.43665093
8.9992981 -5.6937513 0.31866628
8.9113903 -5.1944814 0.21210237
8.2883844 -4.4373159 0.10255788
0 -0 0
8.9934254 -5.6946526 -0.072643444
8.9195337 -5.2040262 -0.16619034
8.285409 -4.4396305 -0.24105605
0 -0 -0
0 -0 -0
1.367491 -0.79897118 -0.083723538
1.4513552 -0.77814668 -0.10274211
2.3886001 -1.6406612 -0.2045645
8.9228249 -5.6610818 -0.84650028
1.374128 -0.80313843 -0.14263646
1.4336742 -0.76921469 -0.16159272
2.418854 -1.6624361 -0.31584314
3.1298528 -1.9876493 -0.43423772
1.3539457 -0.79181814 -0.19853511
1.4334002 -0.76951873 -0.22219191
2.3834965 -1.641016 -0.41926938
0 -0 -0
1.3744677 -0.80452824 -0.26185709
1.4641293 -0.78631198 -0.28984135
2.3994267 -1.6547012 -0.53299612
3.4559834 -2.1997597 -0.78919226
3.4685061 -2.0330944 -0.81387818
1.4801055 -0.79549122 -0.35777888
2.3829949 -1.6467471 -0.64237863
2.9923332 -1.9065514 -0.8216871
2.9138606 -1.7083942 -0.81635249
1.470939 -0.78990304 -0.42151606
2.3749995 -1.6445315 -0.75570464
2.39238 -1.5268195 -0.77124703
1.1803706 -0.69246566 -0.38639438
1.2528095 -0.67270982 -0.41743743
5.0388627 -3.4978797 1.8950201
5.366302 -3.4285457 1.8913825
5.6889706 -3.3376491 1.8891912
6.0689626 -3.2625582 1.9019235
5.8622169 -4.0639806 1.9045125
6.286571 -4.018826 1.910201
6.7554002 -3.9701281 1.9265044
7.1807203 -3.8712101 1.9214981
6.9852843 -4.8423662 1.9302751
7.5089173 -4.7987604 1.9302814
8.1110516 -4.7710314 1.9444773
8.7122049 -4.7049003 1.9467142
8.5581846 -5.9298639 1.9616865
8.8832321 -5.6803269 1.8778096
8.8890905 -5.2347426 1.7361063
8.8169956 -4.7658648 1.5902959
9.0436668 -6.267417 1.6558146
8.9665833 -5.7400217 1.4955068
8.8942032 -5.2440271 1.3505198
8.8240652 -4.7798405 1.2169155
14.046617 -9.7381763 1.9325919
8.9814014 -5.7497282 1.1022249
0 -0 0
8.3064852 -4.5047288 0.79813498
0 -0 0
9.0133505 -5.7741742 0.71304154
8.9226751 -5.2685819 0.59293586
8.2997007 -4.5046115 0.44897041
9.1548061 -6.3531933 0.43996486
9.0104694 -5.7785411 0.32031137
8.9223824 -5.2745018 0.2131303
8.3102055 -4.5148206 0.10316873
0 -0 0
9.0323706 -5.7972598 -0.073243976
8.9502516 -5.2958264 -0.167365
8.3098278 -4.5185604 -0.2425686
0 -0 -0
0 -0 -0
1.4476156 -0.85774243 -0.088949658
1.4184989 -0.77177358 -0.10074954
2.3858569 -1.6604147 -0.20519826
8.939064 -5.7486138 -0.85137117
1.3211931 -0.78311485 -0.13763794
1.41407 -0.76990777 -0.15991254
2.3947372 -1.6675878 -0.31402427
3.1401467 -2.0213313 -0.43737844
3.1409845 -1.8628768 -0.462244
1.4260412 -0.77687746 -0.22178596
2.3717594 -1.6544776 -0.41898263
0 -0 -0
1.403446 -0.833094 -0.26834673
1.4627371 -0.79716659 -0.2905286
2.3779395 -1.661505 -0.53047776
3.4201422 -2.2065504 -0.78408474
1.2064708 -0.71716547 -0.28412324
1.4777726 -0.80596292 -0.35840362
2.3872411 -1.6714166 -0.6462757
2.9396589 -1.89845 -0.81040639
1.1680132 -0.69447058 -0.3284204
1.4515913 -0.79102659 -0.41735473
2.3601124 -1.6557397 -0.75418621
2.3465049 -1.5178843 -0.7594462
1.1893327 -0.70756805 -0.390742
1.2537135 -0.68313885 -0.41912743
5.0024567 -3.5182889 1.8894119
5.347578 -3.4629714 1.8922367
5.6882119 -3.38429 1.8957995
6.0496759 -3.3001969 1.9021896
5.8498206 -4.1087589 1.9086398
6.24716 -4.047842 1.9057368
6.6841993 -3.9836636 1.9131342
7.1645174 -3.9194016 1.9235615
6.9546423 -4.8845749 1.9300536
7.489995 -4.8516517 1.9330336
8.0824652 -4.8212118 1.9446799
8.6857538 -4.7596836 1.9472929
8.5152054 -5.9777474 1.9602054
8.8201227 -5.7165213 1.8718483
8.9135294 -5.3230624 1.7472256
8.830018 -4.8431482 1.5979748
9.0001841 -6.3193798 1.6549217
8.9851923 -5.8299675 1.5045487
8.9273891 -5.3376827 1.3605064
8.8424196 -4.8601942 1.2235364
14.102878 -9.9058552 1.9486586
8.9876747 -5.8318009 1.1073655
8.8662281 -5.3059468 0.96944278
8.3101158 -4.5729055 0.80116487
0 -0 0
9.009551 -5.850019 0.71556723
8.9492817 -5.3586206 0.59687769
8.3261528 -4.5853276 0.45191482
9.1646957 -6.4437299 0.44233197
9.0276413 -5.8680387 0.32219571
8.9490194 -5.3646188 0.21454884
8.3191261 -4.5860009 0.10362687
0 -0 0
9.0259666 -5.8716574 -0.073482819
8.9467402 -5.3681355 -0.16791211
8.3344622 -4.5984387 -0.24410674
0 -0 -0
0 -0 -0
8.8756514 -5.3328581 -0.54737037
1.4242219 -0.78625119 -0.10149676
2.3633952 -1.6664006 -0.20414199
8.9553986 -5.8371015 -0.85632199
8.9285612 -5.3665576 -0.93356371
1.4075773 -0.7776075 -0.15971488
2.3917718 -1.6874087 -0.31498721
3.1509762 -2.0557563 -0.4406355
3.1354461 -1.8856936 -0.46312302
1.4030375 -0.77554703 -0.21894428
2.3753023 -1.6787094 -0.42142025
4.0915079 -2.6726358 -0.75472385
0 -0 -0
3.9984393 -2.2110088 -0.79684895
2.3676999 -1.6760644 -0.53047776
3.3613374 -2.1979377 -0.77368075
1.1785439 -0.71038747 -0.27856776
3.2827768 -1.8166173 -0.798859
2.3729591 -1.6832089 -0.64519322
2.8823075 -1.8865738 -0.79777199
1.1470815 -0.69158667 -0.32372195
1.4407707 -0.79663438 -0.41564125
2.3436 -1.665706 -0.7521615
2.3613579 -1.5481263 -0.76731342
1.2138101 -0.73225141 -0.40025243
1.2511778 -0.69174719 -0.41969082
4.975328 -3.5450361 1.8873458
5.3278317 -3.4967704 1.8928062
5.6714549 -3.4216115 1.8971763
6.0318427 -3.3386555 1.9029878
5.8142657 -4.1372933 1.9052863
6.2132974 -4.0802484 1.9030087
6.6554747 -4.0220904 1.9119405
7.1479926 -3.9675398 1.9256248
6.9293079 -4.9305487 1.9313824
7.4396601 -4.884109 1.9277412
8.0485411 -4.8681798 1.943668
8.6675329 -4.819087 1.9498007
8.4735603 -6.0264659 1.9590944
8.9568586 -5.8835001 1.9084928
8.9076929 -5.3940001 1.7525363
8.8562298 -4.9284539 1.6081609
10.423758 -7.4148316 1.9250128
8.9641447 -5.8947835 1.5070524
8.9326258 -5.4154921 1.3663428
8.8462448 -4.9332151 1.2282312
14.087978 -10.025041 1.9550626
8.9400873 -5.8791866 1.1059262
8.8803196 -5.3886571 0.97458059
8.3210526 -4.645668 0.80495226
0 -0 0
8.9768209 -5.9073839 0.71583307
8.9580498 -5.4388199 0.59967697
8.3327398 -4.6558185 0.45381442
9.1933489 -6.5485387 0.4456459
8.992301 -5.9238706 0.32222563
8.9654856 -5.4495473 0.21574122
8.3449392 -4.667222 0.10430317
0 -0 0
8.9772463 -5.9186726 -0.073380455
8.9606152 -5.4515138 -0.16879714
8.3505783 -4.6743946 -0.2454142
0 -0 -0
0 -0 -0
8.8862553 -5.4137144 -0.5500626
1.4106629 -0.79009813 -0.10087408
2.3515024 -1.6797111 -0.20400114
2.4535871 -1.6207781 -0.23556039
8.9218311 -5.4373097 -0.93633074
1.3949671 -0.78185087 -0.15882538
2.3724751 -1.6956929 -0.31381029
2.4597733 -1.6264067 -0.34536612
3.1424513 -1.9162601 -0.4658857
1.3965241 -0.78317207 -0.21867365
2.3673713 -1.6949809 -0.42185041
2.4235933 -1.6044304 -0.4488661
0 -0 -0
4.0011215 -2.2446589 -0.80011332
2.3549731 -1.688841 -0.5299381
2.4621384 -1.6316166 -0.56900531
1.1465651 -0.70073867 -0.27202022
3.2826557 -1.8429503 -0.8015663
2.3332522 -1.676658 -0.63718241
2.4420242 -1.6198827 -0.67864764
1.2182854 -0.74474686 -0.34509981
1.4350098 -0.8049854 -0.41539648
2.3309801 -1.6783589 -0.75140226
2.3622634 -1.5695286 -0.77072251
1.251985 -0.76579791 -0.41438219
1.2318465 -0.69096196 -0.41462073
4.954257 -3.5760565 1.887641
5.2958994 -3.5224938 1.8891048
5.6478934 -3.4548419 1.8963503
5.9759426 -3.3557801 1.8918126
5.7872028 -4.171761 1.9047705
6.1921773 -4.1209793 1.9042487
6.6430907 -4.0704627 1.9155219
7.1260586 -4.0127573 1.9263127
6.8728189 -4.9541554 1.9240742
7.4152474 -4.9334559 1.9292231
7.9918046 -4.9010906 1.9371926
8.621563 -4.8630204 1.9461353
8.4428024 -6.0829411 1.9605757
9.0082788 -5.9967222 1.9272534
8.9046822 -5.4671297 1.7585109
8.8550644 -4.9992108 1.613489
10.329126 -7.4433851 1.9159354
8.9945545 -5.9941583 1.51832
8.9465332 -5.4992766 1.3736057
8.8503704 -5.0069547 1.2330463
14.135018 -10.189739 1.9702303
9.0006886 -5.9984727 1.1179549
0 -0 0
8.3340092 -4.7202091 0.80899221
0 -0 0
8.9487057 -5.9678898 0.71649772
8.9500141 -5.5093837 0.60139084
8.4465284 -4.7876382 0.46160275
9.2064743 -6.643415 0.4482497
9.027276 -6.0266638 0.32479793
8.9684782 -5.5270109 0.21662524
8.3996363 -4.7657084 0.10535035
0 -0 0
8.9898176 -6.0064211 -0.073783085
8.9635897 -5.528964 -0.16948906
8.4399624 -4.7926788 -0.2489007
0 -0 -0
0 -0 -0
0 -0 -0
1.3901685 -0.789864 -0.099753253
2.3920639 -1.7309492 -0.20843749
2.4361413 -1.630812 -0.23484175
4.1255608 -2.5491238 -0.43460387
1.4031192 -0.79777318 -0.16030788
2.3483353 -1.7003056 -0.31199139
2.4456222 -1.6387047 -0.3447845
3.1407599 -1.941766 -0.46739259
1.3968595 -0.79466581 -0.21948557
2.3569267 -1.7094748 -0.42185041
2.4137032 -1.619271 -0.4488661
0 -0 -0
4.0206647 -2.2881703 -0.8068139
2.3557081 -1.7113533 -0.53245646
2.4528956 -1.6472406 -0.5691945
0 -0 -0
3.2857342 -1.8712863 -0.80510658
2.3126595 -1.6834737 -0.63436776
2.4199109 -1.6266836 -0.6752634
0 -0 -0
1.4266728 -0.81185716 -0.41441736
2.3198564 -1.6920599 -0.75114924
2.3541894 -1.5850717 -0.77124703
2.3137743 -1.434842 -0.76871294
1.2434287 -0.70752347 -0.41997245
4.9522743 -3.6210504 1.8953154
5.2718015 -3.5533152 1.8882507
5.6306734 -3.4919648 1.8977269
5.9376502 -3.382365 1.8862249
5.7560349 -4.2032037 1.9029647
6.1683807 -4.1599793 1.9047447
6.6221142 -4.1137094 1.9167156
7.0658045 -4.0361295 1.9166836
6.857255 -5.0071592 1.928282
7.377543 -4.9739442 1.9273176
7.9682345 -4.9541712 1.9388113
8.5838966 -4.9114442 1.9443991
8.4021435 -6.1323128 1.9598349
9.0415049 -6.0992317 1.9423319
8.9212008 -5.5529313 1.7684684
8.8645048 -5.0765185 1.6208544
10.335975 -7.545104 1.9257569
9.0766029 -6.1295953 1.5384899
8.9555397 -5.5808129 1.3802202
8.8780317 -5.0947647 1.2412322
14.182971 -10.357148 1.9857352
14.030016 -9.4750824 1.7498245
8.9723406 -5.5962849 0.99214226
0 -0 0
9.2375813 -6.7479906 0.87261051
0 -0 0
8.966012 -5.5953813 0.60476142
8.9261694 -5.1321273 0.48952687
9.2058716 -6.7292633 0.45022228
9.0671215 -6.1340289 0.32757962
8.9886627 -5.61584 0.217941
8.9171009 -5.1318846 0.11223336
0 -0 0
0 -0 -0
9.0032511 -5.6299806 -0.17088899
8.9396734 -5.1492381 -0.26456434
0 -0 -0
0 -0 -0
2.0515952 -1.284663 -0.12796082
1.38789 -0.79987413 -0.099940054
2.3476079 -1.7208256 -0.20547993
2.4104154 -1.6350971 -0.23332457
4.1360083 -2.5907803 -0.43737087
1.3981978 -0.80636752 -0.16030788
2.3506861 -1.7240912 -0.3137033
2.4231956 -1.645311 -0.34303963
3.1573677 -1.9789144 -0.47166216
1.3739356 -0.79282254 -0.21664388
2.355166 -1.73035 -0.42342767
2.4012702 -1.6323839 -0.44840822
0 -0 -0
1.4103122 -0.81410873 -0.28399989
2.3744776 -1.7473477 -0.53911221
2.3980927 -1.6318768 -0.5587905
3.4036794 -2.1380122 -0.81367975
3.276731 -1.8928797 -0.80573136
2.3321455 -1.7196494 -0.64259511
2.3978066 -1.6332747 -0.67187923
3.5917728 -2.2566872 -1.0251979
1.4090686 -0.81332529 -0.41074562
2.3304393 -1.7217842 -0.75798243
2.3507965 -1.6038376 -0.77334493
2.4100294 -1.5150857 -0.80376559
1.2249365 -0.70698583 -0.41518405
4.9307303 -3.6519375 1.8956106
5.252274 -3.5872173 1.8891048
5.6066995 -3.5249133 1.8969009
5.9209576 -3.4211452 1.8875554
5.7246985 -4.2344213 1.901159
6.1451392 -4.1993895 1.9054888
6.5827789 -4.1454673 1.9126568
7.0425906 -4.0803843 1.917142
6.80053 -5.030004 1.9209737
7.3412356 -5.0152593 1.9258356
7.9476285 -5.0092363 1.9412396
8.5493555 -4.9615588 1.9434345
8.3588266 -6.1796627 1.9585389
9.0234165 -6.1679282 1.9465399
8.9478416 -5.6459813 1.7805835
8.8775988 -5.15661 1.6290034
10.517679 -7.7771177 1.9684654
9.068243 -6.2053056 1.5434977
8.971426 -5.6674323 1.3880019
8.904088 -5.1826019 1.2492976
14.132733 -10.454022 1.987645
14.024972 -9.5975046 1.7565072
8.9782267 -5.6767726 0.99662608
8.8075247 -5.1321616 0.86100608
9.2368803 -6.8347917 0.8764894
0 -0 0
8.9922581 -5.6887207 0.60887468
8.9281635 -5.2064247 0.49137896
9.2133942 -6.8218937 0.45262885
0 -0 0
8.9996462 -5.6997743 0.21905115
8.9338055 -5.2147307 0.11284421
0 -0 0
0 -0 -0
9.0132942 -5.7134895 -0.17174183
8.9372578 -5.2211385 -0.26543596
0 -0 -0
0 -0 -0
2.0183811 -1.2811724 -0.12637715
1.3872643 -0.81089336 -0.1002514
2.2993629 -1.7072489 -0.20217028
2.4028015 -1.6515503 -0.23356412
4.1208744 -2.6166434 -0.43746012
1.3726088 -0.80287331 -0.15793587
2.3153214 -1.7201012 -0.31038651
2.4196007 -1.6646521 -0.34397024
3.1627505 -2.0094228 -0.47429925
1.3741758 -0.8042407 -0.2174558
2.3413289 -1.7424051 -0.42285413
2.3790002 -1.6386778 -0.44611886
0 -0 -0
1.4486477 -0.84813112 -0.29276213
2.3447828 -1.7477751 -0.53479499
2.3823755 -1.6426586 -0.55746633
3.408685 -2.1704376 -0.81804478
3.2093573 -1.8803173 -0.79198664
2.3278074 -1.7386004 -0.64432716
2.4061813 -1.6606842 -0.67706835
2.9539466 -1.8813235 -0.84642249
2.8072665 -1.6434219 -0.82124645
0 -0 -0
2.3321795 -1.6121956 -0.77046031
2.3138473 -1.4745055 -0.77469087
1.2073263 -0.70673293 -0.41067731
4.9135799 -3.6861365 1.8976768
5.2246466 -3.6155586 1.8871118
5.5671296 -3.5478823 1.8908432
5.9131613 -3.465209 1.8918126
5.7001553 -4.2706261 1.901675
6.1240354 -4.240325 1.9069768
6.5572186 -4.1857805 1.9126568
7.0266523 -4.1289444 1.9196639
6.761734 -5.0657897 1.918759
7.3143425 -5.0629911 1.9268942
7.9084897 -5.0526352 1.939216
8.5162144 -5.0124302 1.9428557
8.3246851 -6.2337804 1.9594647
8.9975414 -6.2315874 1.94917
8.8872776 -5.6843066 1.7754389
8.8704691 -5.225523 1.633548
9.2033863 -6.8930326 1.7303686
9.0454597 -6.2715511 1.5461407
8.9799032 -5.7501779 1.3947461
8.9148655 -5.2623711 1.2553166
9.2500563 -6.9305072 1.3068955
14.076989 -9.7604609 1.7704893
8.9775934 -5.7537818 1.000456
8.9045467 -5.2621493 0.87363076
9.1875887 -6.8859577 0.8758049
0 -0 0
9.015172 -5.7809739 0.61281651
8.9106655 -5.269753 0.49218631
9.2409096 -6.9304557 0.45606112
0 -0 0
9.0233974 -5.7926955 0.22049025
8.9515486 -5.2989931 0.11347689
9.248703 -6.9383187 0.032892536
0 -0 -0
9.036952 -5.8065214 -0.17286822
8.9618168 -5.3095083 -0.26712793
0 -0 -0
0 -0 -0
2.0104821 -1.2935327 -0.12637715
8.868803 -5.2573295 -0.64322793
0 -0 -0
2.3958945 -1.6685412 -0.23388353
4.0946918 -2.635411 -0.43638903
1.3573864 -0.80518818 -0.15674987
3.7561989 -2.8264923 -0.50586259
2.3971193 -1.6709477 -0.34222537
3.192066 -2.0556483 -0.48057804
1.3521746 -0.8025434 -0.21474944
4.4533381 -3.356806 -0.80799699
2.3583651 -1.6458915 -0.44413474
0 -0 -0
0 -0 -0
3.5398829 -2.6725335 -0.81109679
2.3875461 -1.6679304 -0.56106043
3.3730688 -2.1769621 -0.8126877
1.1662616 -0.69294351 -0.28884709
2.8488755 -2.1551349 -0.792202
2.3919542 -1.6726255 -0.67594028
2.8884494 -1.8646196 -0.83091766
1.1788797 -0.69988406 -0.34612292
0 -0 -0
2.3190818 -1.6242608 -0.76941139
2.3411345 -1.5121725 -0.78691852
1.1328353 -0.67249471 -0.3867352
4.9152136 -3.7347136 1.9071224
5.2094278 -3.6525013 1.8896742
5.5274901 -3.5704992 1.8847854
5.9158192 -3.515708 1.8995289
5.6684566 -4.3014331 1.8998692
6.0979018 -4.2778215 1.9069768
6.5281501 -4.2238255 1.9117017
7.0003495 -4.171483 1.9194348
6.7421765 -5.1160254 1.922081
7.2767382 -5.1032867 1.9252007
7.8847365 -5.1058564 1.9410372
8.471817 -5.0565438 1.9397691
8.2894106 -6.287118 1.9602054
8.9954014 -6.3121257 1.95706
8.8489218 -5.7365847 1.7747749
8.9086123 -5.3218927 1.6465549
9.1821899 -6.9655104 1.7343866
9.0627203 -6.3662119 1.5557389
8.9594231 -5.8148856 1.3970805
8.9249973 -5.3424664 1.2613356
9.1432409 -6.9384785 1.2977948
14.089276 -9.897541 1.7796395
9.0122547 -5.8543181 1.0083028
8.8746557 -5.3182244 0.87388325
9.1396046 -6.9379821 0.87527251
0 -0 0
9.0046444 -5.8525038 0.61453038
8.9209948 -5.3500152 0.49456081
9.2594786 -7.033566 0.45909891
0 -0 0
9.0354509 -5.8790331 0.22166209
8.964304 -5.3810949 0.11405501
9.1725149 -6.9695272 0.032773051
0 -0 -0
9.0480738 -5.8924174 -0.17376933
8.9487791 -5.3762383 -0.26771757
0 -0 -0
0 -0 -0
2.0150545 -1.3140266 -0.12716898
8.9330387 -5.3697529 -0.6502642
8.0218458 -6.1102486 -0.71185625
2.3880548 -1.6849347 -0.23412308
4.0225515 -2.6240258 -0.43040863
8.9399576 -5.3775239 -1.03617
3.7356222 -2.8470762 -0.50543463
2.3965569 -1.6925001 -0.34362125
3.2317317 -2.1093576 -0.4884893
3.246243 -1.953746 -0.51745546
4.3453417 -3.3174076 -0.79208076
2.3482218 -1.6603311 -0.44413474
3.9909201 -2.6070671 -0.78378665
0 -0 -0
3.3772924 -2.5824678 -0.77745843
2.3860836 -1.6887888 -0.56314129
3.2768047 -2.1434286 -0.79264826
1.1469078 -0.69100106 -0.28509852
2.8379233 -2.174356 -0.79285151
2.3784664 -1.6850182 -0.6750378
2.9135563 -1.9062556 -0.84148914
1.1546271 -0.69510263 -0.34024817
0 -0 -0
2.3145809 -1.6423689 -0.77124703
2.3028252 -1.507533 -0.77713639
1.1812994 -0.71110356 -0.40476218
4.867218 -3.7455735 1.8973817
5.1845737 -3.6827316 1.8888201
5.5191512 -3.6132998 1.8894664
5.8990893 -3.5549257 1.9011253
5.6373606 -4.3326006 1.8983215
6.0644321 -4.3101063 1.9047447
6.4858694 -4.2531519 1.9069266
6.9896173 -4.2234187 1.9235615
6.7253485 -5.1685882 1.9262886
7.2652054 -5.1619916 1.9304931
7.8426161 -5.1471548 1.9384066
8.4431505 -5.1099553 1.9403479
8.2537947 -6.3402572 1.960946
8.9653282 -6.373476 1.9589885
8.9454212 -5.8774123 1.8013285
8.914649 -5.3999929 1.6537635
0 -0 0
9.1453171 -6.5084019 1.5767436
8.8937521 -5.8501334 1.3924115
8.9421186 -5.4275188 1.268438
13.717317 -10.542842 1.9561862
9.1649818 -6.5226374 1.1626773
8.9753313 -5.9089584 1.0082093
8.9993973 -5.4683046 0.88945377
9.2312441 -7.0972476 0.88820231
0 -0 0
8.988574 -5.920825 0.61590141
8.9707861 -5.4549937 0.49916735
9.314352 -7.1658006 0.46399093
0 -0 0
9.0050497 -5.9382157 0.22180599
8.979805 -5.4656315 0.11467677
9.1248236 -7.0220189 0.032755982
0 -0 -0
9.0459623 -5.9704061 -0.17442906
8.9540415 -5.4544487 -0.26887122
0 -0 -0
0 -0 -0
0 -0 -0
8.917819 -5.4353719 -0.65157181
7.9842029 -6.1593547 -0.71185625
2.3841588 -1.704193 -0.23476188
2.4626496 -1.6280845 -0.26456475
8.9161396 -5.4379768 -1.0372573
3.7133601 -2.8662987 -0.50479269
2.3796647 -1.7025498 -0.34269065
2.4425926 -1.6157438 -0.37069935
3.2384229 -1.9762084 -0.51813209
4.3100286 -3.3325057 -0.78935635
2.3524518 -1.6850674 -0.44688201
2.4337821 -1.6112595 -0.47990912
0 -0 -0
3.4251578 -2.6525304 -0.79220897
2.3828583 -1.7085474 -0.56484371
2.4352355 -1.6143621 -0.59146047
1.1810406 -0.72147977 -0.29467818
2.9109147 -2.2587609 -0.81710035
2.37204 -1.7024207 -0.67616594
2.4359932 -1.6152316 -0.70640922
1.1991677 -0.73197871 -0.35469034
0 -0 -0
0 -0 -0
2.3207974 -1.5397238 -0.78637505
2.3235247 -1.4181812 -0.79910254
4.8554478 -3.7841775 1.9018092
5.1657701 -3.717274 1.8902438
5.5008817 -3.6497538 1.8908432
5.8607149 -3.581003 1.8958038
5.6175318 -4.3724504 1.9006432
6.0276513 -4.3398771 1.9015206
6.4596505 -4.2928686 1.9069266
6.9478016 -4.2565656 1.9192054
6.6950474 -5.2109556 1.9267317
7.2183237 -5.1956248 1.9264709
7.8125167 -5.1962638 1.9388113
8.4225082 -5.1683364 1.9428557
8.2038774 -6.3823342 1.9583539
8.91327 -6.4191608 1.9561832
8.9559765 -5.9633427 1.8107883
8.897337 -5.4644113 1.6567411
0 -0 0
0 -0 0
8.7974606 -5.8644457 1.3829437
8.9509211 -5.5082989 1.274457
13.666483 -10.637797 1.9582086
14.116026 -10.177312 1.7986592
8.9720345 -5.9860215 1.0119458
8.9283457 -5.5004239 0.88575047
0 -0 0
0 -0 0
8.9720039 -5.9891696 0.6172725
8.968606 -5.5293303 0.50092447
9.3293238 -7.268877 0.46694979
0 -0 0
9.0274639 -6.0327988 0.22326565
8.9818392 -5.5426826 0.11513491
0 -0 0
0 -0 -0
9.0133133 -6.0285783 -0.17450951
8.9790916 -5.5455322 -0.27064008
0 -0 -0
0 -0 -0
2.0145421 -1.3492136 -0.12817198
8.9505253 -5.5309114 -0.65642875
7.9462595 -6.2082286 -0.71185625
2.38819 -1.7293131 -0.2361992
2.4319267 -1.629305 -0.26233327
8.8952999 -5.500433 -1.0387397
3.6792531 -2.8761702 -0.50254577
2.3731942 -1.7200335 -0.3432723
2.4466417 -1.6400917 -0.37283412
3.2523558 -2.0122018 -0.52232695
4.30898 -3.3741426 -0.79294109
2.3276701 -1.6890224 -0.44413474
2.4156556 -1.620665 -0.47828671
0 -0 -0
3.4111395 -2.675318 -0.79274857
2.3842473 -1.7317922 -0.56768119
2.4293518 -1.6320066 -0.59245253
1.2040313 -0.74570763 -0.30155054
2.8923945 -2.2729599 -0.81580132
2.3891284 -1.7369941 -0.68406236
2.3945713 -1.6090056 -0.69724727
1.1872336 -0.73473078 -0.3524873
0 -0 -0
0 -0 -0
2.3568296 -1.5845412 -0.80186349
2.3139634 -1.4319065 -0.79882091
4.8178873 -3.8026519 1.8962009
5.1645541 -3.7647114 1.8982158
5.4775858 -3.6829016 1.8905678
5.8328958 -3.613343 1.8939413
5.5898385 -4.4062386 1.9003853
5.993082 -4.3710718 1.8990405
6.4347992 -4.333508 1.9074042
6.9033623 -4.2878175 1.9141614
6.6606498 -5.2501264 1.9260672
7.183939 -5.23809 1.9258356
7.7796745 -5.243556 1.9386091
8.4114666 -5.2328768 1.9476787
8.1066685 -6.38694 1.9444674
8.8617849 -6.4650269 1.9535532
9.3769913 -6.3270631 1.9037259
8.9340668 -5.5627518 1.6699047
0 -0 0
0 -0 0
9.1187315 -6.1597552 1.4393613
8.9599094 -5.5899158 1.2805963
13.529941 -10.665475 1.9479845
14.207542 -10.376374 1.8183987
14.067086 -9.510623 1.5931631
8.9045696 -5.5614381 0.88676047
0 -0 0
9.2263603 -6.7428498 0.76122898
0 -0 0
8.9878731 -5.6176095 0.50391632
9.3316135 -7.3631215 0.4693169
9.2151661 -6.7415805 0.34166744
0 -0 0
8.996829 -5.6284499 0.11576758
9.4265175 -7.4401412 0.034164201
0 -0 -0
0 -0 -0
8.9965801 -5.6328831 -0.27220386
0 -0 -0
0 -0 -0
0 -0 -0
8.926569 -5.5920849 -0.65717596
8.1865072 -6.477212 -0.73692507
2.3686926 -1.7374489 -0.23532084
2.4185877 -1.6419586 -0.26197624
6.605145 -4.1405487 -0.77426142
3.6420474 -2.8832633 -0.49987102
2.3521876 -1.7269216 -0.34176007
2.4176571 -1.6422517 -0.36994588
3.2802377 -2.05739 -0.52882218
4.2595038 -3.3777664 -0.78763568
2.3244295 -1.7085408 -0.44550836
2.4056659 -1.6354567 -0.47828671
0 -0 -0
3.4485803 -2.7390242 -0.80534047
2.3648763 -1.7399879 -0.5656004
2.3674388 -1.6115841 -0.57975429
3.2346592 -2.0309274 -0.81322849
2.8577681 -2.2742505 -0.8099556
2.3407724 -1.7238909 -0.67323291
2.4047399 -1.6373445 -0.70312029
0 -0 -0
0 -0 -0
0 -0 -0
0 -0 -0
2.3002567 -1.4430183 -0.79713082
4.7847619 -3.8243873 1.8923637
5.1297894 -3.7877884 1.8939451
5.4660077 -3.72402 1.8944227
5.8106146 -3.6490648 1.8939413
5.5861044 -4.4591393 1.9083819
5.9809532 -4.4186997 1.9037528
6.40488 -4.3707204 1.9064492
6.8835125 -4.3342443 1.9159956
6.6275477 -5.290288 1.9258457
7.1548085 -5.2843943 1.9266826
7.7182407 -5.2713089 1.931324
8.4082489 -5.3027096 1.9544307
8.1118793 -6.4721084 1.9552062
8.8267002 -6.5227914 1.9546052
9.2517023 -6.3254828 1.886134
8.9665813 -5.6596384 1.6824415
0 -0 0
0 -0 0
9.1077662 -6.2340727 1.4436413
8.9824944 -5.6808701 1.288782
13.380374 -10.68134 1.9358503
14.173994 -10.485835 1.8223054
14.055285 -9.6288319 1.5984877
8.9477329 -5.665009 0.89450365
0 -0 0
9.1719818 -6.7898364 0.76016551
0 -0 0
8.9962673 -5.6999173 0.50633836
9.308116 -7.437706 0.47042155
9.1599751 -6.7878799 0.34115896
0 -0 0
9.0127907 -5.7156787 0.11642206
9.383812 -7.5003386 0.034175579
0 -0 -0
0 -0 -0
9.0175543 -5.7233353 -0.27389589
0 -0 -0
0 -0 -0
0 -0 -0
9.0108862 -5.7221918 -0.66595572
8.1489449 -6.5291929 -0.73713636
2.3635883 -1.7561117 -0.23587981
2.4002612 -1.651123 -0.26108363
8.9211979 -5.6689525 -1.0498091
3.6072209 -2.8918741 -0.49751714
2.3542991 -1.7508049 -0.34362125
2.4075348 -1.6570553 -0.36994588
3.2658796 -2.0764153 -0.52855152
4.2849979 -3.4410191 -0.79623908
2.3598793 -1.7570024 -0.45436054
2.3907099 -1.6468282 -0.47731325
0 -0 -0
3.5275238 -2.8371968 -0.82782596
2.3636034 -1.7615069 -0.56787032
2.3792896 -1.6411054 -0.58511132
3.2188363 -2.0486362 -0.81239545
2.8817677 -2.3223727 -0.82078099
2.3301506 -1.738221 -0.67323291
2.3978486 -1.6542768 -0.70406002
2.4773412 -1.575495 -0.74120241
0 -0 -0
0 -0 -0
0 -0 -0
2.2921689 -1.4576201 -0.79741251
4.7649193 -3.8566797 1.8938396
5.0788155 -3.7985237 1.8836951
5.4296055 -3.7482045 1.8897418
5.788115 -3.6846495 1.8939413
5.550374 -4.48665 1.9055444
5.9599328 -4.4599586 1.9057368
6.3723497 -4.4060717 1.9047778
6.8461223 -4.3695917 1.9130152
6.5881371 -5.3253369 1.9238526
7.1480746 -5.3475161 1.9336687
7.7099099 -5.3352857 1.9373949
8.292881 -5.301352 1.9351391
8.0735435 -6.5229955 1.9555764
8.7928162 -6.5815473 1.9560078
0 -0 0
8.9899216 -5.7518101 1.6934114
0 -0 0
9.1223164 -6.8353901 1.6012259
9.0668983 -6.2881441 1.4432522
8.9792261 -5.7562375 1.2933564
13.220306 -10.687029 1.9221431
9.2345848 -6.9197645 1.1926976
14.072822 -9.7682581 1.6072686
8.9765396 -5.7607069 0.90090019
0 -0 0
9.2147675 -6.9094362 0.76721084
0 -0 0
9.0191164 -5.792254 0.50961518
9.2825003 -7.5110216 0.47144729
9.2436619 -6.9381618 0.34585491
0 -0 0
9.0440016 -5.8135881 0.11728381
9.3073006 -7.5332394 0.034064628
9.2490368 -6.9474978 -0.078942172
0 -0 -0
9.0243025 -5.8056006 -0.27517766
0 -0 -0
0 -0 -0
2.0311525 -1.4151803 -0.13086422
8.9957476 -5.7903385 -0.66745013
8.3604803 -6.7833309 -0.76002222
0 -0 -0
2.3859992 -1.6629721 -0.26063734
8.8962851 -5.7300515 -1.0509951
3.5770583 -2.9039266 -0.49580526
3.7540619 -2.8276947 -0.55044544
2.4005771 -1.6740663 -0.37044817
3.2447491 -2.091048 -0.52719837
4.2492142 -3.4553831 -0.79351473
4.1433935 -3.1245816 -0.80142671
2.3821785 -1.6625959 -0.47763774
0 -0 -0
3.3956404 -2.7656069 -0.80084336
3.3183031 -2.5048251 -0.80092043
2.3852429 -1.6669023 -0.58907956
3.1840141 -2.0540321 -0.80677259
2.8659511 -2.3387768 -0.82034802
2.7422884 -2.0719738 -0.79596704
2.3844662 -1.666731 -0.70312029
2.5059295 -1.615356 -0.75270718
0 -0 -0
0 -0 -0
0 -0 -0
0 -0 -0
4.764812 -3.9052248 1.9032851
5.0546489 -3.8290365 1.8834105
5.4002023 -3.7770414 1.887539
5.7653975 -3.7200952 1.8939413
5.5047965 -4.5059347 1.8993534
5.9262786 -4.4917626 1.9037528
6.3579202 -4.4540033 1.9085979
6.8150959 -4.4088726 1.9118689
6.5515642 -5.3625722 1.9227452
7.1081166 -5.3859625 1.9317633
7.665 -5.3740592 1.9343593
8.2873707 -5.3697438 1.9415053
8.0288038 -6.5686774 1.9544656
8.73736 -6.624074 1.9526765
0 -0 0
8.9702044 -5.8170729 1.6963888
0 -0 0
9.1235895 -6.9241614 1.6088766
9.0946722 -6.3904052 1.4538873
8.957056 -5.8198786 1.2952825
13.116805 -10.737103 1.9166377
9.1911592 -6.9756951 1.1925949
14.173871 -9.9678249 1.6257645
9.0162001 -5.8645759 0.90847504
0 -0 0
9.1618681 -6.9580021 0.76634681
0 -0 0
9.0210781 -5.8720064 0.51175219
9.2887964 -7.6108999 0.47413
9.2088728 -7.0007987 0.34615403
0 -0 0
9.0466986 -5.8940802 0.11778557
0 -0 0
9.1831541 -6.9865589 -0.07874427
0 -0 -0
9.0421028 -5.8958082 -0.27681836
0 -0 -0
0 -0 -0
2.0191677 -1.425313 -0.13065307
9.0193987 -5.8841453 -0.67187119
8.7164087 -7.161252 -0.79635799
7.4235535 -5.6582913 -0.74772459
2.3692417 -1.672985 -0.25992328
4.0738416 -2.6594477 -0.48319682
3.5138574 -2.8885689 -0.48949268
3.7469063 -2.8585074 -0.55195767
2.3853986 -1.6853298 -0.36969474
3.1920402 -2.0849109 -0.52070314
4.1790371 -3.4411287 -0.78433776
4.0675945 -3.1067553 -0.79043782
2.3477616 -1.6600903 -0.47277048
3.7647505 -2.4598258 -0.78430694
3.4256587 -2.8251946 -0.81199622
3.3184729 -2.5370667 -0.80470365
2.3789699 -1.6843383 -0.59007162
3.1500669 -2.0596139 -0.80135804
2.740164 -2.2642791 -0.78830487
2.7341654 -2.0923135 -0.79732072
2.3852999 -1.6891952 -0.70640922
2.4797366 -1.6200955 -0.74781156
0 -0 -0
0 -0 -0
0.5732227 -0.40616384 -0.19835998
0 -0 -0
4.7135568 -3.9118111 1.8923637
5.0325799 -3.861146 1.8839798
5.3777099 -3.8106611 1.8878143
5.7424631 -3.7554011 1.8939413
5.4785328 -4.5408597 1.8998692
5.90168 -4.5304003 1.9047447
6.3288875 -4.491807 1.9081205
6.7773328 -4.4436679 1.9088883
6.5005174 -5.3877363 1.9174302
7.0602045 -5.4181709 1.9277412
7.6390672 -5.4260941 1.9361807
8.2468853 -5.4156456 1.9397691
7.9815373 -6.6121755 1.9527993
8.7020178 -6.6817579 1.9539038
0 -0 0
8.9425955 -5.8774276 1.6979558
0 -0 0
9.1209736 -7.0107903 1.6159708
0 -0 0
8.8556786 -5.8315964 1.2857726
12.945104 -10.729877 1.9011331
13.757766 -10.575219 1.7935188
14.191098 -10.110644 1.6348256
8.982542 -5.9214334 0.90872753
0 -0 0
0 -0 0
0 -0 0
8.9890461 -5.9299979 0.51198965
9.2849865 -7.7034807 0.47633928
9.2433586 -7.116931 0.34908524
0 -0 0
9.036231 -5.9665594 0.11812373
9.2887974 -7.7088332 0.034340583
0 -0 -0
0 -0 -0
8.9865742 -5.9385023 -0.27622876
0 -0 -0
0 -0 -0
1.9852035 -1.4196683 -0.12901659
2.4385142 -1.6122737 -0.18238282
8.1876545 -6.8114138 -0.7518537
7.3729143 -5.6915531 -0.74612761
2.3637924 -1.6909678 -0.26045883
2.4341359 -1.6104169 -0.28987855
3.476963 -2.8941731 -0.48681787
3.7206509 -2.8747642 -0.55067807
2.3774328 -1.7016667 -0.37007144
2.4438763 -1.6177198 -0.40027022
4.1905293 -3.4939582 -0.79050356
4.0953574 -3.1679361 -0.79959518
2.3640029 -1.6934273 -0.47812444
2.4427755 -1.6175431 -0.51095927
3.4022186 -2.8411164 -0.81055707
3.2259789 -2.4978647 -0.78597647
2.3701828 -1.7000461 -0.59046841
2.4500511 -1.6234682 -0.62580061
2.8699801 -2.401336 -0.82987434
2.7867281 -2.1597779 -0.81649798
2.3693619 -1.699833 -0.70476478
0 -0 -0
0 -0 -0
0 -0 -0
0 -0 -0
0.59603965 -0.39462227 -0.20984541
4.6945858 -3.944962 1.8944298
5.0080366 -3.8913646 1.8836951
5.3862457 -3.8665717 1.8991038
5.7426133 -3.8060088 1.9016575
5.4542675 -4.5774951 1.901159
5.8791242 -4.5706892 1.9064808
6.2751889 -4.5118484 1.9002416
6.7483182 -4.4840918 1.9084297
6.4583735 -5.4199991 1.9147727
7.0160227 -5.4529924 1.9247772
7.6135778 -5.4785838 1.9382042
8.2135 -5.4661455 1.9397691
7.9453325 -6.664814 1.9539101
8.6546383 -6.7301922 1.9525013
0 -0 0
8.9556847 -5.9650378 1.7073585
0 -0 0
9.2840796 -7.2272148 1.6526943
9.1643515 -6.6088247 1.477881
8.8007383 -5.8731499 1.2830039
12.818893 -10.75864 1.8922571
13.643167 -10.62094 1.7870417
14.165929 -10.224333 1.6391225
9.0197821 -6.0257015 0.91621822
9.4617109 -7.9435577 0.94235545
0 -0 0
0 -0 0
8.9807253 -6.0039172 0.51360428
9.2643213 -7.7828031 0.47772008
9.325634 -7.2718563 0.35387093
0 -0 0
9.0418339 -6.0502524 0.11868004
9.312521 -7.8255134 0.034605157
0 -0 -0
0 -0 -0
8.9690714 -6.0063248 -0.27681836
0 -0 -0
0 -0 -0
2.0176988 -1.461701 -0.13170885
2.4269173 -1.6260946 -0.18225828
8.6423683 -7.2798862 -0.79769588
7.2993727 -5.7066016 -0.74221486
2.3654697 -1.7142067 -0.2617977
2.4068518 -1.613685 -0.28780305
3.455338 -2.9122488 -0.48628289
3.6677425 -2.8699963 -0.54544348
2.3701596 -1.718552 -0.37057376
2.4339042 -1.6326847 -0.40027022
4.0389423 -3.4097967 -0.76584059
4.0657287 -3.185082 -0.79761112
2.3839159 -1.7299232 -0.48428962
2.4426208 -1.6390882 -0.51302093
3.3847218 -2.8619385 -0.81055707
3.2847714 -2.5757806 -0.80413622
2.3644645 -1.718014 -0.59165889
2.4156837 -1.6221133 -0.61955303
0 -0 -0
2.7749562 -2.1780393 -0.81694919
2.3769722 -1.7274824 -0.710168
2.4161921 -1.6212313 -0.73459333
0 -0 -0
0 -0 -0
0 -0 -0
0 -0 -0
4.6753855 -3.9780273 1.8964961
4.9855723 -3.9232059 1.8842647
5.3087721 -3.8605359 1.8801045
5.6839423 -3.8175251 1.88995
5.4238696 -4.6089993 1.9003853
5.8494463 -4.6054783 1.9059849
6.2520957 -4.5536976 1.901674
6.7505503 -4.5455294 1.9169127
6.4383712 -5.470891 1.918759
6.9586248 -5.477201 1.9182146
7.5782361 -5.5240431 1.9377995
8.1586542 -5.5021753 1.9347533
7.9027905 -6.7121677 1.9535398
8.6224613 -6.7904787 1.9546052
0 -0 0
10.205793 -6.888463 1.9537071
9.4326172 -8.0129299 1.8625125
9.2333384 -7.27914 1.6515814
9.1812763 -6.7070446 1.4872191
14.015198 -9.4778137 2.0516264
9.4505215 -8.0309792 1.4022837
13.54806 -10.681052 1.7831351
14.266082 -10.430348 1.6580853
0 -0 0
9.442421 -8.0266504 0.94532174
0 -0 0
9.2472506 -6.7644019 0.65560573
0 -0 0
9.2483597 -7.866693 0.47937709
9.3263378 -7.3648701 0.35560575
9.2271442 -6.756866 0.23516902
8.9970913 -6.1005678 0.11858187
4.3671217 -3.7157426 0.016312558
9.4523382 -7.4699969 -0.082217775
0 -0 -0
0 -0 -0
0 -0 -0
0 -0 -0
1.9853444 -1.4569206 -0.13017796
2.4061596 -1.6336671 -0.1814488
8.3895817 -7.1554141 -0.77840137
7.2884474 -5.7704635 -0.74469024
2.354104 -1.7280993 -0.26170847
2.3944356 -1.6267452 -0.28750655
3.4366474 -2.9327502 -0.48617589
3.6329381 -2.8788764 -0.54288435
2.3667662 -1.738348 -0.37170392
2.4033549 -1.6336632 -0.39688727
4.0833931 -3.4904604 -0.77831548
4.0073972 -3.1792572 -0.78997988
2.4138045 -1.7743241 -0.49256393
2.4178541 -1.6440742 -0.50992841
3.3312297 -2.8519456 -0.80192268
3.2619839 -2.5903912 -0.80243367
2.3507211 -1.7301658 -0.59086525
2.4048767 -1.636355 -0.61934483
0 -0 -0
2.6646838 -2.1180384 -0.78829616
2.3663278 -1.7420347 -0.710168
2.3957756 -1.6289392 -0.73141116
0 -0 -0
0 -0 -0
0 -0 -0
0.57448876 -0.39057794 -0.20393029
4.6422024 -3.9991567 1.892954
4.9898939 -3.9764247 1.8950839
5.3159451 -3.9158435 1.8911185
5.6795373 -3.865346 1.8963358
5.4159937 -4.6598363 1.907608
5.8165326 -4.6376595 1.9044968
6.2177858 -4.5873618 1.8997641
6.7241411 -4.5879622 1.9173714
6.4009848 -5.507113 1.9176517
6.9462852 -5.5368519 1.9241422
7.5308051 -5.5605493 1.9343593
8.1215 -5.5499182 1.9339817
7.8599668 -6.7592506 1.9531696
8.5760145 -6.8395739 1.9535532
0 -0 0
10.217954 -6.9883103 1.9642066
9.3765259 -8.0648537 1.8611732
9.2929764 -7.4190669 1.6703604
9.1981363 -6.8063092 1.4966868
14.046041 -9.6247959 2.0647478
12.467465 -10.727191 1.8596745
13.444955 -10.734191 1.7782001
14.185012 -10.505243 1.6561236
0 -0 0
9.4096184 -8.0987463 0.94699496
0 -0 0
9.1799011 -6.8019943 0.65377754
0 -0 0
9.2529163 -7.9689364 0.48213869
9.2903395 -7.4294481 0.35596466
9.140543 -6.7800007 0.23401776
0 -0 0
4.3116622 -3.7144036 0.016190229
9.3485508 -7.4816184 -0.08171279
0 -0 -0
0 -0 -0
0 -0 -0
0 -0 -0
0 -0 -0
2.38869 -1.6433092 -0.1808884
8.5637064 -7.3951726 -0.79875219
7.2723465 -5.8306646 -0.74668658
2.3482521 -1.7460772 -0.26224402
2.3819501 -1.6397138 -0.28721005
3.3899992 -2.9290805 -0.48211014
3.5966139 -2.8861945 -0.54009259
2.3807304 -1.7711951 -0.37559679
2.3981817 -1.6517513 -0.39769918
4.3215675 -3.7401845 -0.82807142
3.9924369 -3.2075 -0.79089564
2.3989146 -1.786155 -0.49175271
2.376894 -1.6376399 -0.50339961
3.3077214 -2.8671777 -0.80048358
3.212359 -2.583282 -0.79411054
2.3714919 -1.7679896 -0.59880161
2.3972065 -1.6527458 -0.61996955
0 -0 -0
0 -0 -0
2.3555942 -1.7565215 -0.710168
2.3889291 -1.6458089 -0.73239022
0 -0 -0
0 -0 -0
0 -0 -0
0 -0 -0
4.6110964 -4.0219135 1.8902974
4.9646554 -4.0063653 1.8947991
5.2871947 -3.9449384 1.8894664
5.6485715 -3.8951972 1.8939413
5.3683586 -4.6764803 1.9009011
5.7532949 -4.6452675 1.8930881
6.2120795 -4.6422853 1.906688
6.6766477 -4.6158495 1.9118689
6.382515 -5.5597358 1.9223024
6.9319539 -5.5953298 1.9296464
7.4879184 -5.6002011 1.9321334
8.0953608 -5.6052322 1.9359109
7.8168626 -6.8060608 1.9527993
8.5246954 -6.884644 1.9514492
9.1854935 -6.8770666 1.9311092
10.207353 -7.0733767 1.9704751
0 -0 0
0 -0 0
9.193491 -6.8905697 1.5027825
14.10496 -9.7928925 2.0822027
12.447863 -10.843955 1.8666404
13.235735 -10.70079 1.7591802
9.2189245 -6.9154139 1.0812585
0 -0 0
9.3800449 -8.1740179 0.94904852
9.3730974 -7.5828066 0.8031022
9.2489834 -6.9414935 0.66171843
0 -0 0
9.2030916 -8.0249043 0.48209921
9.2461319 -7.4875708 0.3560245
9.2466459 -6.9470587 0.23782109
0 -0 0
4.2609062 -3.7164688 0.016084969
0 -0 -0
9.2494078 -6.9549441 -0.18624003
0 -0 -0
0 -0 -0
0 -0 -0
1.9800807 -1.4907843 -0.13102259
2.3744681 -1.6550814 -0.18057705
8.1839914 -7.1554017 -0.76741618
7.2426238 -5.8802032 -0.7473253
9.0921993 -6.8476701 -1.020056
2.3816385 -1.6611296 -0.28839606
3.3659763 -2.9445889 -0.48125422
3.5572546 -2.8906703 -0.53683549
4.9210758 -3.7082632 -0.77995044
2.3855639 -1.6647341 -0.39729321
4.0677929 -3.5644393 -0.78362083
3.9688478 -3.2288184 -0.79013252
3.8154564 -2.877424 -0.78573358
2.365993 -1.6516296 -0.50322783
3.2434878 -2.8465412 -0.78915089
3.1918793 -2.5992236 -0.79297554
3.0098031 -2.2727268 -0.76348203
2.3846149 -1.6657434 -0.61934483
0 -0 -0
0 -0 -0
2.6938117 -2.0345621 -0.81588262
2.3549342 -1.6437874 -0.72504675
0 -0 -0
0 -0 -0
0 -0 -0
0 -0 -0
4.5734406 -4.0387468 1.8849843
4.9377522 -4.0349326 1.8939451
5.2598214 -3.9749873 1.888365
5.626935 -3.9314389 1.8947394
5.344635 -4.7138057 1.9027069
5.7231841 -4.679255 1.8925921
6.1919951 -4.6867609 1.9093142
6.6394291 -4.6505871 1.9093468
6.3475499 -5.5981488 1.922081
6.8914375 -5.6328096 1.9279528
7.4510732 -5.6442666 1.9315263
8.0696507 -5.6609974 1.9380329
7.7705307 -6.8499966 1.9516883
8.4845781 -6.9386907 1.9519752
9.141552 -6.9321065 1.9307773
10.215491 -7.1721954 1.9805045
0 -0 0
0 -0 0
9.1249762 -6.9270654 1.4985026
14.068967 -9.89639 2.0858142
12.295391 -10.844543 1.8537198
13.102097 -10.726353 1.7501329
9.1810751 -6.9754634 1.0818189
0 -0 0
9.2900858 -8.196456 0.94501746
0 -0 0
9.1847572 -6.9818015 0.66017598
0 -0 0
9.2750292 -8.1883554 0.4884904
9.2409792 -7.577754 0.35760972
9.1966848 -6.9982152 0.23763607
0 -0 0
4.2207818 -3.7273188 0.016019536
9.4121838 -7.7239161 -0.083091274
9.2001963 -7.0067205 -0.18611132
0 -0 -0
0 -0 -0
0 -0 -0
2.0820668 -1.587679 -0.13841307
2.3504083 -1.6598322 -0.17951849
0 -0 -0
7.2187271 -5.9346609 -0.74860293
3.9073117 -2.980489 -0.44040567
2.3844039 -1.6849 -0.2899774
3.3619869 -2.9777119 -0.4832871
3.5455861 -2.9174914 -0.5377661
4.8840342 -3.7275541 -0.77769005
2.3672142 -1.6736205 -0.39594004
4.054729 -3.5972133 -0.7853415
3.9321802 -3.2392857 -0.78677481
3.8283114 -2.9241407 -0.79206097
2.3887908 -1.6894381 -0.51027197
3.2502272 -2.8879509 -0.79508704
3.2773893 -2.7024701 -0.81832349
3.0067008 -2.2994876 -0.76625973
2.3823328 -1.6859938 -0.62142736
0 -0 -0
0 -0 -0
2.6666088 -2.0398321 -0.81141919
2.3614278 -1.6699624 -0.73018718
0 -0 -0
0 -0 -0
0 -0 -0
0 -0 -0
4.5464363 -4.0648227 1.8840988
4.9247184 -4.0749321 1.8985004
5.2376227 -4.0089393 1.8891912
5.5909042 -3.9575372 1.8907483
5.3040805 -4.7362146 1.8985794
5.6966033 -4.7161369 1.8933361
6.129982 -4.6992617 1.8990479
6.6099753 -4.6906753 1.9091177
6.3021698 -5.6272488 1.918759
6.8341584 -5.6562943 1.9216018
7.4178548 -5.691072 1.9319311
8.027566 -5.7052894 1.9362967
7.7254214 -6.8949294 1.9509478
8.4448757 -6.9931321 1.9526765
9.2333651 -7.0913811 1.9593223
10.279943 -7.3120236 2.0016603
0 -0 0
0 -0 0
0 -0 0
14.140564 -10.077014 2.1055565
12.213055 -10.905883 1.8513603
12.916572 -10.707512 1.7340946
13.788032 -10.609735 1.6323034
0 -0 0
9.1964874 -8.2147779 0.94060612
0 -0 0
0 -0 0
0 -0 0
9.2000265 -8.2231369 0.48718849
9.1935406 -7.6336751 0.35757983
0 -0 0
0 -0 0
9.160533 -8.1901379 0.034957919
9.2923183 -7.7214484 -0.082449801
9.4404659 -7.2816606 -0.19187197
0 -0 -0
0 -0 -0
0 -0 -0
1.9300237 -1.4905554 -0.12891102
2.3434265 -1.6765457 -0.17976756
4.3166952 -3.8686464 -0.40919942
7.1185913 -5.92591 -0.74197537
3.8645163 -2.9855316 -0.43763867
2.3659291 -1.6937062 -0.28898904
3.2511232 -2.9153123 -0.46991298
3.4948068 -2.9118536 -0.5327642
4.8540063 -3.7519915 -0.77655989
2.377038 -1.7025374 -0.39932302
4.0635042 -3.6498001 -0.79136384
3.9858456 -3.3247576 -0.8015793
3.7861023 -2.928859 -0.78703147
2.369571 -1.6977524 -0.50838208
3.2536545 -2.9269183 -0.80030376
3.1898928 -2.6633708 -0.80054212
3.0405765 -2.3551042 -0.77856117
2.3624043 -1.693741 -0.61892831
0 -0 -0
0 -0 -0
2.6071701 -2.0198424 -0.79708892
2.3645358 -1.6940199 -0.73434854
0 -0 -0
0 -0 -0
0 -0 -0
0 -0 -0
4.5348682 -4.104825 1.8897071
4.8834572 -4.0915289 1.8922367
5.2167244 -4.0439458 1.8905678
5.550849 -3.9805329 1.8854268
5.2734866 -4.767375 1.8980635
5.6727552 -4.7553582 1.8950722
6.0956635 -4.7326174 1.8973765
6.5723753 -4.7248945 1.9065956
6.2566714 -5.6560025 1.915437
6.8000717 -5.6987491 1.9218134
7.3843417 -5.7376814 1.9323359
7.9876294 -5.750998 1.9351391
7.6618237 -6.9230952 1.9455783
8.3920012 -7.0365944 1.9503973
9.2005768 -7.1563787 1.9616458
0 -0 0
0 -0 0
0 -0 0
0 -0 0
13.987513 -10.097927 2.0919535
12.096522 -10.935968 1.8438327
12.838439 -10.776334 1.7324498
13.588383 -10.589484 1.6163297
0 -0 0
9.1000576 -8.2295866 0.9358905
9.4603844 -7.9459286 0.82297546
0 -0 0
0 -0 0
9.1145744 -8.247921 0.48533428
9.2008486 -7.7356119 0.35970348
0 -0 0
0 -0 0
9.0982447 -8.2354546 0.034912404
9.2746067 -7.8034272 -0.082715943
9.4200354 -7.3585305 -0.1923708
0 -0 -0
0 -0 -0
0 -0 -0
1.9090426 -1.4931414 -0.12811919
2.3573394 -1.7084639 -0.1816356
4.2625875 -3.8675785 -0.40631229
7.0615172 -5.9521317 -0.73981935
3.7818003 -2.9588604 -0.43031937
2.357909 -1.709944 -0.28928554
3.204464 -2.909142 -0.46574023
3.4487858 -2.9095459 -0.5284602
4.8332367 -3.7835388 -0.77693659
2.3569233 -1.7101082 -0.39769918
3.9971006 -3.6347153 -0.7827605
3.9578197 -3.3427746 -0.80005306
3.7121332 -2.9082198 -0.77535015
2.3551228 -1.7093666 -0.50752306
3.2450886 -2.9554379 -0.80264223
3.2019856 -2.7069836 -0.80773026
3.1664214 -2.4838123 -0.81467187
2.3123984 -1.6794662 -0.60851562
0 -0 -0
0 -0 -0
0 -0 -0
2.3760686 -1.7244425 -0.74120241
0 -0 -0
0 -0 -0
0 -0 -0
0 -0 -0
4.4940991 -4.1183715 1.8832132
4.8377919 -4.1040525 1.8842647
5.1555176 -4.0473847 1.8773509
5.5723343 -4.0479436 1.9011253
5.2541132 -4.8087749 1.901675
5.641993 -4.7888227 1.8945762
6.0565863 -4.7621279 1.8942727
6.5432606 -4.7651329 1.9065956
6.2477469 -5.717988 1.9234097
6.7701936 -5.7447925 1.9232953
7.3359137 -5.7725873 1.9288957
7.9537778 -5.8010578 1.9355251
7.6366024 -6.9858966 1.950022
8.3396606 -7.080308 1.9482933
9.137126 -7.1974425 1.9574969
0 -0 0
0 -0 0
9.4043598 -7.9924235 1.7336528
9.3112574 -7.3425121 1.5510292
0 -0 0
11.972018 -10.957655 1.8350691
9.399992 -7.9889936 1.2750484
13.480947 -10.639354 1.6112853
0 -0 0
9.0096779 -8.248909 0.93178344
9.4616175 -8.0464897 0.82736212
0 -0 0
9.2496901 -6.77595 0.54513764
9.02843 -8.2712927 0.48344058
9.2308445 -7.8580093 0.36275434
0 -0 0
9.2551327 -6.7858958 0.12519217
9.0320597 -8.2769375 0.034852661
4.3601751 -3.7144756 -0.039088931
9.3966637 -7.4335618 -0.19282135
0 -0 -0
0 -0 -0
0 -0 -0
1.9554235 -1.5488496 -0.13186722
2.3637073 -1.7352996 -0.18294324
4.199841 -3.8578954 -0.40258014
6.9816446 -5.9584637 -0.73526782
3.7573285 -2.977061 -0.42960531
2.3489766 -1.7255579 -0.28948322
3.1887498 -2.930768 -0.46606126
3.4467273 -2.9441993 -0.53090298
4.8231463 -3.8236012 -0.77907139
2.377522 -1.7474221 -0.40297657
4.0519023 -3.7302244 -0.79795969
3.9462476 -3.3747044 -0.80188453
3.7599249 -2.9830725 -0.78914064
2.3533206 -1.7302041 -0.50941294
3.2334018 -2.9812949 -0.80426115
3.1584606 -2.7035921 -0.80092043
3.1526563 -2.5044136 -0.81506866
2.3611374 -1.7370942 -0.62413466
0 -0 -0
0 -0 -0
0 -0 -0
2.3638806 -1.7378408 -0.74071288
0 -0 -0
0 -0 -0
0 -0 -0
0 -0 -0
4.4883566 -4.1640644 1.8914782
4.7972474 -4.1205425 1.8782855
5.1659536 -4.1070604 1.8902924
5.4961491 -4.0443516 1.8835642
5.2280517 -4.8442063 1.9029647
5.6022172 -4.8145113 1.891104
6.0264926 -4.7985959 1.894034
6.527215 -4.8150153 1.9104931
6.2196975 -5.7628436 1.9256244
6.7377825 -5.7887735 1.9241422
7.2873354 -5.8071156 1.9254556
7.9401307 -5.8660774 1.9409267
7.5971994 -7.0359612 1.9509478
8.2938204 -7.1294203 1.9477673
9.0681219 -7.2336926 1.9521861
0 -0 0
9.6239519 -8.9145489 1.9741203
10.666499 -9.1783829 1.9766675
9.3249159 -7.4465308 1.5608861
0 -0 0
11.895812 -11.022803 1.8337209
9.3651209 -8.0588484 1.2770017
13.356302 -10.674629 1.6041859
0 -0 0
8.9954576 -8.3379269 0.93558633
9.396944 -8.0913725 0.82603282
9.3958397 -7.5131097 0.68839741
9.1790628 -6.8111496 0.543428
8.9738445 -8.3231363 0.48324332
9.2566538 -7.9784541 0.36568558
9.2891121 -7.4354796 0.24466708
9.1779995 -6.8163238 0.12471221
9.0074949 -8.3566866 0.034955077
4.3251863 -3.7307093 -0.038979743
0 -0 -0
9.2901707 -6.9049158 -0.29684016
0 -0 -0
0 -0 -0
1.9045974 -1.5277028 -0.12906939
2.3281875 -1.7313077 -0.18101293
4.2067699 -3.9121232 -0.40553766
6.9381647 -5.9953246 -0.73454916
3.7420986 -3.002553 -0.42996237
2.3263693 -1.7310278 -0.2880007
3.170707 -2.9502788 -0.46606126
3.4331045 -2.9691911 -0.53160089
4.7895374 -3.8450496 -0.77743888
2.373908 -1.7673024 -0.40419444
4.0043225 -3.7320745 -0.7930845
3.9217308 -3.3956199 -0.80112141
3.7507811 -3.0135033 -0.79108751
2.3845356 -1.7757964 -0.51851881
3.1956327 -2.9829555 -0.79940432
3.1685257 -2.746073 -0.80773026
3.1456304 -2.5304685 -0.81725109
2.3433759 -1.7462891 -0.62226033
0 -0 -0
0 -0 -0
0 -0 -0
2.1385412 -1.592485 -0.67315286
0 -0 -0
0 -0 -0
