# .PCD v0.7 - Point Cloud Data file format
VERSION 0.7
FIELDS x y z
SIZE 4 4 4
TYPE F F F
COUNT 1 1 1
WIDTH 1536
HEIGHT 1
VIEWPOINT 0 0 0 1 0 0 0
POINTS 1536
DATA ascii
0.162232 2.3428683 -0.34026209
0.077573799 2.3834684 -0.36828083
-0.010353041 2.4323196 -0.39992428
-0.043989699 1.0728906 -0.18727154
0.16420823 2.3452723 -0.42992264
0.075048968 2.2729473 -0.43810385
-0.0036088023 0.9899137 -0.20039417
-0 0 -0
0.15400799 2.1696949 -0.48237935
0.073395722 2.192708 -0.50808328
-0 0 -0
-0 0 -0
0.15776373 2.1933353 -0.57525676
0 0 -0
-0 0 -0
-0 0 -0
0.16699994 2.284101 0.70753324
0.081168793 2.3376029 0.69471222
-0.0077369963 2.3793125 0.68149656
-0.096952647 2.3886333 0.65987271
0.16804969 2.3184886 0.62064976
0.08230757 2.3526392 0.60267311
-0.0059824693 2.391763 0.5880506
-0.091894284 2.3323154 0.54978549
0.16788499 2.316777 0.52752584
0.081990249 2.3529713 0.50998551
-0.0050738463 2.3963692 0.49517494
-0.092584074 2.3933568 0.47090769
0.16652943 2.3053267 0.43547773
0.082556359 2.3515286 0.41904435
-0.0038608173 2.3962989 0.40328249
-0.090791576 2.3705845 0.37641811
0.16820304 2.3256707 0.3508952
0.0834971 2.3444819 0.32953733
-0.0026021127 2.3926182 0.31295538
-0.090362504 2.4156032 0.2931239
0.16885301 2.3290079 0.26403064
0.084159099 2.3619108 0.24427633
-0.0016429335 2.3944836 0.22465891
-0.089295961 2.4187338 0.20443633
0.16864772 2.3211207 0.17751877
0.084806219 2.3592446 0.1572573
-0.0010572327 2.3930852 0.13693681
-0.088416614 2.4166515 0.11497328
0.1706094 2.3379571 0.092553586
0.086293079 2.3683677 0.070917755
0.00015487941 2.4064913 0.049484383
-0.087967679 2.432265 0.026550295
0.17033914 2.329772 0.0066456469
0.08620514 2.3423598 -0.015995888
0.0011158758 2.3956897 -0.038554616
-0.087160058 2.4346395 -0.062475123
0.17109433 2.3233728 -0.078911155
0.087689273 2.3591597 -0.10220736
0.002590033 2.4056399 -0.12716898
-0.086531974 2.4337273 -0.15193379
0.17119664 2.303899 -0.16308826
0.089136608 2.3647401 -0.18956622
0.0029638773 2.4023707 -0.21529359
-0.085625902 2.428535 -0.24135134
0.17224018 2.3092165 -0.24918653
0.090297312 2.3680813 -0.27754921
0.0036216874 2.4216747 -0.30653018
-0.085566334 2.4438026 -0.33396447
0.17444625 2.3132098 -0.3361038
0.091814943 2.3730719 -0.36675459
0.0045697326 2.4313507 -0.39976203
-0.040322699 1.1568257 -0.20187528
0.17792292 2.335393 -0.42830369
0.092145003 2.3529017 -0.45361528
0.0051111472 2.0523632 -0.41547072
-0 0 -0
0.16619161 2.1541083 -0.4791317
0.046663739 1.1778783 -0.27299324
0 0 -0
-0 0 -0
0.17189676 2.2010064 -0.5775345
0 0 -0
0 0 -0
-0.02672636 0.76522309 -0.224774
0.18108729 2.2839856 0.7078284
0.095158242 2.3284407 0.69214982
0.0068152016 2.3629725 0.67681557
-0.081000306 2.3516114 0.64949572
0.18204524 2.3145244 0.61987591
0.096184187 2.3385386 0.59920096
0.0086720474 2.3859282 0.58661807
-0.079781719 2.3989875 0.56537575
0.18255597 2.3215361 0.52885461
0.09650632 2.3543768 0.51040888
0.0096143521 2.3924379 0.49436551
-0.077865049 2.3928988 0.47071472
0.18136287 2.3130789 0.4371441
0.09653715 2.3401575 0.41711572
0.010784663 2.3834579 0.40112501
-0.078085259 2.4283507 0.38550729
0.18130918 2.3098075 0.34866303
0.097880997 2.3439255 0.32953733
0.01203872 2.3846569 0.31191784
-0.075259738 2.407182 0.29204047
0.18314035 2.3279278 0.26403064
0.098774485 2.3643315 0.24458477
0.013130761 2.4093826 0.22606009
-0.073533662 2.3893569 0.20191139
0.18225983 2.3120902 0.17691033
0.099112831 2.3546922 0.15699144
0.013689015 2.4040287 0.13756523
-0.073465072 2.4131551 0.11478332
0.18416326 2.3269053 0.09215907
0.10078097 2.3667951 0.070887849
0.014902233 2.4034457 0.049422707
-0.073101945 2.4347579 0.026572112
0.18463114 2.3286829 0.0066456469
0.099932343 2.3268008 -0.015893526
0.015802328 2.3936379 -0.038522433
-0.071686327 2.4171424 -0.062013675
0.18534705 2.3222792 -0.078911155
0.10229286 2.3615716 -0.10233711
0.017480357 2.423553 -0.12811919
-0.071479909 2.430222 -0.15168472
0.18564996 2.3067825 -0.16336992
0.10390665 2.3701239 -0.19004534
0.01765311 2.3953354 -0.21466878
-0.070143856 2.409121 -0.23937467
0.13782361 1.7065591 -0.18424185
0.10447441 2.3595448 -0.2766186
0.018397454 2.4106941 -0.30514884
-0.067767628 2.3472233 -0.32070333
0.16867843 2.0674715 -0.30054334
0.10553303 2.3537054 -0.36385474
0.01932995 2.4115424 -0.39651719
-0.050782919 1.7685653 -0.30856854
0.16075948 1.9519137 -0.35814893
0.10658041 2.3522921 -0.45361528
0.019124502 2.2169471 -0.4488036
-0 0 -0
0.18564817 2.227962 -0.49580285
0.052999437 1.1581059 -0.26848096
0 0 -0
-0 0 -0
0.18450497 2.189306 -0.5747506
0 0 -0
0 0 -0
-0 0 -0
0.1950168 2.2818797 0.70753324
0.10926341 2.3239825 0.69101089
0.021235958 2.3542345 0.67433739
-0.067087717 2.3703718 0.65455115
0.19640681 2.3152893 0.62039185
0.11062288 2.3398399 0.59969699
0.023254739 2.3800039 0.58518559
-0.065165833 2.4033239 0.56629282
0.19613793 2.3125989 0.52708292
0.1099843 2.3332393 0.50596321
0.024164619 2.3796036 0.49173483
-0.062637269 2.3727334 0.46666351
0.19422702 2.2962551 0.43418166
0.11056797 2.3326373 0.4158884
0.025451133 2.3872912 0.40178886
-0.061385803 2.3596723 0.37453756
0.19539504 2.3076661 0.3485142
0.11259293 2.3502047 0.33051103
0.026692651 2.3865209 0.31217721
-0.060513061 2.4085908 0.29216084
0.19742081 2.3267603 0.26403064
0.11261325 2.349771 0.24314541
0.027833465 2.4022877 0.2254062
-0.059460413 2.4136705 0.20393135
0.19635864 2.3099346 0.17683426
0.1137514 2.3580263 0.1572573
0.028250633 2.3879266 0.13665117
-0.058923807 2.4245448 0.11530571
0.19784276 2.3187618 0.091882899
0.11530145 2.366132 0.070887849
0.029698554 2.4073081 0.049504947
-0.058208928 2.43716 0.026593929
0.1978092 2.3145535 0.0066086636
0.11494301 2.3411255 -0.015995888
0.030463647 2.3914964 -0.038490251
-0.056853674 2.4175367 -0.062013675
0.19890781 2.3131323 -0.078640334
0.11633704 2.3519187 -0.10194783
0.032257363 2.4164104 -0.12774967
-0.056218676 2.415648 -0.1507507
0.2001451 2.3095751 -0.1636516
0.11804937 2.3614771 -0.18940654
0.032309923 2.3921943 -0.21440099
-0.055909019 2.4333823 -0.24174666
0.1426086 1.6403068 -0.17718031
0.11840011 2.3479478 -0.27533904
0.033052269 2.4006159 -0.30389309
-0.055255447 2.4308009 -0.33207002
0.14225072 1.6207812 -0.2357315
0.11982213 2.3500524 -0.36339685
0.03415446 2.4133518 -0.39684168
-0.053981431 2.3912873 -0.41715166
0.12857386 1.4521446 -0.26658803
0.11969975 2.3260972 -0.44869703
0.030064924 2.0364656 -0.41229615
-0 0 -0
0.17825219 1.9914618 -0.44340792
0.11248117 2.1666629 -0.5024429
0.015837573 1.0652101 -0.25747406
-0 0 -0
0.20551753 2.2719581 -0.5967688
0 0 -0
0 0 -0
-0 0 -0
0.20918888 2.2825429 0.70812362
0.12341926 2.3213539 0.69044149
0.035637159 2.351176 0.67351133
-0.052563485 2.3717027 0.65481728
0.21034674 2.3111539 0.61961794
0.12430586 2.3265412 0.5964728
0.037595149 2.3633101 0.58112675
-0.050520152 2.4085443 0.5674392
0.21023571 2.3103809 0.52686149
0.12429872 2.3325205 0.50596321
0.03858966 2.3686397 0.4895089
-0.04807727 2.3730731 0.46666351
0.20902359 2.3028498 0.4356629
0.12482603 2.3309317 0.41571304
0.039833795 2.3713143 0.39913353
-0.046905968 2.3600047 0.37453756
0.20856671 2.2955909 0.34687731
0.12626301 2.3356259 0.3285636
0.040974934 2.3654928 0.30945361
-0.045733087 2.4089167 0.29216084
0.21088307 2.3165989 0.26301944
0.12665308 2.342083 0.24242574
0.042484887 2.3970945 0.22493914
-0.044280745 2.3940644 0.20224805
0.21070954 2.3106725 0.17698637
0.12805526 2.3542948 0.1570579
0.04295595 2.390703 0.13682257
-0.043773856 2.4098799 0.11459336
0.21315935 2.3294451 0.092356324
0.12811956 2.3344407 0.069960624
0.044395089 2.4030819 0.049422707
-0.043111764 2.4294729 0.026506662
0.21182477 2.3113043 0.0066029732
0.12869892 2.3293931 -0.015920823
0.045023799 2.3852663 -0.038393702
-0.042157836 2.4258361 -0.062218763
0.2131889 2.3128633 -0.078674182
0.13082142 2.3521581 -0.10199108
0.046636082 2.3932035 -0.12653551
-0.041463878 2.4199393 -0.15099978
0.21431261 2.3083034 -0.1636516
0.13125177 2.3378179 -0.18756996
0.04696798 2.390955 -0.21431172
-0.040893253 2.4287047 -0.2412525
0.13764328 1.4780346 -0.15974045
0.13201913 2.3332946 -0.27371049
0.047821041 2.4023519 -0.30414423
-0.040454358 2.4380288 -0.33301726
0.13302998 1.4159151 -0.20604998
0.13457781 2.3551931 -0.36431259
0.048901811 2.4101372 -0.39635494
-0.035891794 2.1837389 -0.3809
0.13664672 1.4425145 -0.26496905
0.13504326 2.3439448 -0.45229113
0.046307933 2.2155654 -0.44860521
-0 0 -0
0.12378574 1.2935205 -0.28817186
0.05732378 0.98716712 -0.22899847
0.021597566 1.0281644 -0.24854705
-0 0 -0
0.21898881 2.2658396 -0.59550339
0 0 -0
0 0 -0
-0.013301658 0.80587935 -0.2366042
0.22281823 2.2774129 0.70694292
0.13731988 2.3148115 0.68873316
0.050144903 2.3547575 0.67461276
-0.038040891 2.373908 0.65534937
0.2243368 2.3078964 0.619102
0.13886701 2.3305697 0.59771287
0.052095439 2.363035 0.58112675
-0.035350755 2.3825312 0.56124896
0.22393633 2.3041942 0.52575415
0.13837647 2.3278115 0.5051164
0.05305675 2.3654211 0.48890179
-0.033612449 2.3801911 0.46801391
0.22210647 2.2907643 0.4336262
0.13818716 2.3143976 0.41290772
0.05415703 2.3611665 0.39747393
-0.033306204 2.424439 0.38472375
0.22350793 2.3031261 0.34821662
0.14029415 2.3298647 0.32786807
0.055349015 2.3592491 0.30867544
-0.031015156 2.4141154 0.29276276
0.2242281 2.3063602 0.26200828
0.14090183 2.3392761 0.24222013
0.056883622 2.3838494 0.22372477
-0.029454757 2.3833311 0.20132224
0.22662313 2.3271992 0.17835541
0.14195578 2.344501 0.1564597
0.057503916 2.3854039 0.13653691
-0.028902199 2.4031117 0.11426093
0.2273514 2.3270991 0.092316873
0.14341538 2.3495734 0.070439182
0.058647279 2.3827746 0.049011536
-0.028180776 2.4276922 0.026484849
0.22610006 2.3109562 0.0066058179
0.14243776 2.3195767 -0.015859405
0.059658673 2.3849452 -0.038393702
-0.027036415 2.4050574 -0.061680406
0.22737636 2.3115118 -0.078674182
0.14451236 2.3393452 -0.10147205
0.061319627 2.3928723 -0.12653551
-0.026603654 2.4191499 -0.1509375
0.2298484 2.3208423 -0.16463745
0.14608972 2.3449275 -0.18820876
0.061355334 2.3796694 -0.21332988
-0.025830518 2.4139843 -0.23977
0.14857678 1.4959607 -0.16177332
0.14652005 2.3354144 -0.27405947
0.062224902 2.3891203 -0.30251175
-0.025349099 2.4243605 -0.33112279
0.15867783 1.5844476 -0.23071289
0.14796512 2.3375559 -0.361718
0.063532792 2.4038732 -0.39538151
-0.02476448 2.4045758 -0.41938519
0.14796461 1.4661168 -0.26946616
0.14967288 2.346992 -0.45304781
0.059769046 2.2103407 -0.44761315
-0 0 -0
0.14211147 1.3947182 -0.31090519
0.13706282 2.1340089 -0.49522328
0.031519376 1.1611295 -0.28073129
-0 0 -0
0.14569084 1.4166065 -0.37253761
0 0 -0
0 0 -0
-0 0 -0
0.23827098 2.2902575 0.71137053
0.15108225 2.3072293 0.68674016
0.06438157 2.3467178 0.67240995
-0.02335025 2.3615661 0.6518904
0.24038164 2.3247361 0.62400323
0.15284674 2.3248405 0.5964728
0.066402249 2.355876 0.57945549
-0.020849712 2.3963296 0.56445867
0.23656617 2.2882271 0.52243221
0.15233715 2.3220422 0.50405788
0.067122221 2.3493884 0.48566404
-0.019069914 2.388202 0.46955723
0.23787239 2.3059764 0.43677384
0.15245014 2.3144886 0.41308308
0.068500549 2.3558612 0.39664412
-0.018369444 2.4166965 0.38347006
0.2370261 2.2958095 0.34732375
0.15380025 2.3171027 0.32619882
0.069706708 2.3549006 0.30815667
-0.016188513 2.4122746 0.29252198
0.23776215 2.2990108 0.26133418
0.15525271 2.3383675 0.24222013
0.071181133 2.3725083 0.22269721
-0.014867556 2.3894453 0.20182721
0.24192557 2.3356829 0.17911598
0.15613946 2.3405991 0.15626031
0.071958289 2.3790185 0.13619414
-0.014179973 2.4072392 0.11445089
0.23914772 2.3018074 0.091370039
0.15762833 2.3456573 0.070349455
0.07271342 2.3643823 0.048641484
-0.013284206 2.4278195 0.026484849
0.24089643 2.3154933 0.0066228877
0.15734187 2.3286362 -0.015927646
0.074322432 2.3855336 -0.038409796
-0.012268545 2.4031787 -0.061629131
0.24051586 2.300133 -0.078335658
0.15852499 2.3334305 -0.10125577
0.075715497 2.3834682 -0.12606041
-0.011720718 2.4112833 -0.15043937
0.24324931 2.3114519 -0.16407411
0.15918157 2.3250918 -0.1866916
0.075923778 2.3782527 -0.21324062
-0.010895479 2.3872297 -0.2371015
0.15879636 1.5049087 -0.16284324
0.15982305 2.3196082 -0.27231461
0.076627776 2.3807609 -0.30150715
-0.010468747 2.4234798 -0.33098748
0.15363985 1.4446837 -0.21049504
0.16251075 2.3395617 -0.36217588
0.077992395 2.3945622 -0.39392135
-0 0 -0
0.15266185 1.4250796 -0.26209092
0.16194725 2.3156633 -0.4471837
0.075280599 2.2687075 -0.45951778
-0 0 -0
0.14458118 1.3375235 -0.29834771
0.071759373 1.0194309 -0.23666933
0.039936837 1.1997732 -0.29012814
-0 0 -0
0.23377278 2.1437254 -0.56412113
0 0 -0
0 0 -0
-0 0 -0
0.25221455 2.2878027 0.71107537
0.16407171 2.2900043 0.68189996
0.078811802 2.3472393 0.67268527
-0.0089752292 2.3925111 0.66040492
0.25474671 2.3241777 0.6242612
0.16627501 2.3122637 0.59349662
0.080889702 2.3563948 0.57969427
-0.0061656865 2.4041994 0.56629282
0.25070825 2.2877016 0.52265364
0.16637217 2.3181393 0.5034228
0.081264749 2.3411026 0.48404518
-0.0044394089 2.4010298 0.47206512
0.25223076 2.306427 0.4371441
0.16657797 2.3125277 0.41290772
0.082850419 2.3524399 0.39614624
-0.0035347396 2.4128132 0.3828432
0.2540133 2.3208528 0.35134161
0.16758496 2.3101895 0.3253642
0.083871439 2.3465011 0.30711907
-0.0013896237 2.4172924 0.2931239
0.25153929 2.2945454 0.26099712
0.16894987 2.3284421 0.24129485
0.0857732 2.3730221 0.22279064
-0.00020737575 2.4064314 0.20325804
0.255382 2.3262255 0.17850752
0.16962792 2.3276553 0.15546273
0.086300179 2.3715484 0.13579424
0.0005947582 2.4232628 0.11521073
0.2545791 2.3122151 0.091843449
0.16938512 2.3087587 0.069272682
0.08718276 2.3628924 0.048620924
0.0016048918 2.4158559 0.02635395
0.25279835 2.2930982 0.0065631452
0.17067121 2.3146625 -0.015838932
0.088101231 2.3620515 -0.038039695
0.0024907091 2.4162045 -0.061962403
0.25572506 2.3085475 -0.078674182
0.17306116 2.335403 -0.10138554
0.090111785 2.3769715 -0.12574369
0.003069768 2.4073176 -0.15019029
0.2562122 2.2990105 -0.1632995
0.17277738 2.3151248 -0.18597293
0.090552919 2.3787372 -0.21332988
0.003757186 2.3902371 -0.237398
0.1812752 1.6224793 -0.1756824
0.17382982 2.3156128 -0.27196562
0.091234408 2.3802459 -0.30150715
0.0044070417 2.4264708 -0.33139342
0.16250138 1.4437137 -0.21049504
0.17678845 2.3375351 -0.36202326
0.092263773 2.3831923 -0.39213666
0.0047316207 2.3978026 -0.41818249
0.16040611 1.4153192 -0.26047197
0.17518416 2.3018975 -0.44472456
0.088275351 2.2446978 -0.4547559
0 0 -0
0.15965959 1.396749 -0.31177121
0.1093225 1.4279199 -0.33165294
0.054995611 1.3947288 -0.33734742
0 0 -0
0.24747594 2.1470563 -0.56538659
0 0 -0
0 0 -0
0 0 -0
0.26691064 2.2919064 0.7128464
0.17849167 2.2937329 0.6833235
0.092831157 2.3371058 0.66993177
0.0057212017 2.3992689 0.66226745
0.26811352 2.3148932 0.62219751
0.18113837 2.3198924 0.59572875
0.094836242 2.3432405 0.57659048
0.0085793678 2.4022453 0.56583434
0.26462841 2.2851517 0.52243221
0.18059288 2.3170748 0.5034228
0.095627949 2.34056 0.48404518
0.010267879 2.3951247 0.47090769
0.26626518 2.3038599 0.43695897
0.18068749 2.3104806 0.41273239
0.096916363 2.3430195 0.39465258
0.011219326 2.4019256 0.3811194
0.26824901 2.3192506 0.35134161
0.18253392 2.31899 0.32675526
0.098682702 2.3558493 0.30841604
0.01345367 2.4192407 0.29336464
0.26435584 2.2821009 0.25976121
0.18393639 2.3362863 0.24222013
0.10003769 2.3654876 0.22213672
0.014509987 2.3984158 0.20258471
0.26746771 2.3057959 0.17706242
0.1820199 2.3026981 0.15386756
0.10042582 2.3609996 0.13522296
0.015387118 2.4112272 0.11464085
0.26853091 2.3086245 0.091764554
0.18640128 2.3435464 0.070349455
0.10116364 2.3503268 0.048374224
0.016414674 2.4138007 0.026332133
0.26732647 2.2954772 0.0065745246
0.18463154 2.3105812 -0.01581846
0.10263624 2.3624654 -0.038055785
0.017266063 2.4091461 -0.061782949
0.27185941 2.3238101 -0.079249687
0.1870679 2.3303137 -0.10121253
0.10359609 2.3514328 -0.12442395
0.017885113 2.4132416 -0.15056391
0.26949787 2.2904603 -0.16280657
0.18681891 2.3120341 -0.18581323
0.1048829 2.3721666 -0.21279432
0.018569062 2.4090753 -0.23927581
0.17934823 1.5206201 -0.16476913
0.15449744 1.9016936 -0.22345851
0.10460335 2.3518906 -0.29799104
0.019240351 2.4194627 -0.33044621
0.1689055 1.4220515 -0.20748387
0.1698557 2.0763676 -0.32173061
0.10631014 2.3697665 -0.39002755
0.019516069 2.4065943 -0.41972879
0.16943765 1.4172386 -0.26101163
0.19188172 2.3320956 -0.45077783
0.1026257 2.2568424 -0.45733523
0.0099687241 1.1834288 -0.25198627
0.16553992 1.3734499 -0.30679151
0.11984921 1.4485821 -0.33661646
0.09032771 1.9818239 -0.47947496
0.0093003856 1.1518211 -0.29080203
0.17267463 1.4213679 -0.37456226
0 0 -0
0 0 -0
0 0 -0
0.28108484 2.2911737 0.71314156
0.19192052 2.2849526 0.68104577
0.10677319 2.3278491 0.66745359
0.020286679 2.3808739 0.65721196
0.28254646 2.3151224 0.62271339
0.19504419 2.3148758 0.5947367
0.10880531 2.333884 0.57444167
0.023243517 2.3943608 0.56400013
0.27935356 2.2892928 0.52376091
0.19447911 2.3120277 0.50257599
0.10934381 2.3262336 0.48121211
0.024871852 2.3861861 0.46917143
0.28003994 2.2992563 0.43640351
0.1937848 2.2965751 0.41045308
0.11105704 2.3374557 0.39382279
0.025871668 2.3939109 0.37986571
0.27888536 2.2881129 0.34687731
0.19759718 2.3276935 0.32814628
0.1126603 2.3452952 0.30711907
0.027902802 2.3853621 0.28927174
0.27859437 2.2824087 0.25998592
0.19759487 2.3271844 0.24139765
0.1136831 2.3469291 0.2204553
0.029092554 2.3873215 0.2016589
0.28499785 2.3318241 0.17919205
0.19860269 2.3303695 0.15579505
0.1150564 2.3633306 0.13539435
0.029894276 2.3881152 0.11354858
0.28013903 2.2861054 0.090936065
0.2007775 2.3423586 0.070349455
0.11573043 2.3526576 0.0484359
0.031121688 2.4056556 0.026244869
0.28104091 2.2908158 0.0065659899
0.19923437 2.3143864 -0.015852582
0.11663486 2.3518047 -0.037894875
0.031875107 2.3960001 -0.06144968
0.28415743 2.3062274 -0.078708038
0.20033027 2.3171778 -0.10069349
0.11852299 2.3607264 -0.12495184
0.032475825 2.397119 -0.14956762
0.2831789 2.2857938 -0.16259532
0.20272933 2.3307054 -0.18741025
0.11823389 2.3476045 -0.2106521
0.033322971 2.4069259 -0.23907816
0.2022745 1.6290127 -0.17664532
0.1372727 1.5702376 -0.18460628
0.11903231 2.3512044 -0.29799104
0.033876162 2.4044385 -0.32841644
0.17247212 1.3797435 -0.20146154
0.12949541 1.4717995 -0.22817233
0.12059741 2.3641422 -0.38921636
0.034450684 2.4182496 -0.42179051
0.1722378 1.3693243 -0.25237718
0.1277965 1.4446923 -0.27939525
0.11086266 2.1475217 -0.4353117
0.024292761 1.6684191 -0.35527983
0.16365151 1.2910517 -0.28860489
0.10328159 1.1615547 -0.27006024
0.099975564 1.9326965 -0.46772888
0.013970369 0.98305279 -0.2482098
0.27478546 2.1515348 -0.56741124
0 0 -0
0 0 -0
0.011125571 0.78480107 -0.23040742
0.29452711 2.2846677 0.71166569
0.20791727 2.3056908 0.68759429
0.12090477 2.32427 0.66662753
0.034782045 2.3729939 0.65508336
0.29883626 2.3296366 0.62709874
0.20950611 2.31653 0.59548074
0.12240727 2.3195963 0.5710991
0.037826657 2.3873606 0.56239527
0.2941395 2.293339 0.52508974
0.20751914 2.2981369 0.4998239
0.1237712 2.3284528 0.48181918
0.039415263 2.3801022 0.46801391
0.29489142 2.3033433 0.43751442
0.20893824 2.3071089 0.41255707
0.12508024 2.330822 0.39282703
0.040493011 2.3897569 0.37923887
0.2955586 2.3069563 0.35000232
0.21070831 2.3136168 0.32633793
0.12672673 2.3386195 0.30634093
0.042503178 2.3831608 0.28903097
0.29550198 2.3033247 0.26257005
0.21150954 2.3219659 0.24098641
0.12878698 2.3591113 0.22166967
0.043795101 2.3900869 0.20191139
0.29764882 2.3171747 0.1782033
0.21198957 2.3191705 0.1551304
0.12868072 2.3466301 0.13448028
0.044472389 2.3838921 0.11335862
0.29454389 2.2873166 0.091054417
0.21313375 2.3191848 0.069691427
0.12961142 2.3419206 0.048230316
0.045939136 2.4084187 0.026277594
0.29534754 2.2910321 0.0065716798
0.21389081 2.318099 -0.015886702
0.13006131 2.333075 -0.037605233
0.046595518 2.396759 -0.061475314
0.30163869 2.3302104 -0.079588212
0.2135307 2.3049622 -0.1002177
0.13132015 2.330044 -0.12336817
0.047164012 2.3958766 -0.14950533
0.29758507 2.2869809 -0.16280657
0.21785869 2.3383503 -0.18812892
0.13314211 2.3557847 -0.21145543
0.047912039 2.397722 -0.23818865
0.1844954 1.414784 -0.15353486
0.14172111 1.5139879 -0.17809212
0.13278191 2.3385439 -0.29648411
0.048769135 2.4111195 -0.32936364
0.17307928 1.3188028 -0.19271481
0.13657795 1.4503146 -0.22496723
0.13442545 2.351536 -0.38726944
0.04924798 2.4160228 -0.42144686
0.18359783 1.390672 -0.25651452
0.13712117 1.4487687 -0.28034106
0.12793843 2.2143166 -0.449002
0.024571426 1.1871289 -0.2528193
0.18019374 1.3548632 -0.3031109
0 0 -0
0 0 -0
0.020771313 1.0207543 -0.25775635
0.1945997 1.4527028 -0.38342017
0 0 -0
0 0 -0
0.016291587 0.80198562 -0.23547752
0.30802813 2.2790303 0.71048498
0.22077349 2.2910128 0.68360823
0.13471732 2.3158066 0.66442472
0.04908127 2.3602073 0.65162432
0.31338263 2.329674 0.62761462
0.22297072 2.3074868 0.59349662
0.13663775 2.3188016 0.5710991
0.052367557 2.3822179 0.56124896
0.3082056 2.291491 0.52508974
0.22086543 2.2890379 0.49813032
0.13788204 2.3247166 0.48121211
0.053840425 2.3719678 0.4664706
0.31006509 2.3092821 0.43899563
0.22242679 2.298924 0.41132975
0.13867293 2.3181982 0.39083549
0.054768067 2.372678 0.37657481
0.30970827 2.3050995 0.35000232
0.22202446 2.2827115 0.3221648
0.14083493 2.3338387 0.30582213
0.057030011 2.3788855 0.28854945
0.31068924 2.3093464 0.26346886
0.22517501 2.3146842 0.24036954
0.14265609 2.3483388 0.22073554
0.058142789 2.3768232 0.20081726
0.31239352 2.3192575 0.17850752
0.22670035 2.3227916 0.15546273
0.14295538 2.3438032 0.13436602
0.05909884 2.3835742 0.11335862
0.30884048 2.2874467 0.091133326
0.22618903 2.3058958 0.069332495
0.14373322 2.3370893 0.048148077
0.060010344 2.3801019 0.025972167
0.31020314 2.2951226 0.0065887491
0.22722849 2.3077862 -0.015825283
0.14449792 2.3342292 -0.037637416
0.061070815 2.387434 -0.061244596
0.31687158 2.3352482 -0.079825185
0.22786617 2.3055968 -0.1003042
0.14692304 2.3501241 -0.12447673
0.061683588 2.3885581 -0.14906946
0.31215125 2.2890656 -0.16308826
0.23023129 2.317131 -0.1865319
0.1469714 2.3449829 -0.21056284
0.062415406 2.3894248 -0.237398
0.16759598 1.2264553 -0.1332062
0.15663023 1.5694231 -0.1847226
0.14687918 2.3337247 -0.29598182
0.063484229 2.4078038 -0.32895774
0.18103324 1.3167355 -0.19257142
0.14577043 1.4523994 -0.22542511
0.14860225 2.3467278 -0.38662049
0.063627459 2.3989339 -0.41852611
0.18741176 1.3554145 -0.25021857
0.14531842 1.4410611 -0.27901691
0.1375204 2.1508901 -0.43630379
0.032668479 1.217265 -0.25927514
0.18284851 1.31312 -0.29401755
0.13981596 1.380221 -0.32127467
0.13579902 2.1204796 -0.5135386
0.03286203 1.2406247 -0.31332204
0.15488225 1.1046587 -0.29180425
0 0 -0
0 0 -0
0.021186799 0.80091143 -0.23519585
0.32214001 2.2780435 0.7107802
0.23443551 2.2858007 0.68246937
0.14898601 2.3158958 0.66470003
0.06343253 2.3550436 0.65029389
0.32726729 2.324837 0.62684077
0.23553954 2.2906563 0.58952844
0.1509892 2.3198574 0.5715766
0.066819407 2.3760138 0.55987334
0.32416302 2.303076 0.52819026
0.23420772 2.280834 0.49664843
0.15188773 2.3199182 0.48040268
0.068025827 2.3588424 0.4639627
0.32463899 2.3102555 0.43955109
0.23602441 2.292619 0.41045308
0.15289451 2.3173037 0.39083549
0.068777375 2.3535402 0.37359729
0.32315782 2.2982595 0.34925827
0.23612864 2.2822912 0.32230392
0.15482347 2.3279839 0.30517367
0.071505979 2.3745217 0.28806794
0.32263681 2.2916532 0.26167122
0.23794004 2.2994072 0.23893021
0.1573284 2.3513927 0.2211092
0.072146483 2.3574979 0.19921812
0.32467005 2.3034742 0.17744273
0.24146351 2.326319 0.15579505
0.15713333 2.3398938 0.13419466
0.07369218 2.3821685 0.11331113
0.32314968 2.2874875 0.09121222
0.24095558 2.3104296 0.069511965
0.15685575 2.3182085 0.047778025
0.07420586 2.3666961 0.02583036
0.32497996 2.2981267 0.0066029732
0.24076 2.3003817 -0.01578434
0.15881775 2.3332987 -0.037637416
0.075845458 2.391011 -0.061347138
0.33203715 2.3391972 -0.080028303
0.24242622 2.30813 -0.10047723
0.1599035 2.3282571 -0.12336817
0.076083243 2.3801544 -0.14857133
0.33027521 2.3157451 -0.16513038
0.24277031 2.299814 -0.18525428
0.1615624 2.347018 -0.21083063
0.076915026 2.3840239 -0.23690382
0.20339032 1.4232403 -0.15471178
0.16678056 1.5733708 -0.18530421
0.16044359 2.3218925 -0.29460049
0.077935122 2.3974659 -0.3276045
0.18446241 1.2832732 -0.18783958
0.15143295 1.4210132 -0.22069377
0.16272509 2.3418343 -0.38597155
0.077831253 2.3827446 -0.41577718
0.19347358 1.338662 -0.24734044
0.15321726 1.4313551 -0.27731442
0.15016714 2.1421843 -0.43471652
0 0 -0
0.1963847 1.3496516 -0.30246139
0.1279767 1.1904533 -0.27727991
0.10462813 1.4903178 -0.36107448
0.040284019 1.2345853 -0.31185335
0.16235845 1.1084738 -0.29306969
0.23172496 2.1404145 -0.58505684
0 0 -0
0.026725866 0.81994635 -0.24082927
0.33653048 2.2788594 0.71166569
0.24918208 2.2909901 0.68446237
0.16238205 2.3034306 0.66139585
0.077594824 2.3459394 0.64789927
0.341245 2.3208735 0.62632489
0.25095534 2.3016877 0.59275258
0.16487567 2.3140442 0.57038283
0.081097104 2.3668039 0.55780989
0.33956486 2.3097267 0.53018337
0.24766925 2.2744961 0.49558991
0.16583972 2.3150353 0.47959325
0.082395218 2.3554387 0.46338394
0.3392365 2.311137 0.44010654
0.2515828 2.3048294 0.41290772
0.16746515 2.3212397 0.39166531
0.082798257 2.3412297 0.3717168
0.33797207 2.3011253 0.35000232
0.2528269 2.3054087 0.32578149
0.16888918 2.324023 0.30478457
0.085211165 2.3502285 0.28517884
0.34059533 2.3161743 0.26470476
0.25399661 2.3157017 0.24078079
0.17037463 2.3315165 0.21933433
0.087269098 2.3749352 0.2007331
0.34126651 2.3182087 0.1787357
0.25486019 2.3168592 0.15526333
0.17090364 2.33092 0.13373762
0.0879374 2.3716896 0.11283623
0.34155452 2.3151171 0.092395775
0.25479823 2.305927 0.06942223
0.17092982 2.315208 0.047736909
0.088613831 2.3631985 0.025797637
0.34214276 2.3168638 0.0066627157
0.25442955 2.2948852 -0.015757041
0.17283551 2.3282914 -0.037573047
0.089796327 2.3715205 -0.060860049
0.34491873 2.3272295 -0.079689771
0.25669453 2.3075919 -0.10052048
0.17396279 2.3242445 -0.1232098
0.090078041 2.3636854 -0.14757504
0.34198087 2.2969022 -0.16393326
0.25842726 2.31215 -0.18637219
0.17424697 2.3231385 -0.20877767
0.091159768 2.3735633 -0.23591548
0.19935696 1.3364116 -0.1454034
0.17189051 1.5318502 -0.18053493
0.17424066 2.3149288 -0.29384702
0.091955431 2.3791215 -0.32516882
0.19321387 1.2879895 -0.18869992
0.15472235 1.3719364 -0.21321522
0.17679349 2.3368559 -0.38532254
0.092373639 2.3802536 -0.41543359
0.20403066 1.3530127 -0.25021857
0.15967643 1.4098982 -0.27334198
0.16219045 2.1265633 -0.43174034
0.084386699 2.1569614 -0.45961463
0.19894874 1.3107773 -0.29401755
0 0 -0
0.075501621 0.9885757 -0.23962003
0.054019287 1.3932062 -0.35199773
0.32122272 2.10302 -0.55652869
0 0 -0
0 0 -0
0.031459324 0.81209666 -0.23857592
0.35108849 2.280529 0.7128464
0.26257765 2.283704 0.68275404
0.17651258 2.3023908 0.66139585
0.091647774 2.33675 0.64550453
0.35430789 2.311096 0.6242612
0.26640442 2.3116534 0.59572875
0.1788464 2.3100846 0.56966656
0.095107108 2.3536184 0.55482942
0.35373068 2.3075998 0.53018337
0.26206765 2.2768171 0.49643669
0.17973752 2.3100686 0.47878382
0.096362539 2.3431239 0.46106893
0.35445172 2.3158116 0.44140261
0.26515609 2.2983522 0.41203108
0.18085793 2.3093543 0.38983977
0.097653747 2.3525188 0.37359729
0.3543306 2.3136704 0.35223448
0.26730981 2.3067651 0.32619882
0.18314594 2.322943 0.30478457
0.099546179 2.3476777 0.28493807
0.35525247 2.3169873 0.26504183
0.2675136 2.3081713 0.24016394
0.18467735 2.3304272 0.21933433
0.10141277 2.3643992 0.19989143
0.35366911 2.3042443 0.17782301
0.27022323 2.3251629 0.15592799
0.18362042 2.3099229 0.13259505
0.10266069 2.375097 0.11302619
0.35863954 2.3317425 0.093145356
0.26975346 2.31127 0.069631606
0.18537164 2.3171055 0.047798585
0.10293809 2.3586144 0.025754005
0.35848257 2.328558 0.0067025446
0.27036652 2.3091719 -0.015866229
0.18583621 2.3112407 -0.037315588
0.10381857 2.3589404 -0.060552422
0.36437979 2.3586514 -0.080840766
0.27224734 2.3178804 -0.10103951
0.18822081 2.3231335 -0.1232098
0.10444727 2.3600969 -0.14738823
0.3601976 2.3213749 -0.16583455
0.27295986 2.3134906 -0.18661174
0.18753111 2.3101125 -0.20770654
0.10572197 2.3729594 -0.23591548
0.20205517 1.2997946 -0.14155166
0.17392762 1.4686286 -0.17320652
0.15598769 1.9153254 -0.24324004
0.10624132 2.3715839 -0.32422158
0.19882087 1.2721128 -0.18654908
0.16091871 1.3523153 -0.21031535
0.15821445 1.9334904 -0.31896597
0.10653444 2.3698006 -0.41371551
0.20408593 1.2992595 -0.24050483
0.16611114 1.3903667 -0.26974788
0.12248785 1.4857205 -0.30178174
0.076654017 1.6932697 -0.36090267
0.19967157 1.2632451 -0.28362519
0.14849225 1.2381247 -0.28878623
0.084364817 1.021999 -0.24784228
0 0 -0
0 0 -0
0.16963129 1.4054594 -0.38470569
0 0 -0
0 0 -0
0.36492375 2.2773883 0.71255118
0.27866137 2.2991796 0.68787903
0.19087456 2.3041387 0.66222191
0.10585302 2.3332548 0.64470631
0.36909088 2.3126948 0.62529302
0.27953213 2.3013198 0.59349662
0.19317923 2.310879 0.57014406
0.10950159 2.3520181 0.55460018
0.3688052 2.3111637 0.5315122
0.27732784 2.2858388 0.49876544
0.19382648 2.3079462 0.47858143
0.11045986 2.3366079 0.45991144
0.36958244 2.319416 0.44251353
0.28008536 2.3035233 0.4132584
0.19452631 2.3023052 0.38884401
0.11194564 2.3489158 0.37312716
0.36867601 2.312429 0.35238329
0.28097874 2.3011496 0.32564241
0.1967238 2.3138716 0.303747
0.11390124 2.3460312 0.2848177
0.37118536 2.3255577 0.2662777
0.28215355 2.3104358 0.24057518
0.19837992 2.3223062 0.21868044
0.11547928 2.3547754 0.19913396
0.3720485 2.3286154 0.17987655
0.2856977 2.333365 0.15659264
0.1977904 2.3087528 0.13259505
0.11644397 2.3584599 0.11226635
0.3721503 2.3245649 0.092948101
0.28197864 2.2936978 0.069153033
0.19984318 2.3189127 0.047860261
0.11725914 2.3549423 0.02572128
0.37339643 2.3302641 0.006713924
0.28232744 2.2896054 -0.015743395
0.20104922 2.3220108 -0.037508685
0.1180404 2.353267 -0.060424238
0.37487924 2.3317025 -0.079994448
0.28830391 2.3310387 -0.10168831
0.20212476 2.3179555 -0.12299865
0.1180222 2.3414693 -0.14626741
0.37586549 2.3279841 -0.16646832
0.28383252 2.2850637 -0.18445577
0.20178884 2.3099105 -0.2077958
0.11952434 2.3573587 -0.234433
0.22129804 1.3682171 -0.14914815
0.18281281 1.4665481 -0.17309019
0.13543658 1.5456973 -0.19640033
0.12028696 2.3609922 -0.32286841
0.21726348 1.3363171 -0.19615613
0.17424798 1.3915081 -0.21657293
0.13270359 1.507848 -0.24887781
0.12092242 2.3661509 -0.41320008
0.2147505 1.3144869 -0.24356288
0.17414927 1.3854241 -0.2689912
0.12770821 1.4410079 -0.2928533
0.064440429 1.2532146 -0.26718876
0.21470235 1.3063105 -0.29358456
0.1534037 1.2159259 -0.28382272
0 0 -0
0 0 -0
0 0 -0
0 0 -0
0 0 -0
0 0 -0
0.37951851 2.2788763 0.71373194
0.29240009 2.2945738 0.68702483
0.20517936 2.3048391 0.6627726
0.11996923 2.3287108 0.64364201
0.38453934 2.3180115 0.62735671
0.29475191 2.3082099 0.59572875
0.2070944 2.3067489 0.56942785
0.12341891 2.3415818 0.55230749
0.3829793 2.3088572 0.5315122
0.29147193 2.2850635 0.49897712
0.20736854 2.2998862 0.47716492
0.12484729 2.3368661 0.46010438
0.38461012 2.3219523 0.4434393
0.29546249 2.311527 0.4150117
0.20909458 2.3059788 0.3896738
0.12635621 2.3481848 0.37312716
0.38512143 2.3237815 0.35446665
0.29484096 2.2974179 0.3253642
0.20920666 2.2938595 0.30128279
0.12796873 2.3393407 0.28409544
0.38479719 2.3193152 0.26582831
0.29366547 2.2879422 0.23841615
0.21380633 2.3339343 0.21989481
0.12965116 2.3490477 0.19871312
0.38714641 2.331207 0.18025686
0.29975492 2.3295887 0.1564597
0.21332271 2.3224084 0.13345198
0.13052537 2.3507197 0.11193392
0.38706261 2.3261802 0.093105905
0.29873621 2.3127422 0.069781162
0.21278065 2.3037052 0.047572441
0.13142732 2.3491867 0.025666742
0.38818046 2.3308883 0.0067224586
0.29662779 2.2898133 -0.015757041
0.21529303 2.3207333 -0.037508685
0.13242134 2.3515003 -0.060398605
0.38769695 2.3204863 -0.079689771
0.30105695 2.3173373 -0.10116928
0.2158794 2.3117001 -0.1227347
0.13210517 2.3357186 -0.14595607
0.38882238 2.3177638 -0.16590498
0.30107152 2.3079898 -0.18645203
0.21614394 2.3106122 -0.20797431
0.13404305 2.3575745 -0.23453182
0.21354164 1.2707434 -0.13866284
0.18794085 1.4358544 -0.16960047
0.14426963 1.5379229 -0.1955213
0.13448904 2.3552635 -0.3221918
0.22298674 1.3203212 -0.19400531
0.18136594 1.3796345 -0.21489407
0.13723364 1.4569029 -0.24060352
0.13465014 2.3515949 -0.41079471
0.22017905 1.2976271 -0.24068473
0.17994948 1.3638858 -0.26501876
0.13636264 1.4382457 -0.29245648
0.11558596 2.0075974 -0.42816842
0.22452036 1.3155546 -0.29596615
0.16559282 1.2506961 -0.29217046
0.14622252 1.5405229 -0.37399518
0 0 -0
0.2885243 1.6810242 -0.44618466
0.13183774 0.99003845 -0.27141812
0 0 -0
0.048319474 0.84490806 -0.24843441
0.40049192 2.3169885 0.72642446
0.30685487 2.2955868 0.68787903
0.21877103 2.2977946 0.66112047
0.13353416 2.3154202 0.64018297
0.39842719 2.313704 0.62684077
0.30903786 2.3073182 0.59597677
0.22040956 2.2967348 0.56727904
0.13761267 2.3378656 0.55161965
0.39746994 2.3083861 0.53195512
0.30743146 2.2977626 0.50215262
0.22138254 2.2975957 0.47696257
0.1390086 2.3331177 0.45952564
0.39801741 2.3147061 0.44251353
0.30754712 2.2940581 0.41220638
0.22362016 2.3085785 0.39033762
0.14017084 2.3375065 0.37156007
0.40104926 2.33112 0.35595477
0.30932829 2.2985096 0.32578149
0.2241426 2.3014145 0.30245003
0.14219964 2.3365295 0.28385466
0.40070745 2.3267031 0.26695183
0.31141371 2.3137 0.24129485
0.22841379 2.3355513 0.22017506
0.1429639 2.3303056 0.19719817
0.40195128 2.3317354 0.18048503
0.31337634 2.3227615 0.15612739
0.22834806 2.3290045 0.133909
0.14445469 2.3418989 0.111554
0.40523973 2.3464084 0.094013296
0.31211656 2.3049226 0.069601692
0.22828476 2.3162858 0.047860261
0.14528136 2.3393538 0.025568567
0.40434876 2.3393018 0.006753752
0.31201771 2.297859 -0.015825283
0.22805172 2.3044436 -0.03726732
0.14672272 2.3486478 -0.06034733
0.4007327 2.3111708 -0.079452805
0.31702241 2.3283153 -0.10173156
0.23025757 2.3123195 -0.12284028
0.14680922 2.3408408 -0.14632969
0.40406302 2.3212309 -0.16632749
0.31644243 2.3149877 -0.1871707
0.22942786 2.3003228 -0.20717098
0.14813085 2.3507488 -0.23393881
0.21843146 1.252758 -0.13684396
0.18716657 1.3648102 -0.16134146
0.15755342 1.575508 -0.20041874
0.14812495 2.3415391 -0.32043266
0.21707879 1.238993 -0.1822474
0.1834912 1.3324804 -0.20772076
0.1394681 1.3892699 -0.22957113
0.14938848 2.3556402 -0.41165379
0.22745498 1.2923766 -0.2399652
0.18643294 1.3491381 -0.26237047
0.14479099 1.4334812 -0.29166281
0.1367981 2.1464322 -0.45794863
0.22408096 1.2660851 -0.28514075
0.18048874 1.3017657 -0.30435362
0.14022234 1.3867974 -0.33687755
0.092241853 1.455325 -0.36815339
0.36595657 2.0564044 -0.54640538
0.13884275 0.99590117 -0.2732538
0 0 -0
0.051076394 0.80629206 -0.23716755
0.4177343 2.3314159 0.73173755
0.31987187 2.2860661 0.68560129
0.23286591 2.2964089 0.66112047
0.14755459 2.3116713 0.63938475
0.41346535 2.3159716 0.62813061
0.32493791 2.3178504 0.59920096
0.23331358 2.2837465 0.56441396
0.15189181 2.3360059 0.55139041
0.41539651 2.3270235 0.53682727
0.32030451 2.287122 0.5002473
0.23537627 2.2952199 0.47676021
0.15229186 2.316555 0.45643899
0.41445485 2.3247974 0.44492051
0.32312223 2.3028524 0.41413507
0.23858991 2.3150105 0.39166531
0.15438055 2.3346314 0.37124667
0.41360879 2.3188803 0.35446665
0.32466877 2.3053939 0.32703343
0.23836178 2.3009822 0.30257976
0.15673278 2.3385844 0.28421581
0.41672283 2.3339825 0.26807538
0.32615936 2.3156855 0.24170607
0.24222521 2.3291543 0.21970798
0.15752816 2.3333611 0.19753483
0.41537389 2.3243172 0.18010473
0.32831997 2.3257349 0.1564597
0.24201319 2.3216016 0.13356623
0.1594301 2.3499374 0.11198141
0.41628364 2.3251896 0.093263708
0.32611322 2.3019745 0.069571786
0.2437429 2.3267736 0.048106965
0.15936023 2.3344278 0.025524937
0.41693118 2.3269336 0.0067253034
0.32723626 2.3038216 -0.015879879
0.24250093 2.305984 -0.037315588
0.1608572 2.3437142 -0.060244787
0.41702762 2.3204725 -0.079859041
0.33158445 2.3283043 -0.10181807
0.24486153 2.3148353 -0.12305143
0.16048375 2.3299389 -0.145707
0.42042333 2.330488 -0.16717249
0.33106413 2.3159628 -0.18741025
0.24290849 2.2929287 -0.20663542
0.16186523 2.3398683 -0.23295048
0.22699808 1.2562861 -0.13737893
0.20174043 1.4068949 -0.16645972
0.15213029 1.4324504 -0.18233584
0.16248958 2.3405862 -0.32043266
0.22396995 1.2337428 -0.18167385
0.18546736 1.2882887 -0.20100531
0.15227792 1.428617 -0.23622301
0.16336094 2.3478 -0.41045111
0.22832267 1.2522472 -0.23276983
0.19260187 1.333391 -0.25953302
0.15379292 1.434515 -0.29205966
0.15010218 2.1475039 -0.45836514
0.22374743 1.2205136 -0.27518138
0.19378191 1.3372713 -0.31292695
0.12611882 1.1752217 -0.28566465
0.067670777 0.97304517 -0.24625154
0.21339354 1.1578805 -0.30800152
0 0 -0
0 0 -0
0 0 -0
0.42715201 2.3025053 0.72347271
0.33541813 2.2944942 0.68873316
0.24746631 2.2997162 0.66249728
0.16173597 2.3107224 0.63938475
0.43100515 2.3314421 0.63303185
0.33676744 2.2995179 0.59498471
0.24857743 2.2938571 0.56727904
0.16511656 2.3194954 0.5477221
0.42878079 2.3196363 0.53571999
0.33772767 2.3083224 0.50532812
0.24924326 2.2917852 0.47635549
0.16671422 2.3185132 0.45701772
0.42764127 2.3164122 0.4438096
0.33738896 2.3018005 0.4143104
0.250862 2.2958574 0.38867801
0.16827539 2.3277299 0.3703064
0.42890701 2.3221331 0.35535949
0.33808774 2.2984598 0.32633793
0.25301695 2.3044043 0.30322823
0.17107911 2.3375788 0.28421581
0.43211997 2.3372443 0.26874951
0.34065157 2.315609 0.24191171
0.25443992 2.3088212 0.21793315
0.17111026 2.3224132 0.19669318
0.4345265 2.3481975 0.18215831
0.3418566 2.3187411 0.15612739
0.25745937 2.3309886 0.13419466
0.17303506 2.3379576 0.11145902
0.43036076 2.321609 0.093224265
0.34227955 2.3137732 0.069990531
0.25867671 2.3311965 0.048230316
0.17353256 2.3314116 0.025503119
0.43302515 2.3341637 0.006753752
0.34415337 2.3205643 -0.016009538
0.25598159 2.2984903 -0.037219044
0.17478752 2.3367016 -0.06009097
0.43290323 2.3267128 -0.08016371
0.34615827 2.3282025 -0.10190458
0.2593939 2.3162665 -0.1232098
0.17492634 2.3309007 -0.14583153
0.43489811 2.3288448 -0.16724291
0.34585682 2.3178313 -0.18772966
0.25719509 2.2933748 -0.20681395
0.17412594 2.3110466 -0.23018314
0.24566963 1.3135085 -0.14379852
0.19802046 1.3231198 -0.15668851
0.16889612 1.502473 -0.1913773
0.17557847 2.3227496 -0.31813228
0.22952566 1.2216462 -0.18009657
0.18999168 1.2646482 -0.19749497
0.16070907 1.4247141 -0.23573628
0.17716841 2.3388948 -0.40907663
0.23764347 1.2595224 -0.2343888
0.20385294 1.3525746 -0.26350546
0.15740058 1.3877722 -0.28273436
0.15459681 2.0324371 -0.43399951
0.23341532 1.2306279 -0.27777949
0.18800348 1.243583 -0.29126799
0 0 -0
0.085718118 1.1321354 -0.2866407
0.22176242 1.1632017 -0.30977312
0.1469945 0.96740896 -0.26591107
0 0 -0
0 0 -0
0.44649294 2.3270524 0.73203272
0.35021293 2.2971311 0.69015676
0.26178989 2.3000648 0.66304797
0.17583804 2.3087254 0.63911867
0.44403222 2.3221107 0.63122606
0.35174823 2.3031542 0.5964728
0.26320028 2.2971125 0.5684728
0.17942068 2.3194089 0.54795134
0.44465396 2.3255823 0.53771317
0.35114786 2.3013761 0.50426966
0.26352441 2.2921586 0.47676021
0.18093722 2.3174465 0.45701772
0.44774514 2.3446331 0.44973448
0.35388628 2.3152583 0.41711572
0.26517066 2.2962344 0.38900995
0.18263216 2.3276381 0.3704631
0.44667318 2.3379123 0.3581869
0.35368568 2.3061304 0.32772896
0.26738027 2.3047786 0.30348763
0.18557608 2.3384645 0.28445658
0.44831932 2.3443086 0.26987302
0.35621074 2.322324 0.242837
0.26940772 2.3141391 0.21858704
0.18615024 2.3312523 0.19753483
0.44386557 2.3190451 0.18010473
0.35729036 2.3244894 0.15665911
0.27198857 2.3313482 0.1343089
0.18609984 2.3209209 0.11069918
0.44742 2.3336449 0.093816034
0.35738418 2.3175569 0.070169993
0.27192855 2.3206284 0.048045289
0.1875132 2.3263161 0.025459487
0.45148471 2.3530686 0.0068163397
0.35930216 2.3243382 -0.016050482
0.27008006 2.2968764 -0.037219044
0.18871856 2.3306034 -0.05996279
0.4490599 2.333827 -0.080502242
0.36013135 2.32406 -0.10181807
0.27324969 2.3116562 -0.12305143
0.18922518 2.3297834 -0.14583153
0.45334029 2.3476799 -0.16879211
0.36145067 2.3245304 -0.18844832
0.27301824 2.3065901 -0.20815283
0.12798782 1.5700417 -0.15645337
0.27033743 1.3978796 -0.15321387
0.19649416 1.2600546 -0.14936008
0.17694323 1.4915566 -0.19012155
0.12951212 1.5839609 -0.21704984
0.23531885 1.2114713 -0.17880608
0.20248523 1.2937269 -0.20222631
0.1638502 1.376669 -0.22794873
0.12523764 1.5287266 -0.26750621
0.23557517 1.2078347 -0.22503482
0.21245295 1.3532385 -0.2638838
0.16346778 1.3663435 -0.27856776
0.11215139 1.363723 -0.29134613
0.24265221 1.2377949 -0.27972806
0.20487401 1.30111 -0.30503047
0.16399147 1.3695047 -0.33335373
0 0 -0
0.24011587 1.218771 -0.32495809
0.15277682 0.96553558 -0.26564881
0 0 -0
0 0 -0
0.4641073 2.3411386 0.73734587
0.36400071 2.2930455 0.68958735
0.27612704 2.3003242 0.66359866
0.1900008 2.3076031 0.63911867
0.46632507 2.3600991 0.64231831
0.36678624 2.3066928 0.59796089
0.27903706 2.3099153 0.57205415
0.1935679 2.3172946 0.5477221
0.46231726 2.3400302 0.54169947
0.36556888 2.3011086 0.50469303
0.27793735 2.2934153 0.47736731
0.19564764 2.3221591 0.45817518
0.46212313 2.3418417 0.44973448
0.36731213 2.3081818 0.41623902
0.2799699 2.3004377 0.39000574
0.19674426 2.3245056 0.3701497
0.46426591 2.35162 0.36071667
0.36970264 2.3156514 0.32939819
0.28067496 2.2962048 0.30257976
0.19780602 2.3125536 0.28144708
0.46462157 2.3512619 0.27099657
0.37045357 2.3200946 0.242837
0.2845715 2.3203483 0.21933433
0.19985318 2.3231168 0.19694567
0.46060145 2.3289938 0.18109348
0.37233463 2.3271797 0.15699144
0.28628832 2.3296354 0.1343089
0.20085292 2.3257065 0.11098412
0.46308979 2.3377171 0.094092205
0.37539923 2.3390064 0.070887849
0.28689724 2.3248699 0.048168641
0.20187013 2.326118 0.025470395
0.4670811 2.3561394 0.006833409
0.37339845 2.3211026 -0.016043657
0.28416833 2.295176 -0.037219044
0.20266812 2.3254178 -0.059860244
0.46648929 2.3467116 -0.081043884
0.37454379 2.3227928 -0.10186132
0.28903159 2.3228185 -0.12373769
0.2035169 2.3285785 -0.14583153
0.47046873 2.3585496 -0.16977796
0.37793568 2.3360448 -0.18956622
0.28618094 2.2969646 -0.20743877
0.13118577 1.4958706 -0.1491397
0.29877606 1.4956441 -0.16412716
0.20167719 1.2431389 -0.14749889
0.16568817 1.3270257 -0.16927598
0.13072219 1.4864111 -0.20378868
0.25325981 1.2624025 -0.18654908
0.20708463 1.2719759 -0.19902121
0.17352049 1.3854288 -0.22957113
0.13029248 1.478863 -0.25891578
0.25230491 1.252654 -0.23366925
0.20714314 1.2685658 -0.24761568
0.16731967 1.3293343 -0.27122658
0.12887301 1.4575138 -0.31154668
0.24888681 1.2295847 -0.27821252
0.20356488 1.2431052 -0.29171923
0.15271045 1.2122412 -0.29529643
0 0 -0
0.220401 1.083602 -0.28927341
0.15948167 0.96934098 -0.26696002
0 0 -0
0 0 -0
0.47884658 2.3401189 0.7379362
0.38071734 2.3068478 0.69442755
0.29095894 2.3043091 0.66525078
0.20424141 2.307354 0.63938475
0.48079759 2.3571935 0.64231831
0.38156494 2.3082221 0.59895295
0.29173669 2.2965996 0.56918907
0.20734803 2.3112156 0.54657573
0.47822574 2.3447936 0.54347122
0.37999988 2.3007507 0.5051164
0.29249936 2.2955525 0.47817674
0.21033435 2.3258011 0.45913979
0.47511053 2.3322217 0.44843841
0.38162863 2.3068559 0.41641435
0.29370442 2.2957418 0.38950783
0.21028878 2.3153856 0.36889601
0.48263597 2.3681059 0.36369288
0.38552547 2.3231084 0.33078924
0.29589599 2.3032906 0.303747
0.21181051 2.3093195 0.28120634
0.48241621 2.3649182 0.27290657
0.38419384 2.3148341 0.24252857
0.29842177 2.3155961 0.21905409
0.21401231 2.3208547 0.19686152
0.48485559 2.3749716 0.18489638
0.38693425 2.3268197 0.15712436
0.30083302 2.3298154 0.13442317
0.21511941 2.3244302 0.11098412
0.4818289 2.3563685 0.094960131
0.38957959 2.3356731 0.070857935
0.30141401 2.3250484 0.048209753
0.2162317 2.3258314 0.025481304
0.4793241 2.3424525 0.0068021151
0.38845786 2.3236995 -0.016077779
0.29966429 2.3042958 -0.037396047
0.21730444 2.3281119 -0.05996279
0.48509791 2.3643651 -0.081754804
0.39010987 2.3283336 -0.10220736
0.30353749 2.3229818 -0.12384328
0.21696401 2.3183427 -0.14527112
0.48975888 2.3790672 -0.171468
0.39077517 2.3248348 -0.18884756
0.29949424 2.2892396 -0.2069032
0.13282746 1.4147871 -0.14113419
0.41113204 1.994307 -0.21912153
0.21375789 1.2683219 -0.15063965
0.18633589 1.4213998 -0.18145682
0.14197585 1.5082692 -0.206901
0.24776034 1.1968628 -0.1770854
0.21126007 1.2492434 -0.1956635
0.17417134 1.3246598 -0.21967442
0.13020885 1.3809385 -0.24190673
0.25778475 1.2404882 -0.23169054
0.20654941 1.2178967 -0.23796831
0.17650008 1.336056 -0.27281389
0.13505007 1.4274839 -0.30529907
0.25343341 1.2136993 -0.2749649
0.21053527 1.237991 -0.29081675
0.15581404 1.1785179 -0.28730911
0 0 -0
0.24651246 1.1750189 -0.31407553
0.17062649 0.99878335 -0.2753517
0 0 -0
0 0 -0
0.49536636 2.3474202 0.74118316
0.39842644 2.3252549 0.70069134
0.3052187 2.3034334 0.66552609
0.21903141 2.3127749 0.64124727
0.48928511 2.3258352 0.63457954
0.39752319 2.3163402 0.60168111
0.30607945 2.2966917 0.56966656
0.22124672 2.3069932 0.54588795
0.49340704 2.3456321 0.54435706
0.39510092 2.3041556 0.50638664
0.30787653 2.3034213 0.48020032
0.22431813 2.3215368 0.45856103
0.49385732 2.35042 0.45251173
0.39744252 2.3141739 0.41816771
0.30883443 2.3017154 0.39083549
0.22477786 2.3170009 0.36936614
0.49207187 2.3409073 0.35997263
0.39977252 2.3206992 0.33078924
0.3120088 2.3161719 0.30569243
0.22587951 2.3069882 0.28108594
0.49978206 2.3755269 0.27447951
0.39889678 2.3153739 0.242837
0.31342426 2.3196414 0.21961458
0.22815117 2.318506 0.19677733
0.49900812 2.3700004 0.18474427
0.40052521 2.3204689 0.1568585
0.31485498 2.3259468 0.1343089
0.22986853 2.3280365 0.11122157
0.4981339 2.3621674 0.095315196
0.4018577 2.3214197 0.07049901
0.31540537 2.3211741 0.048168641
0.23039998 2.3234656 0.025470395
0.49885005 2.3639286 0.0068732374
0.4045887 2.3321099 -0.016152846
0.31393257 2.3034043 -0.037412137
0.2300012 2.3108187 -0.059552614
0.50331992 2.3789439 -0.082364149
0.40421778 2.3249118 -0.1021641
0.31819171 2.3240438 -0.12400164
0.23108588 2.3159745 -0.14520885
0.5062114 2.3847992 -0.17210175
0.40537527 2.3243573 -0.18900727
0.31718716 2.314002 -0.2093132
0.15389265 1.5377151 -0.15348838
0.49137178 2.3117101 -0.2543222
0.2153776 1.2317652 -0.14645198
0.18466005 1.3445497 -0.17178749
0.15300806 1.525115 -0.20933673
0.25902411 1.2137096 -0.17980979
0.22301969 1.2712858 -0.19932647
0.18512337 1.3440943 -0.2230815
0.13838419 1.3771729 -0.2413913
0.2571494 1.2004083 -0.22449517
0.22949986 1.3046123 -0.25518224
0.18402302 1.3300935 -0.27182183
0.14223689 1.4110581 -0.30196702
0.25450793 1.1825342 -0.26825315
0.2237118 1.2683363 -0.29826203
0.17210767 1.2430121 -0.30328375
0.11774014 1.1721386 -0.29741114
0.25739762 1.1905049 -0.31863102
0 0 -0
0 0 -0
0.074775465 0.74467367 -0.2197039
0.5152418 2.3695443 0.74915284
0.4133572 2.3265417 0.70183021
0.32000721 2.3062785 0.6669029
0.23370206 2.3161829 0.64257771
0.51767087 2.3879406 0.65237874
0.4139348 2.3262565 0.60490525
0.32043427 2.2966936 0.57014406
0.23529914 2.3046238 0.54565871
0.51564056 2.3787756 0.55277264
0.41094235 2.3113103 0.50850362
0.32146147 2.2976093 0.47939089
0.23765533 2.311332 0.45682478
0.51201338 2.3646338 0.45584449
0.4138782 2.3242919 0.42044699
0.32336307 2.3027067 0.3913334
0.23868629 2.3126307 0.36889601
0.51186931 2.3629715 0.36384171
0.41226357 2.308454 0.32939819
0.32607627 2.3132319 0.30556276
0.23961948 2.3016093 0.28060442
0.51729614 2.3860111 0.27605245
0.41309616 2.3128829 0.242837
0.32918447 2.3285189 0.22064213
0.24309863 2.3239996 0.19736649
0.51650065 2.3805358 0.18580906
0.42002812 2.3474333 0.15885246
0.3289808 2.3229828 0.13425177
0.2426893 2.3126745 0.11055671
0.51516461 2.3707836 0.09578862
0.42050752 2.3435063 0.071246773
0.32992324 2.3211746 0.048209753
0.24475695 2.3230028 0.025481304
0.51653266 2.3754807 0.0069159106
0.42030638 2.3374569 -0.016207438
0.32834229 2.3034146 -0.03744432
0.24428089 2.310358 -0.059578247
0.52067465 2.3885055 -0.08280424
0.42042443 2.3332033 -0.10263988
0.33202118 2.319082 -0.12384328
0.24550247 2.316498 -0.14533339
0.5227527 2.3904188 -0.17273553
0.41909778 2.3188834 -0.18876772
0.32940125 2.2982092 -0.20806357
0.17657611 1.6614228 -0.1659414
0.48278987 2.2047284 -0.24287398
0.23284745 1.2851492 -0.15296613
0.19459875 1.3551755 -0.17329441
0.16173339 1.5182362 -0.20852482
