# .PCD v0.7 - Point Cloud Data file format
VERSION 0.7
FIELDS x y z
SIZE 4 4 4
TYPE F F F
COUNT 1 1 1
WIDTH 1561
HEIGHT 1
VIEWPOINT 0 0 0 1 0 0 0
POINTS 1561
DATA ascii
1.4070817 0.44222227 -0.3140457
2.2296336 0.43570176 -0.50381362
1.5099748 0.35416314 -0.35917789
1.4615216 0.40037718 -0.36624274
1.4409481 0.45341864 -0.38137168
2.2639897 0.44020063 -0.60334891
2.4309294 0.56824774 -0.67841417
1.7608774 0.48188877 -0.51546425
1.7975657 0.56570333 -0.55320317
0 0 0
0.7627154 0.17788942 0.23261471
0.76034951 0.20805801 0.22578876
6.6176758 2.079119 1.9146953
0.79199451 0.15353934 0.2153959
0.80574375 0.18770258 0.21180364
1.0427018 0.28447846 0.26573297
2.0056183 0.62750411 0.49499038
0.85586315 0.16593668 0.19798829
9.0736742 2.1150997 2.018137
2.0598357 0.56113154 0.44114482
1.9763533 0.61679548 0.40705252
10.759324 2.0885751 2.0650015
11.352939 2.6432693 2.0759351
2.0687594 0.56243783 0.36079678
1.982941 0.618016 0.32956174
13.862477 2.6896966 2.1250141
2.1983116 0.5106532 0.31701794
2.090955 0.56729668 0.2833848
1.9974912 0.62060064 0.25363943
2.2846427 0.44286895 0.2631318
2.2226734 0.51627141 0.23584592
2.1574335 0.58440316 0.20971277
1.3704866 0.42506227 0.12119734
2.2926106 0.44403982 0.17812723
2.1966879 0.50950831 0.15021195
1.3530385 0.36615476 0.080208294
1.2842672 0.39785418 0.063921534
2.2721131 0.4393293 0.091370039
2.1842654 0.50550228 0.067089215
1.3059254 0.35269582 0.027815692
1.2676578 0.39212683 0.014475037
2.2052069 0.42607307 0.0063896072
1.8014994 0.41622356 -0.012617918
1.3148624 0.35454321 -0.021916272
1.2856077 0.39716306 -0.034506164
1.7851262 0.34393886 -0.061578464
1.5196388 0.35051498 -0.067518272
1.3375233 0.35977727 -0.07321851
1.2836316 0.39620903 -0.083812661
2.2110205 0.4244749 -0.15893359
1.4989026 0.34490556 -0.12321007
1.422592 0.38242012 -0.1320146
1.378844 0.4251495 -0.14330852
2.3044949 0.44175306 -0.25250334
1.444277 0.33167246 -0.17355549
1.3787611 0.37025046 -0.18070336
1.3815088 0.42560154 -0.19742876
2.2533791 0.43003848 -0.33237568
1.4816101 0.33937484 -0.23473515
1.4134266 0.37897772 -0.24060352
1.3962629 0.42990673 -0.25479236
2.2439597 0.42645511 -0.41769052
1.5201287 0.347444 -0.30039245
1.4259338 0.38139769 -0.29880559
1.4163127 0.43559292 -0.31550348
2.2370613 0.42291951 -0.5048961
1.5491626 0.35334042 -0.36797681
1.4724021 0.39366147 -0.36835706
1.4529694 0.44742209 -0.38381949
2.2695005 0.42683721 -0.60410821
2.4475443 0.55631554 -0.68208551
1.8530604 0.4949145 -0.54154998
1.6707879 0.51456016 -0.51320583
0 0 0
0.75537866 0.17129812 0.23005225
0.75975418 0.2028926 0.22523805
6.5492258 2.013546 1.8912804
0.7948209 0.14903298 0.21591182
0.78987348 0.17890312 0.20733941
0.86707205 0.23085487 0.22060852
2.0196688 0.61832035 0.49751234
0.84152979 0.15780634 0.19444486
0.93981659 0.21300258 0.2087363
2.0537755 0.54596609 0.43912125
1.9791622 0.60437065 0.40685961
10.766141 2.0214295 2.0638905
11.30269 2.5585616 2.0638373
2.0693121 0.54897499 0.36029887
1.9989768 0.60958236 0.33159897
13.884551 2.6056817 2.1259069
2.2332799 0.50435382 0.32160836
2.1049404 0.5572474 0.28481147
1.9993619 0.60775512 0.25339866
2.3136868 0.4337863 0.26616538
2.2257993 0.50262362 0.23584592
2.1734922 0.57446176 0.21092714
1.3978604 0.42416787 0.12338562
2.3021526 0.43124944 0.17865965
2.2231333 0.50128758 0.15180713
2.1660991 0.57194155 0.12819616
1.2952876 0.39257404 0.064348944
2.2521756 0.42115518 0.090462647
2.2126808 0.49779448 0.067866884
1.3274007 0.34977117 0.028226862
1.2681258 0.38376197 0.014453222
2.1969669 0.41051373 0.0063583134
2.1513591 0.48317039 -0.015047328
1.316046 0.34621432 -0.021900181
1.2908912 0.39013487 -0.034583073
1.560241 0.29069307 -0.053758435
1.5227356 0.34140262 -0.067561522
1.3686827 0.35916772 -0.074802175
1.2783948 0.38601735 -0.083314516
2.3234289 0.4312906 -0.16682042
1.4805623 0.33113313 -0.12153319
1.4355096 0.37646332 -0.13299645
1.3814267 0.41668108 -0.14330852
2.3042293 0.42706105 -0.25218233
1.4501623 0.32366973 -0.17402078
1.3925233 0.36480054 -0.18221028
1.3717617 0.41340014 -0.19566962
2.2481897 0.4147675 -0.33122858
1.4855939 0.33070695 -0.2350404
1.4166801 0.37054768 -0.24076577
1.4026476 0.42246777 -0.25547963
2.2378268 0.4110789 -0.41607159
1.5404451 0.34215552 -0.30398655
1.4140216 0.36892959 -0.29582945
1.4217687 0.42773974 -0.31612825
2.2242482 0.40637779 -0.50143206
1.5484481 0.34319583 -0.36729997
1.4710277 0.38363841 -0.36741737
1.4723982 0.4435322 -0.38822559
2.2701733 0.41255784 -0.60360205
2.4556234 0.54232776 -0.6833967
1.8644438 0.48571858 -0.5439955
1.6160342 0.48686135 -0.49546048
0.76724195 0.13849622 0.24086238
0.76296866 0.16810381 0.23204528
0.75912422 0.19774236 0.22468735
0.79941225 0.2404189 0.2304233
0.81093132 0.14690886 0.22003917
0.788118 0.1734286 0.20659536
0.90042907 0.23382902 0.22872615
2.02156 0.60535789 0.49705383
0.85207772 0.15437834 0.19665952
0.87620199 0.1929401 0.19434069
9.4483795 2.4497418 2.0169222
1.9894146 0.594181 0.40821001
10.784143 1.9563843 2.0650015
11.367214 2.4999461 2.0727792
2.0926902 0.54145491 0.36378407
2.0197153 0.60238642 0.33441973
13.912927 2.5227323 2.1278415
2.2314963 0.48958012 0.32091287
2.148643 0.55473179 0.29025868
2.0154238 0.5991534 0.25496361
18.069916 3.2732325 2.0764043
2.2492449 0.49343294 0.23800492
2.1904736 0.56459367 0.21223493
1.3526728 0.40140873 0.11917737
2.3184917 0.41960156 0.17972445
2.1920536 0.48016471 0.14948083
2.208241 0.56859779 0.1304813
1.3120375 0.38887674 0.065061294
2.2045686 0.39826852 0.088450611
2.2401063 0.48954344 0.068614647
1.3498569 0.34684488 0.028658591
1.2733332 0.37682495 0.014485946
1.979008 0.3572343 0.0057210596
2.1923862 0.47827303 -0.015313471
1.3365474 0.34285313 -0.022205915
1.2942194 0.38249007 -0.034608707
1.4852725 0.26730627 -0.051117912
1.5091829 0.32865158 -0.066869475
1.3960142 0.35719889 -0.076174699
1.2864827 0.3798618 -0.083688125
2.2700651 0.40699217 -0.16280657
1.5000999 0.32585096 -0.12297051
1.4599866 0.3733232 -0.13504942
1.3868208 0.40904149 -0.14360502
0 0 -0
1.449209 0.31413439 -0.17367181
1.3812783 0.35281202 -0.18045221
1.3780739 0.40609562 -0.19621089
2.2789476 0.40599883 -0.33538687
1.5745325 0.34037924 -0.24877653
1.4256201 0.36355492 -0.24190144
1.4080485 0.41468826 -0.25599506
2.2616153 0.40111938 -0.42002901
1.5223582 0.32834944 -0.30001411
1.4713513 0.37425998 -0.30733722
1.4243665 0.41900787 -0.31612825
2.2276611 0.39289197 -0.50164855
1.5819544 0.34045225 -0.37474528
1.4846585 0.37747934 -0.37023643
1.4769521 0.43503729 -0.38871515
2.2745676 0.39895481 -0.60410821
2.458905 0.52725011 -0.6833967
2.5389774 0.64483583 -0.73963821
1.6180706 0.47666526 -0.49517882
0.76901853 0.13394986 0.24115756
0.76304835 0.16321863 0.23176055
0.75939155 0.19284412 0.22441201
0.74630946 0.21946418 0.21472472
0.82990015 0.14509171 0.22494039
0.78632516 0.16798235 0.20585132
0.84536374 0.21400116 0.21440092
2.0420508 0.59786534 0.50118065
0.888551 0.15536164 0.20485365
0.8649447 0.18490411 0.19158858
9.5145044 2.4046798 2.0278499
1.9930229 0.581963 0.40821001
10.795945 1.8901772 2.0650015
11.39293 2.4324121 2.0747077
2.105535 0.53101575 0.36544368
2.0186329 0.58860004 0.33363619
13.941781 2.439703 2.1299248
2.2499552 0.47917914 0.32313854
2.1616223 0.54395723 0.29155561
2.0505207 0.59591806 0.25893611
18.085745 3.1616116 2.0759549
2.2522302 0.47962254 0.23800492
2.203553 0.55356836 0.21316905
1.3761644 0.39920884 0.121029
1.2444924 0.21735118 0.096365161
2.1920307 0.46608293 0.14928143
2.2155614 0.55600959 0.13070981
1.31248 0.38026294 0.064966314
1.2157043 0.21192977 0.048722792
2.2655573 0.48055953 0.069302589
1.3839644 0.34657037 0.029337024
1.2775425 0.36956054 0.014507762
1.3220886 0.23028518 0.0038178328
2.1982145 0.46543321 -0.015333944
1.3366858 0.33416077 -0.022173731
1.31575 0.38009048 -0.03512143
1.7547209 0.30469579 -0.060325902
1.4681623 0.31029531 -0.064966328
1.4010864 0.3493512 -0.076333068
1.2974194 0.37445176 -0.084248535
18.06319 3.1242146 -1.2940729
1.4620808 0.30821037 -0.11969662
1.4641826 0.36483949 -0.13522793
1.3979099 0.4030053 -0.14449452
6.9915738 1.2072539 -0.76350158
1.4472215 0.3044185 -0.17320652
1.4036341 0.34936199 -0.1830893
1.3700666 0.39461577 -0.19472238
5.4064889 0.92898643 -0.79480517
1.501147 0.31488618 -0.23687187
1.4488919 0.36003584 -0.24547076
1.4115131 0.40631333 -0.25616685
2.2650037 0.38740069 -0.42020893
1.5493335 0.3242318 -0.30493239
1.4698147 0.36428177 -0.30654359
1.4203305 0.40836835 -0.31467047
2.2435045 0.38150725 -0.50467962
2.2487078 0.46952611 -0.5319984
1.5105339 0.37420583 -0.37610945
1.471208 0.42355251 -0.38651213
2.2769728 0.38499081 -0.60410821
2.4724863 0.51431447 -0.68628132
2.4522693 0.60682136 -0.7132808
1.6117444 0.46407306 -0.49236208
0 0 0
0.77717614 0.16126022 0.23574662
0.76056051 0.18818095 0.22441201
0.78377342 0.22526535 0.22510174
0.82505846 0.13903354 0.22339264
0.78828967 0.16335097 0.20609933
0.80517638 0.19857885 0.20389575
2.0541031 0.58773416 0.50324404
0.89429557 0.15071698 0.20596097
0.86032116 0.17840277 0.19031839
9.5338345 2.347425 2.0288615
2.0380726 0.58156985 0.41669828
10.810246 1.8243895 2.0655568
11.395108 2.3598654 2.0724287
2.1317372 0.52373314 0.3694267
2.0279052 0.57782668 0.33457643
13.971115 2.3565791 2.1321571
2.2547927 0.46576527 0.32341674
2.1591408 0.52926713 0.29077744
2.0684631 0.58739293 0.26074183
18.065609 3.0439758 2.0714607
2.2804585 0.4710255 0.24067798
2.2030396 0.53909057 0.21279541
2.1455355 0.60814673 0.18836085
0.83872902 0.14118667 0.064877257
2.220257 0.45786375 0.15100954
2.2102029 0.5402711 0.13019566
1.3224773 0.37437919 0.065346234
0 0 0
2.2547565 0.46382967 0.068883844
1.4618274 0.35655108 0.03094059
1.2999932 0.36742604 0.014736832
0 0 0
2.1912334 0.44992512 -0.0152657
1.342597 0.3268989 -0.022238096
1.3045882 0.36820847 -0.034762524
18.049564 3.0202184 -0.6198808
1.2419966 0.25454435 -0.05488833
1.4847176 0.36054218 -0.080767348
1.3141016 0.37054691 -0.085182548
0 0 -0
1.399488 0.28605837 -0.11442646
1.4799445 0.35913694 -0.13647756
1.3984407 0.39388075 -0.14429685
6.9910035 1.1630265 -0.76264566
1.4276522 0.29116631 -0.1706474
1.4163572 0.34331363 -0.18447064
1.3848611 0.38969073 -0.19648153
5.4238038 0.8977347 -0.79652584
1.6366985 0.33284876 -0.25793391
1.4357285 0.34742552 -0.24287491
1.4168247 0.39844489 -0.25668228
2.2741325 0.3746148 -0.42146811
2.2095349 0.44826004 -0.43432054
1.476786 0.356406 -0.30753562
1.4425839 0.4052 -0.31904379
2.2631452 0.37057385 -0.50857681
2.261095 0.45765212 -0.53425449
1.5392591 0.37131262 -0.38268727
1.4747125 0.4147799 -0.38675687
2.2907507 0.37287751 -0.60714519
2.3393762 0.47166911 -0.6485188
2.4203937 0.58319658 -0.70295519
1.7494162 0.49210939 -0.53348613
0.78286618 0.12648381 0.24499483
0.77721119 0.15629952 0.23546189
0.76917762 0.18531202 0.2266148
0.75358677 0.2115922 0.21605511
0.83638662 0.13567013 0.22623019
0.79307628 0.15927403 0.20709139
0.80732393 0.19386138 0.20413449
8.1397514 2.2750621 1.9907372
0.89809126 0.14569531 0.20662536
0.84415245 0.16965431 0.18650778
9.5642481 2.2927635 2.0323017
2.0529449 0.57221496 0.41901329
10.817357 1.7573944 2.0648162
11.394895 2.2869959 2.0697985
2.1675193 0.51844275 0.37506932
2.0371215 0.56696165 0.33551669
12.773993 2.0741265 1.9474832
14.940024 2.9906504 2.1402538
2.2086425 0.5270564 0.29700285
2.0997703 0.58238441 0.26423281
0.81606787 0.13235961 0.093478076
2.2764781 0.45565742 0.23995832
2.2140541 0.52740848 0.2135427
2.1693935 0.60055333 0.19012831
0.8218627 0.133167 0.06350822
2.2827098 0.45615891 0.15506394
2.2290165 0.53039718 0.13110971
1.3199358 0.3649267 0.065108784
0 0 0
2.2506981 0.4486182 0.068674468
2.156585 0.51200879 0.04557826
1.3051149 0.3602407 0.014769557
0.84306407 0.13620968 0.00242953
2.1851261 0.43471551 -0.015204284
1.3241462 0.31381264 -0.021900181
1.3135689 0.36205614 -0.034941975
0 0 -0
1.4718596 0.29225534 -0.064966328
1.4898174 0.35211441 -0.080925718
1.3327087 0.36698124 -0.086241111
0 0 -0
2.1922736 0.43410918 -0.1790259
1.478243 0.34913367 -0.13612053
1.4209802 0.39083454 -0.14637236
7.0166616 1.1230942 -0.76467848
2.2498376 0.44448784 -0.26859224
1.4251961 0.33621106 -0.18534967
1.3805385 0.37934837 -0.1955343
5.4321418 0.86490476 -0.796956
2.2360148 0.44045952 -0.35195008
1.4474381 0.34087142 -0.24449731
1.4173429 0.38922217 -0.25633866
4.3186278 0.68421113 -0.79958415
2.2324779 0.43867004 -0.43829301
1.5247446 0.35809416 -0.31705931
1.4261782 0.39116669 -0.31487873
2.2846644 0.35971734 -0.51290697
2.2829809 0.44751772 -0.5387668
1.5509714 0.36408228 -0.38503647
1.4790996 0.40623698 -0.38724643
2.2949071 0.35911381 -0.60765135
2.2645624 0.4421427 -0.62701517
2.4464135 0.57360685 -0.70947659
1.7662814 0.4851782 -0.5377112
0.79023641 0.12270404 0.24706104
0.78286028 0.15244383 0.23688549
0.76749235 0.17993067 0.22578876
0.76695627 0.21027777 0.21951412
0.83052099 0.1294937 0.22442448
0.80449903 0.15643887 0.20981954
0.79525965 0.18581091 0.20079194
8.1826677 2.2330186 1.9978446
0.90474951 0.14108348 0.20795415
0.85573024 0.16652505 0.18883647
9.5542936 2.2284741 2.0272427
2.0677786 0.56269926 0.42132825
0.82044536 0.12812807 0.15645352
11.39615 2.2145936 2.0675194
11.98377 2.7887383 2.0706813
2.0548584 0.55833602 0.33786738
0.81680262 0.12748618 0.12440559
14.96976 2.9011848 2.141923
2.2379131 0.51954877 0.30050462
2.115761 0.57286233 0.26579776
0.83060998 0.12949273 0.095051028
2.2665362 0.43922055 0.23862179
2.2259779 0.5158363 0.21438344
2.182657 0.5898304 0.19096996
0.81576777 0.12704757 0.062975816
2.2315862 0.43172041 0.15140833
2.2312565 0.51648504 0.13105258
1.3443305 0.36280689 0.066201054
0.80964166 0.12583297 0.032350358
2.2259278 0.42949733 0.067836978
2.2074192 0.5097903 0.046585631
1.3275764 0.35768875 0.014998627
0.83400244 0.12949982 0.0024010811
2.19168 0.42205599 -0.01523158
1.7976166 0.41438881 -0.02968834
1.3148005 0.35372972 -0.034916341
0.81186664 0.12562737 -0.027827099
1.356873 0.26077992 -0.059819195
1.5104411 0.34721714 -0.081928708
1.3416823 0.36061037 -0.086676985
0 0 -0
2.2604883 0.43322018 -0.18437591
1.4580307 0.33492804 -0.13406757
1.4223905 0.38185018 -0.14627352
0 0 -0
2.313982 0.44242552 -0.27592066
1.4330339 0.32879105 -0.18610312
1.3857111 0.37164038 -0.19594026
5.3991933 0.82572252 -0.79136384
2.2668288 0.43209782 -0.35637617
1.4918237 0.34167665 -0.25163591
1.4197044 0.3805182 -0.25633866
4.3480296 0.66154671 -0.80426115
2.2312689 0.42422992 -0.43753636
1.5068473 0.34414893 -0.31289271
1.4247723 0.38139677 -0.3140457
3.5504246 0.53670561 -0.79631561
2.2512264 0.42696601 -0.53064466
1.5399092 0.35153028 -0.3817476
1.4834375 0.39765587 -0.38773602
2.2980242 0.34516948 -0.60790443
2.2700775 0.42877659 -0.6278019
2.4414427 0.55665976 -0.70703113
1.821125 0.48824576 -0.55348486
0.79380947 0.11827535 0.24794658
0.77247638 0.14550804 0.23346888
0.77514297 0.17671379 0.22771622
0.75985134 0.20332529 0.21711943
0.84467715 0.12639704 0.22803591
0.80925202 0.15221593 0.21081159
0.78880924 0.17920673 0.19888192
8.1858683 2.1800132 1.9953225
0.87859416 0.13148804 0.20175317
0.86538011 0.16289842 0.19074178
9.5477314 2.1652596 2.0229931
2.0541222 0.54546809 0.4178558
0.81538498 0.12221748 0.15534262
11.403717 2.1435351 2.0664673
12.067985 2.7303877 2.0822988
2.0630188 0.54698265 0.33865091
0.80094433 0.11998152 0.12187582
15.025239 2.8163927 2.1473479
2.2420261 0.50602573 0.30063429
2.1413116 0.56570148 0.26856649
0.83237171 0.12454081 0.09516339
2.2603893 0.42365587 0.23769648
2.2349288 0.50348109 0.21494392
2.1910529 0.57769698 0.1913908
0.82146269 0.12277667 0.063356102
2.2979434 0.42994723 0.15572859
2.2256174 0.50081199 0.13053843
1.485628 0.39117652 0.073039614
0.80348045 0.11983097 0.032074194
2.2069042 0.41179755 0.067178942
2.2270894 0.49995908 0.046935122
1.3046018 0.34292674 0.014715017
0 0 0
2.1961946 0.4089663 -0.015245229
2.1699076 0.48620746 -0.035786923
1.34402 0.3527616 -0.035634153
0 0 -0
1.0598445 0.19695798 -0.046670217
1.5057211 0.33641851 -0.081559189
1.3506277 0.35414314 -0.087112859
0 0 -0
2.256243 0.41807064 -0.18381695
1.4853323 0.33161816 -0.13638832
1.4458848 0.37866172 -0.14844787
0 0 -0
2.2805161 0.42153922 -0.27161667
1.4398659 0.32107154 -0.18673101
1.4004263 0.366391 -0.19769938
7.7649889 1.1388195 -1.1370747
2.2772129 0.41961345 -0.35759717
1.5093029 0.33594677 -0.25423175
1.4058099 0.36756355 -0.25341791
4.3208585 0.63031143 -0.79850483
2.2637687 0.41603324 -0.44340041
1.5366789 0.34105515 -0.31864661
1.4270856 0.37264737 -0.3140457
3.7043765 0.53675008 -0.83009082
2.2480545 0.41209081 -0.52929103
1.5353945 0.34060138 -0.38010311
1.5055482 0.39369732 -0.39287645
3.0450933 0.43829265 -0.80480272
2.2698176 0.41431972 -0.62701517
2.4363558 0.53979528 -0.70458555
1.8565764 0.48555961 -0.56334335
0.80208713 0.11448243 0.25030798
0.79033077 0.14385544 0.2385938
0.77996701 0.172786 0.22881763
0.76481545 0.19963293 0.21818373
0.84256768 0.12080047 0.22726202
0.82446796 0.14984608 0.21453181
0.79463524 0.17540991 0.2000757
0.90347332 0.23468059 0.21986836
0.87359262 0.12526414 0.20042439
0.89040232 0.16195801 0.19603428
9.5292768 2.0996811 2.0163152
2.0783277 0.53826618 0.42209995
0.82098317 0.11791059 0.15626837
11.481556 2.0853102 2.0782146
12.075843 2.6543834 2.0808051
2.1036279 0.54395682 0.34476262
0.79872894 0.11464328 0.12142938
15.054905 2.7264407 2.1491563
2.2499318 0.49332124 0.30128279
2.1793506 0.56146812 0.27290016
0.81443155 0.11675204 0.093028672
0 0 0
2.2438118 0.49103546 0.21550439
2.1974516 0.56498647 0.1916433
0.80936915 0.11589658 0.06236735
1.4453232 0.26125282 0.097837172
2.233525 0.48821244 0.13082407
2.2010405 0.56513119 0.10803974
0.80815732 0.11546396 0.032232001
1.2030647 0.2168557 0.036580522
2.2232773 0.48479348 0.046791214
1.3144305 0.33690158 0.014802282
0.8335489 0.11897299 0.0023953915
2.228188 0.40079388 -0.015449955
2.1650338 0.47118294 -0.035658192
1.3180739 0.3373206 -0.034890704
0 0 -0
0 0 -0
1.5019015 0.32590264 -0.08124245
1.3895197 0.35524324 -0.089479037
0.82470953 0.11671278 -0.058799088
2.2528784 0.40316516 -0.18333785
1.3958404 0.30265853 -0.12799792
1.4452884 0.36904421 -0.14815137
0 0 -0
2.2459052 0.400906 -0.26719636
1.4602314 0.3162201 -0.18911694
1.4170489 0.36146465 -0.19972916
5.4246006 0.76160556 -0.79365808
2.3060157 0.41030723 -0.361718
1.5315899 0.33105749 -0.25763884
1.4338131 0.36550102 -0.25805676
4.3129539 0.60215503 -0.79634625
2.2517762 0.39956179 -0.44056293
1.533952 0.33058742 -0.31765455
1.4748417 0.37546647 -0.32404187
3.5731828 0.49537516 -0.79999626
2.2610931 0.40015674 -0.53177279
2.3717484 0.51088399 -0.58636427
1.5229681 0.38828459 -0.39679298
3.0381413 0.41828057 -0.80227184
2.2618632 0.39854258 -0.62413055
2.4640841 0.5300985 -0.71165043
1.8409258 0.46941718 -0.55770993
0.8112945 0.11072152 0.25296456
0.78931022 0.13867161 0.23802435
0.78759146 0.16941209 0.23074511
0.78657788 0.20016634 0.22403744
0.84137869 0.11536581 0.22674611
0.82823437 0.14528656 0.21527584
0.79189849 0.16971684 0.19912067
0.87092727 0.22053112 0.2116147
0.85695446 0.11751673 0.19643804
0.91159415 0.1600405 0.20047998
0.87528807 0.18723708 0.18495706
10.088296 2.5468192 2.0456798
0 0 0
11.454376 2.0078521 2.0710258
12.079364 2.5775619 2.0786476
2.1145875 0.53297001 0.34601632
0.80529541 0.11054712 0.12232224
15.096714 2.638447 2.1527731
2.2393386 0.47661674 0.29946703
2.1971972 0.55171174 0.27470583
0.82497716 0.11310225 0.094152205
18.079252 3.1593788 1.8969455
2.2662606 0.4813959 0.21737266
2.2018433 0.55173469 0.19172744
0.8159923 0.11173987 0.062823698
0.82960784 0.14470676 0.056096856
2.2179227 0.47056171 0.12973863
2.2219088 0.55597967 0.10889456
0.79895031 0.10915048 0.031837486
0.81932789 0.1425011 0.024885522
2.2408822 0.47424769 0.047099594
1.3572185 0.33900753 0.015260421
0.82039189 0.11196309 0.0023555632
0.90445924 0.156966 -0.0062646014
1.8812461 0.39734742 -0.030943459
1.3133291 0.32753339 -0.034711253
0.81998342 0.11147004 -0.028030219
0 0 -0
1.4823751 0.31215408 -0.08008109
1.4410646 0.35901558 -0.092654705
0.83430684 0.11285368 -0.059432853
0 0 -0
1.3382165 0.28157809 -0.1225531
1.44656 0.35992885 -0.14805253
0.80500966 0.10866185 -0.087413229
6.502224 1.1195575 -0.77274066
1.4679695 0.30847847 -0.18987039
1.4173172 0.352285 -0.19945852
7.7008901 1.0330504 -1.125747
5.1293283 0.88022202 -0.803716
1.5123461 0.31719747 -0.25406954
1.4159511 0.35170934 -0.25444877
4.2980413 0.57320917 -0.79292846
2.2599926 0.38673136 -0.44169793
1.5388297 0.32177085 -0.31824979
1.468574 0.36429057 -0.32216758
3.5442166 0.46921289 -0.79285151
2.2731092 0.38791424 -0.53402889
2.2873044 0.47802767 -0.56475151
1.5328497 0.38080266 -0.39875126
3.0857329 0.40555617 -0.81416678
2.2680717 0.38530302 -0.62517947
2.499321 0.52165449 -0.72088909
2.422045 0.60179341 -0.73262799
0.8233279 0.10722205 0.25650662
0.78258508 0.13254525 0.23574662
0.78861612 0.16457634 0.23074511
0.77095014 0.1911604 0.21924804
0.84781861 0.11095326 0.22829387
0.84152782 0.14230168 0.21850002
0.80148172 0.16663364 0.20126946
0.86942893 0.21448366 0.21092688
0.84218866 0.11023143 0.19289464
0.92123163 0.15591183 0.20238529
0.8697083 0.18047008 0.18354054
10.06848 2.4762003 2.038542
0.81652206 0.10706045 0.15515746
11.456774 1.9358914 2.0692728
12.103643 2.5051947 2.0801411
2.155225 0.52916968 0.35212803
0.80301708 0.10521843 0.12187582
0.81539392 0.13735554 0.11615182
2.058687 0.4249801 0.27495459
2.2082555 0.54010648 0.27566889
0.81087655 0.10610429 0.092466898
0.83080906 0.13993734 0.087079987
2.2642958 0.46647686 0.21690558
2.2100272 0.53939533 0.19214827
0.81962866 0.10711857 0.063051872
0.82260823 0.1382903 0.05556513
2.2471709 0.46237653 0.13128109
2.2262487 0.54257232 0.10894205
0 0 0
0.81525785 0.13664496 0.024735969
2.2359147 0.45888093 0.046935122
1.3767619 0.33492795 0.015456766
0.79032314 0.10292384 0.0022673719
0.86398154 0.14448598 -0.0059779859
1.3576376 0.27806261 -0.022302462
1.3648568 0.33150196 -0.036018692
0.81173182 0.1052797 -0.027725542
0.81791568 0.13647412 -0.035900168
1.0831105 0.22114642 -0.058437549
1.4645786 0.35534382 -0.094024606
0.83597285 0.10785998 -0.059503268
0.8712036 0.1448967 -0.070747972
1.2960033 0.26440224 -0.11853644
1.4574454 0.35315526 -0.14894204
0.81157798 0.10448208 -0.088055186
6.5128903 1.0802897 -0.773206
1.4853885 0.30263433 -0.1918796
1.4367859 0.34777761 -0.20189424
5.4472814 0.69673783 -0.7956655
5.0878301 0.84099621 -0.79639012
1.7289296 0.35156226 -0.29008704
1.4199976 0.34347782 -0.25479236
7.652493 0.97282451 -1.41065
2.2361636 0.36854562 -0.43659052
2.2429612 0.45465928 -0.46328753
1.4878948 0.35940647 -0.32591614
3.6506696 0.46053141 -0.81601787
2.2735238 0.3736434 -0.53357768
2.2835259 0.46263301 -0.56310701
1.5398693 0.37253004 -0.39997515
3.0641644 0.38361034 -0.80783969
2.2732501 0.3718465 -0.62596619
2.4298437 0.49161416 -0.69996625
2.4508722 0.59301329 -0.74023312
0.8296594 0.10287362 0.25827768
0 0 0
0.79526466 0.16087806 0.23239721
0.78054178 0.18846254 0.22164275
0.83889604 0.10455415 0.22571428
0.84334129 0.13729113 0.21874803
0.80629683 0.16248003 0.20222448
0.85085332 0.20437095 0.20611225
0.84381688 0.1051824 0.1931161
0.91927713 0.14978482 0.20175019
0.88136023 0.17725421 0.1857665
10.086347 2.41506 2.0391209
0.81716365 0.10204835 0.15515746
11.477181 1.8669802 2.0708506
12.127489 2.4326265 2.0816348
2.1805248 0.52121651 0.35573235
0.80953509 0.10102394 0.12276868
0.80351377 0.13028924 0.11434346
2.2634923 0.45279625 0.30193126
2.222151 0.52907598 0.27699304
0 0 0
0.82281518 0.13340423 0.086154699
2.2964063 0.45842183 0.21970798
2.2191122 0.52720666 0.19265325
0.78860748 0.098146759 0.060618024
0.82147139 0.13292152 0.0554322
2.2793386 0.45443559 0.13299495
2.2188449 0.52636594 0.10841966
0.81411213 0.10106125 0.032389808
0.81016016 0.130685 0.024556506
2.2406495 0.44554299 0.046976242
1.3817103 0.32716519 0.015489491
0.80582571 0.099918351 0.0023100451
0.82536089 0.13282663 -0.0057050185
1.5427183 0.30611882 -0.025311524
1.4106438 0.3334702 -0.037172314
0.81533819 0.10066441 -0.027827099
0.79506332 0.12765187 -0.034862094
1.0726916 0.21217126 -0.057804082
1.5201553 0.35896605 -0.09744934
0.82077765 0.10078337 -0.05837658
0.84550059 0.13529576 -0.06859199
2.3186808 0.45824119 -0.21181247
1.4460253 0.34100822 -0.14755836
0 0 -0
0 0 -0
2.2853315 0.45102873 -0.29485163
1.4282843 0.33645609 -0.20040575
0 0 -0
5.1016788 0.81115872 -0.79776371
2.2451425 0.44220152 -0.37623703
1.4479692 0.34085315 -0.25943121
7.7227721 0.93364358 -1.4225223
2.2684479 0.35958362 -0.44245464
2.2380147 0.43937767 -0.46170026
1.5091145 0.35474643 -0.33008119
3.6689358 0.43998253 -0.81948191
2.3027174 0.36394474 -0.53989488
2.2796447 0.44730276 -0.56146258
1.5289134 0.35996377 -0.39654821
3.067421 0.36491606 -0.80809277
2.2754889 0.35789111 -0.62596619
2.3062625 0.4518986 -0.66355497
2.479682 0.58390188 -0.74783832
0.82078618 0.09666349 0.25532594
0.79172897 0.12411949 0.23802435
0.80189723 0.15710434 0.23404932
0.78074503 0.18344918 0.22137666
0.82992727 0.098268755 0.22313468
0.84608203 0.13241349 0.21924406
0.81490344 0.1590175 0.20413449
0.82839572 0.19360836 0.20038053
0.82217312 0.097365171 0.18802243
0.9056955 0.14187266 0.19857468
0.87762499 0.17090699 0.1847547
10.079951 2.3482282 2.0348766
0.82167786 0.097495571 0.15589808
0.80344051 0.12563944 0.14482453
12.158644 2.3613639 2.084456
2.2433243 0.5216974 0.36544836
0.81406772 0.096520551 0.12336392
0.80234116 0.12505153 0.11406526
16.186787 3.1348865 2.1565778
2.221487 0.51453513 0.27651152
0 0 0
0.82460105 0.12850618 0.08625751
2.2737601 0.43941101 0.21727926
2.2213345 0.51335615 0.19256909
0.82286185 0.097286537 0.063203983
0.82029963 0.12757188 0.055299267
2.2624786 0.4366574 0.13185239
2.2541518 0.52015299 0.10998683
0.80479348 0.094893962 0.031995293
0.80798346 0.12525213 0.024466775
2.2305782 0.42932966 0.046708982
2.196367 0.50585002 0.02458684
0 0 0
0.82121921 0.1269957 -0.0056708977
2.2034392 0.42318889 -0.036108747
2.141403 0.4923647 -0.056348104
0 0 -0
0.81064236 0.12505586 -0.03551089
1.2142272 0.23243348 -0.065352924
1.512602 0.34739774 -0.096826658
0.81048167 0.09447483 -0.057601981
0.86404902 0.13283163 -0.070029311
2.287209 0.43745664 -0.20868839
1.4044441 0.32211858 -0.14311086
0.80292296 0.093366481 -0.086985253
0.81288463 0.124603 -0.096316323
2.2861071 0.43662551 -0.29460049
1.4341849 0.32857099 -0.200947
0 0 -0
5.0948362 0.77804977 -0.79593223
2.2681689 0.43229687 -0.37964413
1.4740405 0.33745822 -0.26372644
0 0 -0
4.1393275 0.63013482 -0.80659539
2.2531862 0.42801505 -0.46427962
1.5236579 0.3483136 -0.3327885
3.6541061 0.4154768 -0.81558484
3.1033893 0.47099188 -0.72692907
2.2852113 0.43385062 -0.56216735
2.1189573 0.48517954 -0.54880315
3.0955591 0.34901437 -0.81492603
2.2728713 0.34320185 -0.62465501
2.2806261 0.43236151 -0.6554032
2.4813473 0.56824744 -0.74727494
0.84225398 0.09395577 0.26181978
0.802903 0.1208284 0.24115627
0.80284613 0.15218104 0.23404932
0.77997655 0.17822571 0.22084451
0.83243483 0.093390003 0.2236506
0.84975255 0.12765126 0.21998809
0.81777227 0.15437463 0.20461202
0.81627983 0.18550198 0.19717078
0.80821878 0.090687506 0.18470049
0.87465543 0.1315171 0.19158858
0.88443142 0.1666065 0.18596886
10.095127 2.2865515 2.0350697
0.81737781 0.091903009 0.1549723
0.8071171 0.12114567 0.14535053
12.17678 2.2874436 2.08512
2.2329965 0.50487351 0.36325443
0.81071389 0.091082096 0.12276868
0.80407274 0.12027259 0.11420436
16.240805 3.0420794 2.161247
2.2275078 0.50154889 0.27687266
0.81861711 0.091825329 0.093141027
0.82045525 0.12270844 0.085743457
2.280328 0.42618284 0.2176529
2.2341647 0.50190073 0.19341074
0 0 0
0.81909323 0.12224167 0.055166338
2.236654 0.41745481 0.13019566
2.2611997 0.50718641 0.11017679
0.8103258 0.090508647 0.032192551
0.80774814 0.12014502 0.024436865
2.2007344 0.40959808 0.046030551
2.2374854 0.50088304 0.025012257
0.82388633 0.091906808 0.0023584079
0.82495046 0.12239467 -0.00569137
2.2590797 0.41951901 -0.036977675
2.1717007 0.48532069 -0.057065912
0.83339864 0.09252616 -0.0284026
0.81238276 0.12022576 -0.035554145
1.222504 0.22625084 -0.065722451
1.5078865 0.33658803 -0.096390784
0.81104612 0.089500025 -0.057601981
0.85400027 0.12592788 -0.069150954
2.3113971 0.42739859 -0.2106521
1.4073654 0.31371152 -0.1432097
0 0 -0
0.80872053 0.11889058 -0.095734693
2.3014259 0.42493173 -0.29623297
1.4584178 0.3247174 -0.20405932
0 0 -0
5.096581 0.74634421 -0.79547435
2.2833943 0.42069581 -0.38175327
1.5107017 0.33610937 -0.26991156
0 0 -0
4.2062731 0.61394286 -0.81889093
2.252878 0.41365069 -0.46368438
1.5391337 0.34192768 -0.33570406
0 0 -0
3.4282191 0.49879023 -0.8022843
2.27827 0.41806629 -0.55981815
2.4786985 0.55156553 -0.64108628
0 0 -0
2.8670664 0.41494808 -0.7872436
2.2747164 0.41679865 -0.65295762
2.4576261 0.54696649 -0.73910648
0.83141243 0.087584868 0.25827768
0.80742443 0.11644693 0.24229512
0.80660158 0.14777172 0.23487538
0.77540922 0.17218275 0.21924804
0.83010989 0.087975048 0.22287671
0.84668434 0.12188275 0.21899603
0.82443595 0.15039961 0.20604454
0.80884844 0.17860104 0.19510737
0.79130477 0.083876446 0.18071415
0.85803378 0.12363882 0.18777798
0.90374315 0.16450886 0.18981369
10.1128 2.2254093 2.0358412
0.80619979 0.085640267 0.15275049
0.80394733 0.11563037 0.14464921
12.16536 2.2081065 2.0808051
12.902157 2.834038 2.096
0.81519085 0.086523421 0.12336392
0.80479556 0.11533663 0.11420436
16.296242 2.94908 2.1661754
2.2450902 0.49105346 0.27867836
0.81916511 0.086800665 0.093141027
0.82414663 0.11809518 0.086051889
1.1982776 0.21635184 0.11424442
2.2479112 0.49051949 0.19433655
0.82300222 0.087076522 0.063127927
0 0 0
1.2340509 0.22249943 0.071753286
2.268173 0.49415293 0.11036675
0.81086588 0.085534878 0.032192551
0.80748057 0.11504553 0.024406955
2.1441655 0.38547271 0.044797041
2.2287912 0.48459524 0.024881357
0.8194623 0.086325981 0.0023441836
0.80291522 0.11409483 -0.0055344137
2.2812946 0.40918013 -0.037299499
2.172684 0.47156221 -0.057014644
0.82301688 0.086264752 -0.028030219
0.81112683 0.11495843 -0.03546764
0 0 -0
1.5138249 0.32817528 -0.096639857
0 0 -0
0.8300814 0.11720147 -0.067154676
2.3433909 0.41846073 -0.21332988
1.3937025 0.30170155 -0.14162835
0 0 -0
0.80156672 0.11281871 -0.094804108
6.1472282 1.0960536 -0.79037315
1.4884671 0.32183498 -0.20798354
0 0 -0
5.0951924 0.71423495 -0.79455864
2.2577591 0.40166506 -0.37704825
1.5242904 0.32933006 -0.27197325
0 0 -0
4.1778684 0.58363879 -0.81264853
2.2524786 0.39930627 -0.46308914
1.5392907 0.33206478 -0.33528754
0 0 -0
3.4321799 0.47788003 -0.80250984
2.2721782 0.40255308 -0.55770385
2.4488664 0.52917844 -0.63251889
0 0 -0
2.9833086 0.41309926 -0.81845015
2.2412198 0.39646316 -0.64263201
2.4590602 0.53147113 -0.73854315
0.81386936 0.080690734 0.25266936
0.81856954 0.11293161 0.24542703
0.81033313 0.14332202 0.23570144
0.7924701 0.17087577 0.22377135
0.81140643 0.080961414 0.21771754
0.84261775 0.11602456 0.21775597
0.83873242 0.14769588 0.20938708
0.82420522 0.17669523 0.19854639
0.80247831 0.080084726 0.18315023
0.84134895 0.11596956 0.18396738
0.89701927 0.15760477 0.18819483
10.11475 2.1608565 2.0335262
0 0 0
0.80756766 0.1110978 0.1451752
12.181593 2.13393 2.0813029
12.88453 2.7474036 2.0903585
0.81570643 0.081519872 0.12336392
0.79665816 0.10918614 0.11295243
0.81267339 0.14192283 0.10790671
2.28302 0.48469049 0.283012
0.81374967 0.081180878 0.092466898
0.81992823 0.11236085 0.085537836
0.8170501 0.1423492 0.077813253
2.2635515 0.47940132 0.1954307
0.81756783 0.081432089 0.062671579
0 0 0
0.83113611 0.14459407 0.048273511
2.2574806 0.47733346 0.10970189
0.8153528 0.080952778 0.032350358
0.8111425 0.11049349 0.024496686
0.81564665 0.14147404 0.017022464
2.2375929 0.47214922 0.024946807
0.82694232 0.081986852 0.0023640976
0.80657274 0.1095699 -0.0055548861
0.84532702 0.14627258 -0.013806285
1.7979478 0.37869242 -0.047119111
0.82651448 0.081507437 -0.028131776
0.80884683 0.10957691 -0.035337877
0.80793554 0.13929422 -0.043339863
1.2452693 0.26196685 -0.079391636
0 0 -0
0.82090634 0.11077297 -0.066356167
0 0 -0
1.3974752 0.29355341 -0.14182602
0.82924432 0.080987573 -0.089660086
0.80716562 0.10856021 -0.095385723
6.120595 1.0525973 -0.78610361
1.5165955 0.31818891 -0.21163714
0 0 -0
7.6786041 1.0283726 -1.1964166
2.2280874 0.38229746 -0.37169433
1.4992857 0.31431136 -0.26716262
0 0 -0
4.1181059 0.54955035 -0.80035293
2.2606828 0.38646874 -0.46427962
1.7643566 0.36930242 -0.38381049
0 0 -0
3.4466362 0.45835271 -0.80521727
2.2774799 0.38909477 -0.55840862
2.4795866 0.51991272 -0.63961756
0 0 -0
2.9848304 0.39465976 -0.81818789
2.2616351 0.38577843 -0.64779478
2.4735439 0.51873583 -0.74192315
0.80673838 0.07498797 0.25030798
0.83540392 0.11003494 0.25026724
0.81119728 0.13834721 0.23570144
0.79067314 0.16541788 0.22297314
0 0 0
0.83755088 0.11009464 0.2162679
0.84153765 0.14287183 0.2098646
0.81765008 0.17004913 0.19671226
0.80392557 0.075250186 0.18337171
0.83816886 0.11029493 0.18312058
0.90472829 0.15324262 0.18961133
10.116288 2.0963635 2.0312111
0.81306046 0.076291345 0.1538614
0.80628186 0.10588419 0.14482453
12.209044 2.0616078 2.0837922
12.948537 2.6780958 2.0980372
0.81619126 0.076513261 0.12336392
0.80124074 0.10480966 0.11350884
0.81059557 0.13643993 0.10751762
2.2859511 0.47067299 0.283012
0 0 0
0.81369817 0.10642476 0.084818169
0.82576323 0.13865212 0.078560553
2.2840199 0.46911201 0.19694567
0 0 0
0 0 0
0.82609999 0.13850112 0.04793074
2.2613456 0.46367344 0.10974938
0.81583416 0.075948343 0.032350358
0.79891944 0.1038395 0.024107849
0.81649935 0.13646667 0.017022464
2.2169363 0.45360008 0.02468501
0.82344699 0.076541074 0.0023527183
0 0 -0
0.79393703 0.1323681 -0.01295345
1.5064012 0.30764461 -0.03942829
0.82998461 0.076710448 -0.028233336
0.81544888 0.10538012 -0.035597395
0.81764102 0.13580681 -0.043814968
1.3289988 0.27107638 -0.084622145
0.82546961 0.075741038 -0.058517415
0.81563872 0.10497048 -0.065877058
0.82437885 0.13679287 -0.074888609
0 0 -0
0.82279474 0.07526391 -0.088911131
0.80190563 0.1028474 -0.094687775
6.2414517 1.0339931 -0.80079597
1.5117228 0.30749479 -0.2106899
0.82891095 0.075137779 -0.12059014
0 0 -0
4.7070889 0.77794528 -0.78443557
2.12483 0.43185744 -0.37815109
0 0 -0
4.1067882 0.52241307 -0.79751545
2.26688 0.37322709 -0.46507323
2.2257302 0.45163664 -0.48356375
0 0 -0
3.4455175 0.43670592 -0.80431473
2.2913339 0.37700683 -0.56122768
2.2898505 0.46547997 -0.58992666
0.82976657 0.072981894 -0.21790414
2.9421966 0.37066859 -0.80586267
2.2715569 0.373142 -0.64996868
2.3882947 0.48557848 -0.71544605
0.79766464 0.069210604 0.24735622
0.8427214 0.10574235 0.25226027
0.81203085 0.1333672 0.23570144
0.79639679 0.1615213 0.22430351
0.79308915 0.069315694 0.21255836
0.83628815 0.10471274 0.21577187
0.84910697 0.13880219 0.21153587
0.83776146 0.16887574 0.20129761
0 0 0
0.82525331 0.10344809 0.18015677
0.90275192 0.14721556 0.18900426
10.101064 2.0286491 2.0256169
0.81449223 0.071386866 0.15404655
0.80300879 0.10044615 0.14412321
0.81177926 0.1319585 0.13841054
12.92599 2.5908306 2.0917687
0.81861556 0.071676269 0.12366153
0.80776483 0.10062585 0.11434346
0.81435382 0.13193938 0.10790671
2.3364997 0.46615514 0.2889106
0.82062405 0.071707807 0.093141027
0.81828415 0.10192177 0.085229412
0.82561553 0.13342388 0.078467138
2.2927191 0.45625558 0.19745067
0.81850559 0.07139314 0.062671579
0 0 0
0.82496297 0.13311158 0.047816481
2.2788439 0.45270884 0.11046173
0.81429386 0.070768021 0.032271452
0.8173973 0.10114495 0.024646239
0.82324392 0.13240671 0.017145814
2.2334099 0.44271067 0.024837727
0.83485997 0.07243792 0.0023840121
0.82075852 0.10125545 -0.0056436006
0.80855572 0.12971139 -0.013178728
1.2817272 0.25357816 -0.033506356
0.82147813 0.070843473 -0.02792866
0.81608015 0.10037464 -0.035597395
0.81550062 0.13031457 -0.043656599
1.2072668 0.23854029 -0.076776378
0.81597996 0.069824144 -0.057813238
0.82022512 0.10044851 -0.066196464
0.82225198 0.13126098 -0.074620828
2.3255165 0.4587751 -0.23542133
0.83017576 0.070805371 -0.089660086
0 0 -0
0 0 -0
2.2786345 0.44894788 -0.31718504
0.82738411 0.069883682 -0.12030336
0.79270846 0.096278355 -0.12331989
4.7556272 0.75602001 -0.79173642
2.2482622 0.44259691 -0.39962718
0 0 -0
7.6680746 0.92765892 -1.487964
2.2613831 0.35808444 -0.46348599
2.2322984 0.43872583 -0.48439679
0 0 -0
3.4616735 0.41718832 -0.80747342
2.2974443 0.36354804 -0.56216735
2.2841017 0.44973513 -0.58772355
0.82730603 0.06765262 -0.21714488
2.9626205 0.35478875 -0.81084526
2.2804577 0.36024815 -0.65187073
2.3450992 0.46183047 -0.70164418
0 0 0
0.83478755 0.09954793 0.2496978
0.81758177 0.12913205 0.2370782
0.803994 0.15793227 0.22616605
0.7925365 0.064369872 0.21230039
0.833067 0.099121563 0.21477981
0.85473913 0.13434343 0.21272963
0.84546924 0.16503754 0.2029025
0.80770433 0.065615997 0.18403609
0.82102019 0.097804449 0.17909828
0.87751597 0.13757813 0.18354054
0.8996039 0.17493658 0.18018343
0 0 0
0.80361003 0.095517084 0.14412321
0.80575347 0.1259093 0.13724881
12.963943 2.5157969 2.0953732
0.82593918 0.067213438 0.12470321
0 0 0
0.81514806 0.12694012 0.10790671
2.301302 0.44446796 0.28421581
0 0 0
0.824821 0.097600274 0.085846268
0.82838637 0.1286611 0.078653969
2.2876477 0.44067127 0.19677733
0 0 0
0.82344842 0.097175553 0.055232801
0.82379109 0.12774123 0.047702227
2.2688272 0.43626559 0.10984436
0.81072879 0.065448657 0.032113645
0.82296616 0.096710883 0.024795791
0.81613636 0.12613128 0.016981347
2.2095695 0.42391142 0.024543205
0.82731462 0.066671334 0.0023612529
0.82434392 0.096566498 -0.0056640734
0.80340719 0.12383383 -0.013082179
2.2866948 0.43783921 -0.059706423
0 0 -0
0.82561153 0.096408255 -0.035986673
0.81727195 0.12545983 -0.04370939
0 0 -0
0.81937623 0.065052919 -0.058024492
0.81686544 0.094953433 -0.065877058
0.82304192 0.12621325 -0.074620828
2.3361073 0.4459902 -0.23621199
0.82762104 0.065474935 -0.0893391
0.81100029 0.093913041 -0.095618367
0.79433483 0.12159819 -0.10171628
2.2725871 0.43328792 -0.31596717
0.81891751 0.064110458 -0.11901286
0.836483 0.096390493 -0.13003534
4.763103 0.72727269 -0.79222322
2.2548065 0.42953089 -0.40031439
0.79636568 0.06172967 -0.14606577
0.79604322 0.091350406 -0.15435784
3.8701065 0.58850306 -0.79244989
2.2445569 0.4268477 -0.48647931
0.81086981 0.062070947 -0.18035099
0 0 -0
2.3111637 0.35119668 -0.56498647
2.2839608 0.43516728 -0.58698922
0 0 -0
2.9455647 0.33442649 -0.8056004
2.557606 0.38796023 -0.73039955
2.2951059 0.43737382 -0.68587053
0.78702015 0.058565985 0.24381413
0.84109795 0.0950699 0.2514061
0.82976437 0.12584282 0.24038242
0.80968291 0.15389606 0.22749645
0.79195309 0.059433445 0.21204244
0.81729436 0.092162669 0.21056359
0.85746783 0.12938611 0.21320716
0.85029185 0.16056921 0.20381957
0.80225718 0.060220812 0.18270731
0.81674904 0.092216663 0.17803977
0.84057575 0.12650712 0.1756485
0.90548193 0.17032035 0.18114801
0.82706618 0.0622718 0.15626837
0 0 0
0.80943656 0.12140171 0.13774671
12.991755 2.4385731 2.0974104
0.82534993 0.062070142 0.1245544
0 0 0
0.81100833 0.12120329 0.10725823
17.769285 3.3189516 2.1919889
0 0 0
0 0 0
0.82128221 0.12240168 0.077906661
2.3099005 0.43027571 0.19846062
0.81733137 0.061194547 0.062519468
0.8200627 0.091677718 0.054966938
0.82159686 0.12224337 0.047530841
2.2410178 0.41667575 0.10837217
0.81709391 0.060918637 0.032350358
0.82056379 0.091327742 0.024706058
0.81887293 0.12141446 0.017022464
2.2052467 0.40906915 0.02446685
0 0 0
0.82889646 0.0919476 -0.00569137
0.81008661 0.11977939 -0.013178728
2.3040829 0.42652962 -0.06009097
0.81929547 0.060536403 -0.027827099
0.82916665 0.091669939 -0.036116436
0.82000226 0.12073371 -0.043814968
1.4956992 0.27650443 -0.094896354
0.82473421 0.060388319 -0.05837658
0.82139599 0.090375528 -0.066196464
0.82084465 0.12072601 -0.074353054
2.34565 0.43291196 -0.23690382
0.82701564 0.06032319 -0.089232109
0.8095867 0.088718683 -0.095385723
0.7931028 0.11643375 -0.10146513
2.2849467 0.42113131 -0.31732038
0 0 -0
0.81937432 0.08932817 -0.1272881
4.8621807 0.7118994 -0.80796051
2.2632127 0.416758 -0.40134525
0.80654138 0.057542127 -0.14786461
0.83563727 0.090702705 -0.16192439
3.9318368 0.57322943 -0.80435455
2.2509816 0.41377461 -0.48731232
0.81415695 0.057299994 -0.1810005
0.83200645 0.08992663 -0.19380264
3.1625979 0.46074247 -0.77242219
2.2846811 0.42079374 -0.58649969
0.83386469 0.057897273 -0.21866338
0.86546236 0.092885621 -0.23654023
2.7904088 0.40577418 -0.79615718
2.2713246 0.41841573 -0.6779837
0.80261636 0.054776706 0.24853693
0.84071225 0.089805409 0.2511214
0.82481289 0.11991923 0.23873031
0.81535238 0.14979595 0.22882684
0 0 0
0.81880778 0.087248757 0.21081159
0.85632336 0.12384436 0.21272963
0.85796386 0.1565721 0.20542444
0.8094216 0.055766307 0.18425755
0.81535584 0.086996071 0.17761637
0.83939761 0.12106747 0.17524378
0.90361375 0.16423482 0.18056926
0.82449156 0.056992538 0.15571292
0.80374265 0.085544169 0.14394787
0 0 0
13.012304 2.3598685 2.0983505
0.81979614 0.056596089 0.12366153
0.81440401 0.086262032 0.11503898
0 0 0
17.781498 3.2084484 2.1910257
0.81387436 0.056044541 0.092242196
0.82892412 0.087785378 0.086154699
0.82103217 0.11721936 0.077813253
2.2909219 0.41221222 0.19660902
0.82167053 0.056451719 0.062823698
0.82854801 0.087482341 0.055498663
0.82430828 0.11748157 0.047645099
2.0970442 0.37660936 0.10129616
0.81645542 0.055835724 0.032310907
0.82210279 0.086395606 0.024735969
0.81861258 0.1162471 0.017001905
2.1890142 0.39217991 0.024259597
0 0 0
0.83740133 0.087693043 -0.0057459637
0.80882627 0.11452618 -0.013146545
2.312561 0.41343957 -0.060244787
0.81965148 0.055508163 -0.027827099
0 0 -0
0.81479466 0.11486361 -0.043498233
0 0 -0
0.82011282 0.054993015 -0.058024492
0.82689244 0.08584851 -0.066595718
0.82156998 0.11568713 -0.074353054
0 0 -0
0.81447351 0.054386407 -0.087841198
0 0 -0
0.80264413 0.11280785 -0.10259531
2.2865124 0.40692961 -0.31718504
0.81569248 0.05379574 -0.11843931
0.83367044 0.08571399 -0.12942484
4.8498449 0.67972398 -0.80520248
2.2589376 0.40165609 -0.40014258
0 0 -0
0.79417378 0.081274949 -0.15379034
3.9876986 0.55640733 -0.81506866
2.2515519 0.3996132 -0.4868958
0.8213132 0.052741293 -0.18251607
0.82575822 0.084128648 -0.19222334
3.3829362 0.47166309 -0.82551444
2.2929475 0.40778589 -0.58796841
0 0 -0
0.8602553 0.08699096 -0.23496678
2.8147695 0.39169571 -0.80240691
2.2455089 0.3994301 -0.66953355
0.77718997 0.04825237 0.24056721
0.82503295 0.083013728 0.24628119
0.84648097 0.11777048 0.24478807
0.82005268 0.14546366 0.22989114
0.78683728 0.049347639 0.21049468
0 0 0
0.84648609 0.11712368 0.21010335
0.86370146 0.15214913 0.20657079
0.8068288 0.050615571 0.18359317
0 0 0
0.83042347 0.11457624 0.17322019
0.89783919 0.15750048 0.17921884
0.82874882 0.052179486 0.15645352
0.81404841 0.081592746 0.1457012
0.8069576 0.11092239 0.13708286
13.032376 2.281004 2.0992908
0.82308877 0.051751003 0.12410797
0 0 0
0.81636417 0.1117799 0.10777701
0 0 0
0.81618631 0.051174007 0.092466898
0 0 0
0 0 0
0.86297327 0.14981668 0.073980875
0.82200146 0.05140898 0.062823698
0 0 0
0 0 0
0.82378197 0.14273147 0.039749127
0.81079888 0.05045265 0.032074194
0 0 0
0.8232733 0.11175995 0.017084138
0.8326059 0.14390112 0.0092173377
0.83738428 0.051989578 0.0023868568
0.83493817 0.082259059 -0.0057254909
0.81545877 0.11036577 -0.013243091
0.80780619 0.13931005 -0.021021586
0.82695943 0.05090769 -0.02806407
0.83122337 0.081585474 -0.036159687
0.8214221 0.11066192 -0.043814968
0.83407795 0.14363088 -0.052803222
0.83238286 0.050687429 -0.058869507
0 0 -0
0.81041896 0.10904998 -0.073281936
0 0 -0
0.81479192 0.049387868 -0.087841198
0.81951147 0.079641752 -0.096432641
0.79152215 0.10629626 -0.1010884
5.7038612 0.97904569 -0.79039156
0.81304348 0.048612528 -0.11800914
0.80663699 0.077935845 -0.12515138
4.9331441 0.66056079 -0.818344
2.2691274 0.38912001 -0.40151706
0.79540306 0.046944812 -0.14570601
0.80540937 0.077434167 -0.15587114
4.0094967 0.53438902 -0.81883848
2.2742069 0.38925561 -0.49126914
0.81674814 0.047417894 -0.18143353
0.81171203 0.077668391 -0.18883912
3.4271975 0.45641443 -0.83561611
2.2848945 0.39190593 -0.58527577
0.83547831 0.047715276 -0.21891648
0.84348059 0.080069378 -0.23024647
2.8199818 0.37479761 -0.80322212
2.2668314 0.38888916 -0.67516696
0.77747136 0.043482713 0.24056721
0.80739379 0.076237656 0.24087153
0.85290545 0.11333413 0.24644017
0.82283014 0.14075425 0.2304233
0.78712523 0.044518765 0.21049468
0.8014915 0.075468637 0.20609933
0.84044981 0.11103719 0.20843206
0.86941683 0.1476616 0.20771712
0.80809778 0.045719095 0.18381463
0.8085779 0.076249801 0.17592278
0.82528532 0.10871132 0.17200601
0.89008141 0.15051603 0.1774826
0.82611006 0.0469262 0.15589808
0 0 0
0.8134895 0.10673865 0.13807862
0.79371405 0.13390651 0.12771888
0.82240355 0.046643659 0.12395916
0 0 0
0 0 0
0.82141572 0.13782817 0.10099833
0.81152457 0.04588455 0.091905132
0 0 0
0.82043421 0.10687798 0.077626422
0.8265301 0.13827106 0.070782609
0 0 0
0.82757223 0.077123024 0.055365734
0.82766789 0.10761464 0.047759354
0.82365704 0.13750967 0.039701637
0.82705569 0.046371721 0.032705422
0 0 0
0.81997746 0.10619271 0.017001905
0.82656866 0.13763991 0.0091409814
0.82770318 0.046292096 0.0023584079
0.8314442 0.076766685 -0.0056981943
0.8210789 0.10600024 -0.013323549
0.8116042 0.13484234 -0.021098493
0 0 -0
0.83170837 0.076483645 -0.036159687
0.82010472 0.10536519 -0.04370939
0.83888203 0.13916372 -0.053052291
0.8326782 0.045579072 -0.058869507
0.82887632 0.07578557 -0.066675566
0.8081091 0.10369499 -0.073014155
0.82858509 0.13720295 -0.083415449
0.81210119 0.044225272 -0.087520219
0.81998467 0.074611828 -0.096432641
0.78625518 0.10068151 -0.10033495
5.7117167 0.94435233 -0.79066223
0.82024419 0.043993905 -0.11901286
0.82776958 0.074854068 -0.12835647
7.7188749 0.98540467 -1.2794331
2.2685564 0.37470797 -0.40100163
0.81630474 0.04315396 -0.14948356
0.82151723 0.073898397 -0.15889776
4.0224228 0.51101238 -0.82082248
2.2833078 0.37640765 -0.49272692
0 0 -0
0.81411403 0.072860047 -0.18929036
3.345077 0.42460576 -0.81494296
2.2929959 0.37882698 -0.58674449
0.85121435 0.043375734 -0.22296578
0.8545295 0.075830668 -0.23313111
2.8174548 0.35688281 -0.80186349
2.2606547 0.37356493 -0.67263192
0.78249484 0.038948912 0.24204309
0.79447776 0.070102535 0.23688549
0.85358477 0.10809866 0.24644017
0.82653165 0.13617291 0.23122153
0 0 0
0 0 0
0.83340752 0.10490796 0.20652205
0.8808732 0.14405218 0.21023908
0.81323272 0.04100538 0.18492195
0 0 0
0.82205003 0.10315767 0.17119657
0.85999733 0.1400065 0.17130931
0.8303082 0.042055242 0.15663868
0 0 0
0.81021512 0.10125601 0.13741478
0.81986737 0.13315026 0.13179335
0.82464945 0.041696478 0.12425678
0 0 0
0.82456219 0.10261057 0.10868488
0.82616609 0.13341853 0.10147985
0.81476808 0.041054282 0.092242196
0 0 0
0 0 0
0.83129805 0.13383049 0.071119271
0.81360775 0.040867694 0.062139176
0 0 0
0.8243494 0.10204355 0.047530841
0.82547146 0.13261165 0.039749127
0 0 0
0 0 0
0.82458276 0.1016487 0.017084138
0.8343091 0.13367294 0.0092173377
0.8269729 0.041162819 0.0023555632
0.83688104 0.072092712 -0.0057323151
0 0 -0
0.81735206 0.13064884 -0.021226674
0.83450937 0.041099932 -0.02830104
0 0 -0
0.82965678 0.10142168 -0.044184491
0.84859037 0.13542946 -0.053612705
0 0 -0
0.83528495 0.071206264 -0.067154676
0.8136735 0.099338084 -0.073460452
0.80680895 0.12851594 -0.081142277
0 0 -0
0 0 -0
0.80163014 0.097654775 -0.10221858
5.7888341 0.9206484 -0.80054045
0.80764753 0.038349934 -0.1171488
0.82328933 0.069358736 -0.12759335
0.83262229 0.10110581 -0.13790491
4.653512 0.73933887 -0.82176125
0.82638031 0.038603414 -0.1512824
0.81119156 0.067954585 -0.15681696
3.9447205 0.47656465 -0.80435455
2.2884724 0.36284995 -0.49335167
0 0 -0
0.82425427 0.068672225 -0.1915465
3.2646284 0.39405537 -0.79473972
2.3048527 0.36627197 -0.58919227
0.83696735 0.037502386 -0.21916954
0.84728485 0.069950745 -0.23103319
2.8167253 0.33924329 -0.80104834
2.2771187 0.36194614 -0.67685705
0.77221918 0.03368881 0.23879616
0.79584843 0.065304793 0.23717022
0.85136861 0.10251435 0.24561411
0.83496821 0.13230573 0.23335016
0.7885775 0.034898892 0.21075264
0 0 0
0.82342929 0.098523259 0.20389575
0.89135599 0.14015646 0.21253176
0.81736588 0.036187232 0.18580781
0.80945271 0.066321559 0.17592278
0 0 0
0.83757424 0.13108574 0.16667931
0.83153242 0.037003465 0.15682383
0 0 0
0.80886263 0.096050143 0.13708286
0.81774151 0.12766014 0.13132322
