# .PCD v0.7 - Point Cloud Data file format
VERSION 0.7
FIELDS x y z
SIZE 4 4 4
TYPE F F F
COUNT 1 1 1
WIDTH 1495
HEIGHT 1
VIEWPOINT 0 0 0 1 0 0 0
POINTS 1495
DATA ascii
7.347929 -1.5414127 1.9221058
7.7035122 -1.316846 1.9214907
8.1027355 -1.0793276 1.9253957
0.89042091 -0.22181602 0.20839708
8.2004452 -1.719054 1.8149048
8.179493 -1.4014432 1.7147987
8.1089668 -1.0860637 1.6085325
0 -0 0
0.94905972 -0.19921017 0.17270239
8.1696625 -1.4040158 1.3950588
8.1186104 -1.0905287 1.2997551
0.93654412 -0.23316705 0.14523907
0.94192123 -0.19820958 0.13520907
7.6832495 -1.3245643 1.0197963
7.650806 -1.0346251 0.93619072
0.97190577 -0.24215104 0.11325229
0.9957673 -0.20955862 0.10517453
7.7005444 -1.3307292 0.73320067
7.6454258 -1.0377023 0.65168816
7.7911777 -1.9424776 0.61249304
7.7423487 -1.6319127 0.52707112
7.6810722 -1.3292972 0.44605869
7.6656265 -1.043033 0.36781001
7.7945123 -1.9459101 0.3171913
7.7747946 -1.6427203 0.23778833
7.7021718 -1.3369642 0.16074716
7.6615014 -1.0457406 0.084352277
7.8109546 -1.9511734 0.022904154
7.7784691 -1.6464752 -0.054259092
7.7160563 -1.3425653 -0.12604269
7.6719313 -1.0500287 -0.19857706
7.843297 -1.9636163 -0.27387011
7.7873816 -1.6513441 -0.34464163
7.7438397 -1.3522737 -0.41555592
7.678092 -1.0527831 -0.48351061
7.8541017 -1.9718577 -0.5716539
7.784523 -1.6549976 -0.63753021
7.7548833 -1.3554575 -0.70550603
7.7210946 -1.0610136 -0.77406371
7.6369781 -1.9196136 -0.8473841
7.6158409 -1.6226091 -0.91198057
7.5607786 -1.3235704 -0.97157884
7.5961752 -1.0457386 -1.0472249
0 -0 -0
0 -0 -0
4.8245368 -0.84648037 -0.80536473
4.5994391 -0.63392478 -0.80973464
4.2369771 -1.0721545 -0.79922444
4.0481129 -0.86683798 -0.79751545
3.9267151 -0.69142747 -0.80713224
3.7669802 -0.52039576 -0.80968815
3.4801929 -0.88420802 -0.79631561
3.4081469 -0.73141724 -0.80724776
3.3360844 -0.58778769 -0.81870174
3.2292099 -0.44495595 -0.8229599
3.042897 -0.77615851 -0.82150614
2.8876476 -0.62198102 -0.80271578
2.8460405 -0.50221467 -0.81599325
2.7365885 -0.37697983 -0.81093276
5.9205623 -1.517609 1.8882312
6.2827091 -1.3565334 1.9090351
6.5417819 -1.1545522 1.9026834
6.8378248 -0.94529933 1.9053825
0.87895024 -0.22471157 0.24222367
7.3241296 -1.5833991 1.9183854
7.6895504 -1.3630722 1.9200583
8.1084919 -1.1307724 1.9283761
0.89187747 -0.22799994 0.20906146
8.1725483 -1.7656237 1.8110943
8.2064161 -1.4579436 1.7222862
8.1147823 -1.1375699 1.6110406
0.91596532 -0.23393637 0.17811632
0.93819696 -0.2029482 0.17094906
8.193903 -1.4599991 1.4007014
8.1303482 -1.1429354 1.3027326
0.91689205 -0.23425829 0.14241166
0.96101075 -0.20839246 0.13813025
7.6798577 -1.3725551 1.0204448
7.6502113 -1.0823845 0.93691301
0.96751356 -0.24737155 0.11291523
0.99057436 -0.21482134 0.10476329
7.7020345 -1.3797094 0.73413479
7.6389146 -1.0845941 0.65168816
7.7655883 -1.9867867 0.6114282
0.99650669 -0.21643566 0.067927711
7.6727715 -1.3764024 0.44605869
7.6689715 -1.0914563 0.36828494
7.8104968 -2.000891 0.31833541
7.7772655 -1.6931589 0.23817718
7.7253113 -1.3898637 0.16140503
7.6707792 -1.094992 0.084526807
7.8308015 -2.0072577 0.022998035
7.7750592 -1.6956635 -0.054306861
7.7214494 -1.392369 -0.12626798
7.6950316 -1.1013319 -0.19934615
7.849493 -2.0164294 -0.27451333
7.7995515 -1.7039999 -0.34563643
7.7530847 -1.4029642 -0.41650614
7.6961865 -1.1034163 -0.48506731
7.8524814 -2.0227497 -0.57242852
7.7888279 -1.7059305 -0.63872802
7.7611213 -1.4056777 -0.70684487
7.7833886 -1.1182756 -0.78098208
7.6250558 -1.9664371 -0.8473841
7.6115623 -1.6705861 -0.91267848
7.5505624 -1.3695834 -0.97132766
7.6219788 -1.0969861 -1.0516903
0 -0 -0
0 -0 -0
4.8639107 -0.88418549 -0.81282783
4.5896125 -0.66129148 -0.80870378
4.2074676 -1.0922 -0.79490715
4.1424432 -0.91365588 -0.8171885
3.9590387 -0.72219205 -0.81467187
3.8111498 -0.55034941 -0.81989259
3.4425814 -0.89717442 -0.78895438
3.3969359 -0.75084364 -0.80566847
3.3477144 -0.61103898 -0.82246047
3.2254591 -0.46462336 -0.8227151
2.9875364 -0.78159237 -0.80783969
2.8526874 -0.63279122 -0.79406184
2.7908373 -0.51015043 -0.80104834
2.7465701 -0.39554214 -0.81459451
0 -0 0
6.259295 -1.3917288 1.9044795
6.5468683 -1.1969177 1.9062629
6.8318963 -0.98723763 1.9053825
0.87288201 -0.22887522 0.24093385
0.86712235 -0.19303939 0.22742851
7.7259326 -1.4184705 1.9312797
8.1206656 -1.183311 1.9329616
0 -0 0
8.1453419 -1.8121281 1.8074954
8.1838322 -1.5057887 1.7194531
8.136775 -1.1916052 1.616828
0.8888455 -0.23282883 0.17311722
0.94846553 -0.21126968 0.17305304
8.2022457 -1.5134693 1.4036887
8.1495657 -1.1966748 1.3069637
0 -0 0
0.95004922 -0.21212722 0.13673921
7.6576414 -1.4171259 1.018629
7.6591387 -1.1316265 0.93883908
0.97847271 -0.25658002 0.11437582
0.99797469 -0.22284631 0.10568857
7.6953816 -1.4273053 0.73432165
7.6616859 -1.135829 0.65421313
1.0367888 -0.272046 0.081762075
0 -0 0
7.6955919 -1.4292895 0.44788677
7.6769505 -1.1406938 0.36899728
7.7942071 -2.0477619 0.31817761
7.7891636 -1.7458756 0.23886512
7.7205696 -1.4379715 0.16148727
7.6935868 -1.1464597 0.084854044
7.8357458 -2.059845 0.023049241
7.7645082 -1.7433385 -0.054306861
7.7196412 -1.4410051 -0.12638062
7.7059255 -1.1511856 -0.1998076
7.8543692 -2.0691381 -0.2751227
7.8006458 -1.7544557 -0.34615549
7.7619977 -1.453819 -0.41745633
7.7218447 -1.1554928 -0.48712218
7.8698196 -2.0787909 -0.57461149
7.7957168 -1.757636 -0.64016533
7.7640977 -1.4554747 -0.70791602
7.8049192 -1.1702918 -0.78384823
7.6176519 -2.0144575 -0.84791899
7.6747971 -1.7338926 -0.92151916
7.6707239 -1.4400495 -0.98790371
7.6356802 -1.1468233 -1.0545321
0 -0 -0
0 -0 -0
4.83706 -0.90999967 -0.80925852
4.5640368 -0.68621802 -0.80492407
0 -0 -0
4.1176076 -0.93470871 -0.81340522
3.9468277 -0.74501622 -0.81308448
3.750639 -0.56512594 -0.80760562
2.9720154 -0.79404581 -0.68221605
1.4543706 -0.33084035 -0.34541538
3.3162034 -0.62633717 -0.81564772
3.1928246 -0.47993779 -0.81512684
2.9593236 -0.79364383 -0.8015126
0 -0 -0
2.8311527 -0.53549242 -0.81354773
2.7497845 -0.41324291 -0.81628454
0 -0 0
6.2319484 -1.4258329 1.8987852
6.5412898 -1.2374233 1.9068136
6.836195 -1.0307196 1.9083095
0.87799257 -0.23598227 0.24273957
0.86969876 -0.19922155 0.22842057
7.7266231 -1.4676613 1.9336669
8.1171007 -1.2337011 1.9338785
0.8908959 -0.23943368 0.20950438
0.93840003 -0.21482103 0.2085246
8.1840582 -1.5578065 1.7214766
8.1409502 -1.2432867 1.619143
0.90163648 -0.24210094 0.1758945
0.9365955 -0.21466599 0.1711244
8.1889305 -1.5630293 1.4030248
8.1528091 -1.2483014 1.3086876
0.92922854 -0.2495967 0.14479263
0.94004351 -0.21595712 0.13548727
7.6536713 -1.4650177 1.0192775
7.6657872 -1.1807164 0.94052434
0.98167801 -0.26386866 0.11493759
0.98689407 -0.22673829 0.10466047
7.637589 -1.4651178 0.72965097
7.6791916 -1.1866231 0.65631723
1.1082792 -0.29808491 0.087542459
1.1124064 -0.25594261 0.07603649
7.6955013 -1.4781768 0.44840094
7.6994195 -1.1923631 0.37042195
7.7969332 -2.099705 0.31880882
7.788044 -1.7958821 0.23916422
7.7214179 -1.4872078 0.16169284
7.6933241 -1.1947192 0.084930405
7.8480639 -2.11465 0.023123208
7.7741265 -1.7956738 -0.054450173
7.7371612 -1.4934614 -0.12681508
7.7095823 -1.2001381 -0.20008959
7.862752 -2.123024 -0.27586743
7.8140683 -1.8079168 -0.34723684
7.7460685 -1.5000894 -0.41708681
7.7274294 -1.2048502 -0.48793164
7.8742476 -2.131732 -0.57587898
7.8158588 -1.8126429 -0.64272058
7.7638216 -1.5047927 -0.70871937
7.7661295 -1.2132448 -0.78068554
7.7548523 -2.1017334 -0.8646099
7.6688509 -1.7820756 -0.92210078
7.6588211 -1.486522 -0.98752695
7.6392674 -1.1953382 -1.0560205
0 -0 -0
0 -0 -0
4.8420396 -0.94173431 -0.81104314
4.5363817 -0.71055079 -0.80080062
0 -0 -0
1.4142662 -0.33018032 -0.27977356
3.9316006 -0.76715475 -0.81090206
3.7374382 -0.58661222 -0.8055231
1.4454074 -0.39569327 -0.33233944
1.404883 -0.32866204 -0.3341347
3.2970338 -0.64369315 -0.81188899
3.1821566 -0.49831954 -0.81316864
1.5159132 -0.41653109 -0.41125926
0 -0 -0
2.828758 -0.5530386 -0.81381941
2.726342 -0.42684236 -0.81008774
0 -0 0
6.211885 -1.4614103 1.8953687
6.5364046 -1.2780901 1.9076397
6.8268847 -1.0721977 1.9075111
0.88025403 -0.24239108 0.24377142
0.86468816 -0.20366578 0.22742851
7.7003202 -1.5116762 1.9293694
8.1180305 -1.284853 1.9359419
0.89035016 -0.24515447 0.20972584
0.91518354 -0.21542442 0.2036555
8.1993284 -1.6129081 1.726738
8.1564255 -1.2969133 1.623773
0.89255393 -0.24554342 0.17441328
0.93142766 -0.21950547 0.17042306
8.1675758 -1.6109563 1.4010333
8.1596251 -1.3006345 1.3110381
0.92386585 -0.25424412 0.14419739
0.93580949 -0.22103815 0.13506997
0.96201146 -0.19026856 0.12826891
7.6868248 -1.2322876 0.94401538
0.99824262 -0.27489975 0.11707231
0.98935658 -0.23370419 0.10507172
1.0186249 -0.20189063 0.097430035
7.7022643 -1.2386239 0.65892637
0 -0 0
0 -0 0
7.7460217 -1.5372224 0.45188576
7.7097092 -1.242444 0.3712768
7.7916088 -2.1496327 0.31912446
7.7904944 -1.8468628 0.23958297
7.724895 -1.537094 0.16196011
7.7075658 -1.2454112 0.085170388
7.8706069 -2.17261 0.023228468
7.8057709 -1.8535063 -0.054750435
7.7709961 -1.5495105 -0.12752309
7.6971393 -1.2466215 -0.19996141
7.8726959 -2.1776235 -0.2766799
7.8203225 -1.8599899 -0.34801537
7.7866578 -1.5575796 -0.41977903
7.7326984 -1.2543197 -0.48874113
7.8773603 -2.1845391 -0.57707614
7.8365874 -1.8681942 -0.64535564
7.7808113 -1.5576812 -0.71112937
7.7418418 -1.2581605 -0.77900541
7.7964177 -2.1644371 -0.87070853
7.7215304 -1.8443263 -0.92977816
7.6408014 -1.5317327 -0.98639679
7.6474361 -1.2447362 -1.0581856
0 -0 -0
1.4407129 -0.34497219 -0.22878282
4.8274632 -0.96967793 -0.80958301
4.562078 -0.74328303 -0.80612671
2.9493198 -0.82383603 -0.55997872
0 -0 -0
3.9585261 -0.79765314 -0.81744957
3.7202542 -0.60732746 -0.80260754
0 -0 -0
3.2650843 -0.78500378 -0.77769232
3.2958808 -0.66448754 -0.81259376
3.1378894 -0.5111326 -0.80264288
1.4686275 -0.41324648 -0.39911127
2.7448707 -0.66211158 -0.76731342
2.8309715 -0.57152784 -0.81544977
2.7104132 -0.44140363 -0.80614436
0.85138375 -0.24064851 0.27333158
6.1944146 -1.4974709 1.8928062
6.5048814 -1.313416 1.9007559
6.8125668 -1.1128232 1.9053825
0.88897902 -0.25067195 0.24660896
0.86624688 -0.2096512 0.22817254
7.6899481 -1.5587031 1.9291307
8.115757 -1.3355885 1.9373177
0.8700577 -0.24532017 0.20529658
0.92049408 -0.22264418 0.20513739
8.1835203 -1.6620185 1.7255238
8.1570272 -1.3483759 1.6255093
0.90048939 -0.25368011 0.17626479
0.91858095 -0.22243603 0.16831908
0.94987673 -0.1934143 0.16313857
8.1758509 -1.3547128 1.3149561
0.91562593 -0.25803053 0.14315572
0.93732262 -0.22747664 0.13548727
0.97734159 -0.19953972 0.13047373
7.7075162 -1.2841613 0.94750637
0.99175525 -0.27967119 0.11651054
0.98693728 -0.23953576 0.10496891
1.0163915 -0.20793743 0.09733662
7.7004161 -1.2868463 0.65943134
7.843082 -2.2130494 0.62161994
7.7933593 -1.8940891 0.53424942
7.7462244 -1.5867256 0.45245707
7.7048965 -1.2902215 0.37141925
7.8244281 -2.2104399 0.3210181
7.7994099 -1.8995967 0.24021108
7.7682028 -1.5953249 0.16307026
7.7135849 -1.2949983 0.085323095
7.8802228 -2.2273903 0.023296745
7.8214526 -1.9080024 -0.054941513
7.7770123 -1.6003878 -0.12778056
7.7110333 -1.2974761 -0.20052542
7.8803415 -2.2318802 -0.27742469
7.8339963 -1.9141048 -0.34913996
7.7886901 -1.6077509 -0.42041251
7.7386351 -1.3040649 -0.48961288
7.9031506 -2.2440033 -0.57996321
7.8346581 -1.9186143 -0.64615411
7.7896399 -1.6092227 -0.7128253
7.8006988 -1.3169038 -0.78572607
7.7906418 -2.2144091 -0.87156451
7.6898117 -1.8867 -0.92733538
7.6244588 -1.5771801 -0.98551774
7.6377006 -1.2913063 -1.057915
7.6881204 -2.192086 -1.1582962
0 -0 -0
4.8204565 -0.99908018 -0.80942076
4.5710301 -0.77356267 -0.808532
2.9498842 -0.84353989 -0.56105804
7.9295926 -1.9541895 -1.573277
3.9209304 -0.81514418 -0.81070358
3.7897456 -0.64256942 -0.81843483
2.9137297 -0.83622783 -0.67225671
3.4181561 -0.84402484 -0.81536984
3.3022096 -0.68687564 -0.81517792
3.137562 -0.53086197 -0.80337727
1.4493304 -0.41743043 -0.39455578
2.8119447 -0.69657612 -0.7872436
2.8123369 -0.5857479 -0.81110215
2.7473886 -0.46474764 -0.81797451
0.86732948 -0.25091279 0.2789399
6.1627812 -1.5299078 1.885973
6.5032878 -1.3546767 1.9026834
6.7904048 -1.1520237 1.9011253
0.87442839 -0.25237116 0.24299753
0.87340564 -0.21706533 0.23040466
7.6973491 -1.6094358 1.9334284
8.0930176 -1.3829014 1.9338785
0.87696844 -0.25308767 0.20728976
0.92385316 -0.22946599 0.20619589
8.1674175 -1.7109957 1.7243098
8.1582708 -1.4000608 1.6274384
0.89041775 -0.2567502 0.17459843
0.90860009 -0.22593001 0.16674109
0.94963712 -0.19944169 0.16330452
8.1819839 -1.4073647 1.3173066
0.92542696 -0.26693252 0.14494143
0.92630029 -0.23082918 0.13409624
0.95960408 -0.2020596 0.12826891
7.701448 -1.3317678 0.94774711
0 -0 0
0.98737925 -0.24606805 0.10517453
1.0219158 -0.21560873 0.097990505
7.7218289 -1.3391789 0.66195625
7.8446822 -2.2655585 0.62283683
7.7912722 -1.9442885 0.53491408
7.7441568 -1.6358764 0.45291409
7.6997867 -1.3379866 0.37156174
7.8539133 -2.2708976 0.32279342
7.7924557 -1.9486297 0.24036063
7.7817421 -1.6479307 0.16356367
7.7271657 -1.3460789 0.085563071
7.8760138 -2.2784796 0.023325196
7.800868 -1.9537716 -0.054880098
7.7905202 -1.6530575 -0.12816674
7.73247 -1.3499233 -0.2012945
7.8991351 -2.2896512 -0.27857566
7.842454 -1.9672419 -0.35004827
7.7943063 -1.6588371 -0.42125717
7.7324538 -1.3518674 -0.48973739
7.8988118 -2.2952375 -0.58066744
7.8411059 -1.9712684 -0.64767128
7.8039732 -1.6621759 -0.71505678
7.8052139 -1.3669748 -0.78701091
7.7415833 -2.2518947 -0.86760569
7.6482334 -1.9263283 -0.9237293
7.5971727 -1.6202086 -0.98325741
7.6228023 -1.3369478 -1.0569677
7.6868763 -2.2428219 -1.1601603
0 -0 -0
4.8209901 -1.0300825 -0.81055641
4.569108 -0.80210644 -0.8090474
2.9512615 -0.86355793 -0.56231725
4.0534463 -1.0253644 -0.80546039
3.9340639 -0.84308946 -0.81447339
3.7992175 -0.66818261 -0.82135034
2.9881656 -0.87747121 -0.69065982
3.4185791 -0.86641842 -0.81672359
3.2627676 -0.69958472 -0.80648577
3.1457055 -0.55211502 -0.80631471
1.4495258 -0.42713585 -0.39531502
1.3916507 -0.35381725 -0.39021268
2.77858 -0.59652877 -0.80240691
2.7047923 -0.47463134 -0.80614436
0.85294729 -0.2524339 0.27480745
0.88713467 -0.22601855 0.27190581
6.5211706 -1.4002055 1.9103931
6.7974486 -1.1961731 1.9051164
0.87286341 -0.2577318 0.24299753
0.87205726 -0.22242036 0.23040466
7.6759372 -1.6541806 1.9305633
8.070962 -1.4301555 1.9306688
0.87539905 -0.25846389 0.20728976
0.91674554 -0.23368189 0.20492569
0.92375046 -0.19944137 0.19527742
8.1891336 -1.4571402 1.6353478
0.89542347 -0.2641553 0.1758945
0.91578215 -0.23369168 0.16831908
0.95417845 -0.20651641 0.16430029
8.215004 -1.4649979 1.3240452
0.94463718 -0.27876323 0.14821528
0.92582589 -0.23675384 0.13423534
0.96125329 -0.20857459 0.128658
7.7019262 -1.3805745 0.9488306
0 -0 0
0.99259675 -0.25384706 0.1058942
1.0205735 -0.22187503 0.097990505
7.7321005 -1.3898835 0.66355538
7.8698397 -2.3252337 0.62595522
7.7965937 -1.9965136 0.5361104
7.7544599 -1.6878217 0.45411378
7.6943808 -1.3857374 0.37170419
7.8867822 -2.3329339 0.32472655
7.814239 -2.0051017 0.2414075
7.783206 -1.6982051 0.16381037
7.7345057 -1.396309 0.085737608
7.8964052 -2.3369794 0.023427611
7.8294101 -2.0120535 -0.05516671
7.7929287 -1.7036041 -0.12837592
7.7466669 -1.4014364 -0.20188412
7.8973942 -2.3417702 -0.27901578
7.8505535 -2.0205548 -0.35095659
7.7956862 -1.7091973 -0.42189065
7.7524939 -1.404447 -0.4915432
7.9170899 -2.3533239 -0.58306164
7.836585 -2.0213351 -0.64831012
7.8033552 -1.7121633 -0.7159493
7.9601912 -1.4445131 -0.80351603
7.729526 -2.2999208 -0.86781967
7.6295381 -1.9714813 -0.92291504
6.1278095 -1.3462071 -0.79414046
7.6943922 -1.3982214 -1.0680639
7.7962532 -2.3267386 -1.1788009
0 -0 -0
4.7914505 -1.0545536 -0.80666262
4.536962 -0.8251909 -0.80423677
3.4255831 -1.0252075 -0.65387815
4.0090599 -1.0403508 -0.79789382
3.8828769 -0.85707223 -0.8049497
3.786386 -0.68990368 -0.81947607
3.5082085 -1.053606 -0.81233716
3.4122555 -0.887133 -0.81649798
3.2735999 -0.72294527 -0.81024456
3.2080801 -0.58337569 -0.8232047
1.4579933 -0.43937168 -0.39835206
1.3735794 -0.35820985 -0.38575462
2.7946007 -0.61792994 -0.80811322
2.7103252 -0.49276337 -0.80867934
0.83766514 -0.25351134 0.27037984
0.8792389 -0.22976111 0.26991281
6.4899287 -1.4352105 1.9037848
6.7643762 -1.233191 1.8979324
0.87126559 -0.26308274 0.24299753
0.87255061 -0.22825739 0.2309007
7.6485791 -1.6974612 1.9262658
8.0677786 -1.4807053 1.9320444
0.87006247 -0.26270288 0.2064039
0.88976449 -0.23262778 0.19920978
0.91868544 -0.20425546 0.19446798
8.1896887 -1.5091386 1.637277
0.89660829 -0.27049604 0.17644995
0.90004462 -0.23556726 0.1656891
0.95770591 -0.21343982 0.16513008
8.1961479 -1.5135829 1.3224781
0.94101548 -0.28398278 0.14791764
0.92435575 -0.24243015 0.13423534
0.96769691 -0.21619838 0.12969555
7.6269383 -1.4154885 0.9406448
7.8468065 -2.3695295 0.92680377
1.0025663 -0.26296106 0.10712792
1.0094771 -0.22595821 0.097056374
7.6910992 -1.4312845 0.66077799
7.866878 -2.3769391 0.62686795
7.8054285 -2.049891 0.53757268
7.7517509 -1.7371169 0.4545708
7.6975169 -1.4351201 0.37227407
7.8742328 -2.3818612 0.3248055
7.817256 -2.0570815 0.24188609
7.7892227 -1.7496551 0.16415988
7.747417 -1.4477817 0.085977584
7.9269018 -2.3990011 0.023561321
7.8285208 -2.0631139 -0.055248603
7.7842803 -1.7518276 -0.12840812
7.7536435 -1.4518867 -0.20229429
7.9106135 -2.3985937 -0.27999753
7.8582935 -2.0740407 -0.3518649
7.8084307 -1.7622749 -0.42315757
7.7447109 -1.4521729 -0.49160546
7.9244528 -2.4085298 -0.58468127
7.8568001 -2.0780475 -0.65102512
7.8131056 -1.7646197 -0.71782386
8.085165 -1.5184931 -0.81705624
7.7580733 -2.360328 -0.87263435
7.5846553 -2.0096092 -0.91896003
7.6231656 -1.7238187 -0.98928499
7.7022214 -1.4485201 -1.0703642
2.8918002 -0.88239801 -0.43805337
0 -0 -0
4.7762284 -1.0819715 -0.80520248
4.5240688 -0.85155582 -0.80286235
4.1745625 -1.2773225 -0.798325
1.5685869 -0.41733757 -0.31268811
3.8144643 -0.86655068 -0.79185462
3.7667031 -0.71022385 -0.81614399
3.5016778 -1.0751121 -0.81233716
2.9784334 -0.79388815 -0.71384346
1.4407178 -0.32745361 -0.35708082
3.1444104 -0.59175205 -0.80778337
1.4608173 -0.45001841 -0.39987051
1.3750845 -0.36762819 -0.38680357
2.7372684 -0.62289387 -0.79262477
2.7213953 -0.51204574 -0.81290448
0.83609384 -0.25864637 0.27037984
0.86207116 -0.23093484 0.26507258
6.4735012 -1.4732981 1.9015819
6.7708907 -1.2773538 1.9019235
0.85763359 -0.2647194 0.23964407
0.87955487 -0.23586524 0.23313282
0.85960853 -0.19631617 0.21678846
8.0489788 -1.5283647 1.9297519
0.8563208 -0.26429784 0.20352487
0.89020836 -0.2385889 0.19963318
0.89927661 -0.20573884 0.19062313
8.2005157 -1.5632195 1.6413282
0.8986879 -0.27715084 0.17719056
0.89858228 -0.24108538 0.1656891
0.93715453 -0.21490388 0.16181087
8.1479025 -1.5564326 1.3162096
0.93736547 -0.28916839 0.14762002
0.92858881 -0.2496399 0.13506997
0.96538585 -0.22190987 0.12956586
0.9954043 -0.19106312 0.12290739
7.871047 -2.4296482 0.93141019
0.98364335 -0.26445904 0.10527734
1.0119526 -0.23304175 0.097430035
7.6645589 -1.4750596 0.65926296
7.8826313 -2.4345803 0.62930179
7.8033018 -2.1005986 0.53830379
7.781806 -1.7940682 0.45697021
7.7631083 -1.4966955 0.37588331
7.9110193 -2.4460707 0.32693589
7.8546691 -2.1185436 0.2434414
7.7900295 -1.800117 0.16440657
7.7275877 -1.4932048 0.085857593
7.9292283 -2.4529138 0.023612529
7.8466058 -2.1194541 -0.055466972
7.7733846 -1.799558 -0.12840812
7.7622552 -1.5028551 -0.20275575
7.9272499 -2.4568505 -0.28111467
7.8656716 -2.1276977 -0.35277322
7.8140068 -1.813992 -0.42405495
7.7464328 -1.5017556 -0.49229038
7.9342928 -2.4648023 -0.58651215
7.866991 -2.1324756 -0.65294147
7.8331761 -1.819739 -0.72068012
8.0786266 -1.5686432 -0.81735277
7.7757249 -2.4179239 -0.87627214
7.687202 -2.087342 -0.93291891
6.1494794 -1.4302933 -0.79916346
7.7252841 -1.5019929 -1.0748297
7.7765608 -2.4251816 -1.1802347
0 -0 -0
4.7464352 -1.1058837 -0.80130869
4.4781446 -0.87139595 -0.79564631
4.1431746 -1.2955736 -0.79382789
0 -0 -0
1.4220804 -0.33225003 -0.29563105
3.7248342 -0.72602487 -0.80802214
3.4614809 -1.0860562 -0.8045429
1.4707766 -0.40171063 -0.35308629
1.432056 -0.33473885 -0.35543638
3.1169269 -0.60640556 -0.80166382
1.4829443 -0.46681657 -0.40670377
1.3802487 -0.37809828 -0.3889015
1.3549843 -0.31709772 -0.39291582
2.7408068 -0.53313118 -0.81966454
0.83631307 -0.26434761 0.2709702
0.86895776 -0.23850361 0.26763505
0.8714596 -0.2039668 0.25635284
6.7742791 -1.3210891 1.9051164
0.85691464 -0.2702674 0.23990203
0.88182765 -0.24228428 0.23412488
0.8659507 -0.20336303 0.21869849
8.0365839 -1.5771612 1.9290639
0.85933304 -0.27101365 0.20463219
0.88213056 -0.24223505 0.19815129
0.92754924 -0.21820489 0.1968963
8.1849937 -1.6123698 1.6401708
0.89228404 -0.28118306 0.17626479
0.89518744 -0.24607255 0.16533841
0.93197906 -0.21974489 0.16114704
0.9718554 -0.19183441 0.15718041
0.95254964 -0.30026576 0.15029861
0.93563205 -0.25769952 0.13632189
0.95435631 -0.22554861 0.12826891
0.99713451 -0.19774656 0.12326852
7.8929496 -2.4895556 0.93579203
1.0107716 -0.2784141 0.10836163
1.0240674 -0.24245793 0.098737814
7.6670918 -1.5243925 0.66027296
7.8799067 -2.4868026 0.63029057
7.8479791 -2.1643555 0.54229176
7.7988238 -1.8484601 0.45862696
7.7586765 -1.5452764 0.37612078
7.9101534 -2.4990809 0.32752761
7.8607917 -2.1720233 0.24403964
7.8031559 -1.8536587 0.16492054
7.7104354 -1.5390265 0.085770331
7.9321446 -2.507247 0.023666581
7.8546567 -2.1734271 -0.055617105
7.8059683 -1.8576375 -0.12913223
7.7636704 -1.5526116 -0.20303775
7.9320345 -2.511781 -0.28182557
7.8986821 -2.1887264 -0.3548494
7.8163276 -1.8651487 -0.42479399
7.7801323 -1.5578808 -0.49503019
7.9285278 -2.5164576 -0.58721632
7.8729677 -2.1860404 -0.65453851
7.8431764 -1.8728576 -0.72264385
8.0434818 -1.6130958 -0.8147831
1.5909996 -0.50546086 -0.17964114
7.7421889 -2.1533666 -0.94117796
6.1396227 -1.4677682 -0.79903793
7.7042656 -1.5470253 -1.0732059
7.8850627 -2.5122087 -1.1990187
2.8635983 -0.79818767 -0.45909187
1.4327118 -0.34309271 -0.24222593
4.4862351 -0.90157431 -0.79805171
4.1641955 -1.3302507 -0.79940432
2.9271386 -0.81738538 -0.58546257
1.4285922 -0.34302902 -0.29741672
3.8161936 -0.76816708 -0.82884747
3.493799 -1.11979 -0.81363624
1.472037 -0.41177738 -0.35398877
3.2011404 -0.76900226 -0.79567939
3.0703714 -0.61692435 -0.79064858
1.488341 -0.47857225 -0.4089815
1.3853358 -0.3886455 -0.39099941
1.3511418 -0.3249557 -0.39237237
2.724314 -0.54729271 -0.81572115
0.82285529 -0.26565805 0.26713291
0.85917234 -0.24149638 0.26507258
0.87019169 -0.20931013 0.25635284
6.78022 -1.3654852 1.9091076
0.84972245 -0.27374268 0.23835427
0.89524513 -0.25188866 0.23809309
0.85902262 -0.20730571 0.21726596
8.0057678 -1.6221904 1.9240201
0.86229497 -0.27777636 0.2057395
0.88815439 -0.24975975 0.1998449
0.92333716 -0.2232018 0.19628921
8.1643686 -1.6604104 1.6380486
0.90083188 -0.28996491 0.17830148
0.90408522 -0.25449511 0.16726708
0.92582107 -0.22429828 0.16031724
0.97066003 -0.19779399 0.15718041
0 -0 0
0.93117398 -0.26262918 0.13590458
0.95391798 -0.23163417 0.12839861
0.99103963 -0.20286572 0.12266663
7.8917127 -2.5425098 0.93747735
0.97170788 -0.27407971 0.10435206
1.0128863 -0.2463837 0.097803682
1.0317497 -0.21172448 0.088962212
7.9185934 -2.5525432 0.63462585
7.8547158 -2.2181637 0.54368752
7.806735 -1.9010019 0.45976949
7.7490487 -1.5928537 0.37612078
7.936512 -2.5610719 0.32926354
7.8684764 -2.226202 0.24469768
7.8149462 -1.907192 0.16541395
7.7400222 -1.5943776 0.086206652
7.9432569 -2.5644729 0.023746237
7.8719597 -2.2303042 -0.055835478
7.8051066 -1.9081109 -0.12930922
7.7686834 -1.60325 -0.20342229
7.9250312 -2.5631716 -0.28213024
7.8947153 -2.2398775 -0.35528192
7.8241343 -1.9178284 -0.4258498
7.7899752 -1.6096287 -0.49627554
1.6036532 -0.51984036 -0.11900654
7.8968 -2.2449372 -0.65765268
7.85572 -1.9268788 -0.72487527
8.0149174 -1.6585878 -0.81290525
1.5935425 -0.51705468 -0.1802831
7.6390376 -2.1752622 -0.93024343
7.6913075 -1.8886859 -1.0024705
7.7014194 -1.5956758 -1.0741531
2.8524818 -0.92812806 -0.43461204
2.8719518 -0.81954002 -0.46122861
1.4094995 -0.34669214 -0.23865663
4.487371 -0.93048447 -0.79925436
4.1980381 -1.3695053 -0.80749911
2.9371741 -0.8396489 -0.58848917
3.8797061 -0.95679832 -0.80891788
3.7683144 -0.7826184 -0.81947607
3.489646 -1.1421175 -0.81428576
2.9314725 -0.83945817 -0.70617259
3.1803184 -0.78467131 -0.79168576
3.1007063 -0.642838 -0.79946077
1.4927299 -0.49010989 -0.41100615
1.3949827 -0.40060109 -0.39440852
1.3435166 -0.33185536 -0.390742
2.719965 -0.56380373 -0.81543952
0.80759859 -0.26621523 0.2627053
0.85214698 -0.24517332 0.26336429
0.87449074 -0.21602891 0.25800496
6.7434006 -1.401179 1.9011253
0.82508236 -0.27140394 0.2319053
0.89554459 -0.25791323 0.23858912
0.85961962 -0.21303988 0.21774347
7.9908991 -1.6702864 1.9228736
0.85964799 -0.28275737 0.20551804
0.87439555 -0.25169018 0.19709279
0.90864378 -0.22555991 0.19345617
0.93726659 -0.19661094 0.1882859
0.89716852 -0.29487315 0.17793117
0.89777654 -0.2586748 0.16639042
0.92347044 -0.22973673 0.16015129
0.97039467 -0.20394926 0.15733713
0 -0 0
0.94762212 -0.27355626 0.13854755
0.94766825 -0.23628353 0.12775013
0.98977619 -0.20894282 0.12266663
7.9307098 -2.6088939 0.94399381
7.8355603 -2.2620904 0.84293836
1.0577213 -0.26417425 0.10228752
1.053828 -0.22300221 0.090982169
7.9226718 -2.6076291 0.63622308
7.8610868 -2.2721357 0.54508328
7.8036408 -1.9510468 0.46028364
7.7322893 -1.6389211 0.37578833
7.9329853 -2.613786 0.32977638
7.8738704 -2.2800004 0.24529587
7.8234625 -1.9602104 0.16584568
7.7565026 -1.6474487 0.086501166
7.9454165 -2.6191118 0.023800291
7.8936629 -2.2888677 -0.056087978
7.8029499 -1.9584002 -0.12947014
7.7860775 -1.656713 -0.2041401
7.9252882 -2.6170781 -0.28270575
7.9009714 -2.2941265 -0.35619023
7.8480506 -1.9748166 -0.42780298
7.7926421 -1.6601001 -0.49708503
1.5975924 -0.52873015 -0.11879528
7.8886199 -2.2950196 -0.65813178
7.8505101 -1.9767467 -0.72550011
8.086338 -1.7251759 -0.82120723
1.5912838 -0.52713543 -0.18039009
7.6694098 -2.2348754 -0.93559432
7.7113199 -1.9438459 -1.0066144
7.7108626 -1.6470401 -1.0768595
1.71499 -0.56967652 -0.2618283
2.864023 -0.83631551 -0.46077073
4.6764822 -1.1807432 -0.79303437
7.6683908 -1.6392277 -1.3675977
4.1718235 -1.3893328 -0.80408126
2.9527009 -0.86372036 -0.59265083
3.8946652 -0.98587704 -0.81328291
3.7175341 -0.79589719 -0.80947989
3.4992399 -1.1690766 -0.81818295
2.9898405 -0.87605739 -0.72151434
3.1452913 -0.79653454 -0.78416824
3.1896234 -0.68171102 -0.82344943
1.5089579 -0.50571585 -0.41632092
1.4165709 -0.41622612 -0.40122679
1.3694409 -0.34718791 -0.3988938
2.7164545 -0.58048248 -0.81543952
0.81409997 -0.27390769 0.26536188
0.84235018 -0.24796107 0.26080182
0.88339919 -0.22398967 0.26103383
6.7073412 -1.4366744 1.893409
0.84355152 -0.28322691 0.2375804
0.87814784 -0.25874859 0.23437288
0.87147188 -0.22166166 0.22108603
7.983355 -1.7199013 1.9235615
0.86251915 -0.28957862 0.20662536
0.87658483 -0.25815505 0.19793959
0.91483468 -0.23306516 0.19507506
0.93987876 -0.20318753 0.18905756
0.89068395 -0.29880971 0.17700541
0.89145076 -0.26278672 0.16551375
0.92204344 -0.23539871 0.16015129
0.94885445 -0.20550932 0.15404621
8.4373779 -2.8314199 1.3392946
0.95827216 -0.28301194 0.14035591
0.94523996 -0.24184807 0.12762043
0.99235564 -0.21585603 0.12314814
7.9418707 -2.6666794 0.94725209
7.8615994 -2.3219597 0.84725636
1.0117154 -0.25928918 0.097990505
1.0485455 -0.22861509 0.090645507
7.9500008 -2.670799 0.63972169
7.8728323 -2.3279669 0.54687786
7.8089299 -2.0033581 0.46131197
7.7581944 -1.6942197 0.37754548
7.9452109 -2.6719677 0.33095992
7.8827338 -2.3350844 0.24601373
7.8287168 -2.0126581 0.16621572
7.7843447 -1.7033468 0.086926587
7.9491 -2.6745112 0.023860032
7.9024777 -2.344084 -0.056251753
7.8537245 -2.0224488 -0.13051605
7.7943187 -1.7085232 -0.20462719
7.9677992 -2.6854479 -0.28480461
7.9106884 -2.3496745 -0.35727155
7.8589916 -2.0289252 -0.42906994
7.7998567 -1.7117345 -0.49820587
1.5980983 -0.53979975 -0.11907696
7.9059172 -2.3527627 -0.6607669
7.8498054 -2.0278687 -0.7265712
8.1076736 -1.7818089 -0.82446873
1.5757748 -0.53274971 -0.17899919
7.713614 -2.2991984 -0.94269007
7.759758 -2.0067737 -1.0145258
7.7209325 -1.6987933 -1.0797012
1.611174 -0.54619086 -0.24648568
2.8730419 -0.85811561 -0.46306008
4.6147017 -1.1953121 -0.78378665
7.667809 -1.6883676 -1.3693157
4.1641512 -1.415221 -0.80426115
3.9859247 -1.1925559 -0.80148786
3.8847485 -1.0087705 -0.81248933
3.7192667 -0.82016701 -0.8109377
3.4236205 -1.1672127 -0.80216134
3.3698246 -1.0098901 -0.81469303
3.0754304 -0.79895484 -0.76795864
3.0992124 -0.68229926 -0.80117428
1.4820261 -0.5068258 -0.40974075
1.4297013 -0.42963141 -0.40568483
1.4036092 -0.36503083 -0.40949112
2.6847291 -0.59095144 -0.80698937
0.80517453 -0.27641588 0.26300046
0.8435666 -0.25395396 0.26165596
0.87735617 -0.22819592 0.25965706
6.6720428 -1.471988 1.8859588
0.81163567 -0.27806404 0.22906774
0.87376094 -0.26329342 0.23362884
0.87197459 -0.22749501 0.22156353
7.9612484 -1.7663239 1.9208102
0.86441624 -0.29612964 0.20751122
0.8805992 -0.2652199 0.19920978
0.89917493 -0.23496027 0.19203967
0.91658562 -0.20404674 0.18462048
0.89720142 -0.30713367 0.17867178
0.89924765 -0.27109325 0.16726708
0.91294992 -0.23905347 0.15882359
0.95046753 -0.21197246 0.15451634
8.4338799 -2.8879428 1.3415267
0.96030951 -0.2900317 0.14091232
0.94853365 -0.24890175 0.12826891
0.98035651 -0.2195545 0.12182397
7.9488587 -2.7234113 0.9500609
7.8614874 -2.3744681 0.84879857
1.0284009 -0.27030078 0.099765368
1.0296223 -0.23111622 0.089130536
7.9494987 -2.7250257 0.6410147
7.8746367 -2.3811395 0.54800779
7.8399386 -2.0626662 0.46388274
7.7564244 -1.7437631 0.37797287
7.9740329 -2.7362356 0.33285362
7.896956 -2.392101 0.24691103
7.8394222 -2.0667734 0.16670913
7.8049626 -1.7581102 0.087275647
7.993072 -2.7440164 0.024042105
7.9166546 -2.4012363 -0.056456484
7.8527679 -2.0736637 -0.13070916
7.8031921 -1.7607168 -0.20513992
7.9748001 -2.7424121 -0.28565094
7.9248004 -2.4068792 -0.35856915
7.8628058 -2.0814531 -0.42996737
7.8018622 -1.7624202 -0.4990153
1.5815529 -0.54504514 -0.11809111
7.9256635 -2.4116747 -0.66364157
7.8718762 -2.0851777 -0.72978455
8.1917057 -1.8530395 -0.83415449
1.5799956 -0.54500216 -0.17985512
7.7544656 -2.3632789 -0.94943696
7.7233253 -2.047992 -1.0113864
7.7064981 -1.7452606 -1.0791599
1.6049864 -0.55509609 -0.24605551
2.8856814 -0.88121223 -0.46595994
1.656561 -0.43995067 -0.28181276
4.4973454 -1.0192391 -0.80423677
4.1832719 -1.4504124 -0.80965769
3.9700816 -1.2144055 -0.79978544
1.5883322 -0.42286927 -0.33273372
1.4259567 -0.32363737 -0.31133842
3.4698763 -1.2067984 -0.81471878
3.3915093 -1.0391097 -0.8214615
3.0300817 -0.80705297 -0.75785702
1.4278647 -0.32354635 -0.36962211
1.5108594 -0.52706289 -0.41859862
1.4445649 -0.44378012 -0.41066742
1.3604279 -0.36272722 -0.39753515
1.3597101 -0.30805299 -0.40926895
0.79534757 -0.27850923 0.26034391
0.83099806 -0.25574166 0.25823936
0.87036616 -0.23208882 0.25800496
0.88550198 -0.20106532 0.25064522
0.80991423 -0.28303891 0.22906774
0.8730548 -0.26893494 0.23387685
0.8761909 -0.23434649 0.22299604
7.9198947 -1.808207 1.9134737
0.86626524 -0.30271482 0.20839708
0.87241679 -0.26860505 0.19772787
0.88447285 -0.23692554 0.18920662
0.92296797 -0.21141967 0.18616381
0.88695002 -0.30971727 0.17700541
0.89568555 -0.27602592 0.16691642
0.9095611 -0.24413945 0.15849169
0.95588732 -0.21934667 0.1556133
8.4505415 -2.9517026 1.3470327
0.97459751 -0.30088466 0.14327709
0.94890362 -0.25523227 0.1285283
0.96834964 -0.22311391 0.1204998
7.9507599 -2.7786901 0.952308
7.8781343 -2.4323442 0.85219127
1.0142255 -0.27323893 0.09855099
1.0281848 -0.23742951 0.089130536
7.9712191 -2.7872453 0.64413309
7.9113555 -2.4453237 0.55159694
7.8502684 -2.1169708 0.4652538
7.7592034 -1.7944738 0.37863773
7.9825578 -2.7940249 0.33391881
7.9165039 -2.451154 0.24798782
7.8555479 -2.1226604 0.16732587
7.8135099 -1.8104817 0.0874938
7.9968486 -2.8002803 0.024104694
7.9189639 -2.4550967 -0.056579314
7.8640256 -2.1283388 -0.13111144
7.8146386 -1.8137615 -0.20572954
7.9927168 -2.8035324 -0.2869035
7.9280119 -2.4610872 -0.35939094
7.8701253 -2.13515 -0.43107593
7.8152061 -1.8159057 -0.50057203
1.5904127 -0.55903941 -0.11900654
7.9345121 -2.4676607 -0.66563779
7.8752747 -2.1378753 -0.73130202
8.198596 -1.9075526 -0.83603233
1.574746 -0.5540266 -0.17964114
6.7033544 -2.0879745 -0.82229471
7.7498651 -2.1060092 -1.0165349
7.8413548 -1.8264537 -1.0995929
1.6136831 -0.56921345 -0.24791957
2.8962579 -0.90390718 -0.46855456
0 -0 -0
1.4410367 -0.33589324 -0.25805676
4.1316323 -1.460968 -0.80138302
4.0075417 -1.2528059 -0.80886525
1.485478 -0.40526286 -0.31170225
1.4382311 -0.33571571 -0.31446221
3.3851161 -1.2006527 -0.79653209
3.3106928 -1.0366119 -0.80341232
1.5528582 -0.42382002 -0.38903016
0 -0 -0
1.5085084 -0.53664774 -0.41885173
1.4206387 -0.44598755 -0.40463591
1.3711735 -0.37461874 -0.40133935
1.3531219 -0.31530148 -0.40786058
0.79632312 -0.28434804 0.26122943
0.83947223 -0.26399913 0.26137125
0.86892575 -0.23742492 0.25800496
0.88519031 -0.20671408 0.25091127
0.83000451 -0.29578701 0.23525876
0.85937548 -0.27050561 0.23065269
0.88222891 -0.24177156 0.22490609
0.88505626 -0.20779076 0.21413665
0.86990303 -0.30998844 0.20972584
0.86795539 -0.27307314 0.19709279
0.89055753 -0.24442166 0.19082549
0.91783297 -0.2161791 0.18539216
0.87392378 -0.31119779 0.17478359
0.8874017 -0.2794466 0.1656891
0.91280013 -0.25102323 0.15932149
0.94779474 -0.22362021 0.15451634
8.4555607 -3.0117939 1.3507531
0 -0 0
0.95592296 -0.26342061 0.12969555
0.98435038 -0.2331702 0.12266663
7.9597683 -2.8367629 0.95545387
7.9133377 -2.4964988 0.85764015
7.8094358 -2.1553943 0.7601037
1.0596719 -0.25155914 0.091992147
7.9708714 -2.8421311 0.64550209
7.9171338 -2.5004315 0.5530591
7.8583021 -2.170948 0.46651065
7.7791433 -1.8494426 0.38015741
7.982203 -2.8489983 0.33462894
7.9327636 -2.5096319 0.24897486
7.8539386 -2.1740217 0.16757257
7.8265729 -1.8641828 0.087766506
7.9964671 -2.8553481 0.0241559
7.9247231 -2.5102837 -0.056729451
7.876833 -2.1837637 -0.1315459
7.827672 -1.8674766 -0.20637043
8.0148878 -2.8666584 -0.28832531
7.9260936 -2.5139148 -0.3599965
7.8713083 -2.1874108 -0.43186778
7.8233314 -1.8684615 -0.50181735
1.5850745 -0.5681144 -0.11886571
7.9125714 -2.5141866 -0.66507882
7.8783212 -2.1906927 -0.73281932
8.0028524 -1.9138471 -0.81725389
1.5600865 -0.55964994 -0.17835721
1.5871875 -0.50508475 -0.19507544
7.764514 -2.161237 -1.0201766
0 -0 -0
1.5719782 -0.56537175 -0.24204062
2.8897154 -0.92136109 -0.46840194
2.9323258 -0.81742036 -0.50051373
1.460025 -0.34977823 -0.26183653
4.1170378 -1.48429 -0.80030376
4.0418725 -1.2908151 -0.81737763
2.9630949 -0.82794863 -0.62280929
1.4047582 -0.33700466 -0.30758989
3.4254265 -1.2386645 -0.80779052
3.3042698 -1.0569065 -0.80341232
1.5464839 -0.43229344 -0.38809046
3.081414 -0.73810071 -0.7999503
1.5051873 -0.54589367 -0.41885173
1.4362535 -0.46058971 -0.4098807
1.3660687 -0.38224706 -0.40052417
1.3586268 -0.32538599 -0.41011396
0.8098262 -0.29478464 0.26624739
0.83236051 -0.26738596 0.25966296
0.86467522 -0.24197486 0.2571789
0.87640661 -0.2103419 0.24878266
0.81546074 -0.29625556 0.23164734
0.85954398 -0.27636659 0.2311487
0.88446862 -0.24822986 0.2258611
0.88187218 -0.2127609 0.21367811
0.87989992 -0.3196488 0.21260487
0.87091583 -0.27988878 0.19815129
0.88055599 -0.24749655 0.18900426
0.91172087 -0.22065271 0.18442757
0 -0 0
0.89410532 -0.28759953 0.16726708
0.91029352 -0.25635204 0.15915553
0.92912757 -0.22524314 0.15169555
8.4582996 -3.0713823 1.3541757
8.3953381 -2.7051494 1.2389991
0.96287727 -0.27170461 0.13086282
0.96939707 -0.23591922 0.12098131
7.9655604 -2.8940325 0.95826268
7.9111247 -2.5492783 0.85907948
7.8717542 -2.2246628 0.76748335
1.0513319 -0.25640374 0.091402993
7.9767103 -2.8995018 0.64740348
7.9130378 -2.552639 0.55385673
7.8736534 -2.2272773 0.46822447
7.8074336 -1.9068565 0.38210452
7.9918027 -2.9078305 0.33577305
7.9362388 -2.5644062 0.24957308
7.8654604 -2.22926 0.16810711
7.8237286 -1.9143095 0.087864682
7.9938312 -2.9098327 0.024201417
7.9348593 -2.5671725 -0.0569137
7.89118 -2.2399719 -0.13201255
7.8248043 -1.9176126 -0.20660116
8.0027819 -2.9178371 -0.28852844
7.9133711 -2.5634248 -0.36012626
7.8779087 -2.2414057 -0.43297634
7.8475847 -1.9252281 -0.5041213
1.5646938 -0.57166785 -0.11759818
1.5994995 -0.51906085 -0.1347086
7.8963432 -2.2479916 -0.73576492
7.9870934 -1.9619662 -0.81685859
1.5631596 -0.57160211 -0.17910616
1.5991718 -0.51972586 -0.19693662
7.8436546 -2.2352118 -1.0323575
0 -0 -0
1.5684795 -0.5750066 -0.24204062
2.8905859 -0.94121665 -0.46947029
2.9130223 -0.83133548 -0.4980801
1.454025 -0.35778865 -0.26114932
4.1383224 -1.5207204 -0.8062399
3.952657 -1.2891029 -0.80092043
2.9278045 -0.83748865 -0.61646014
3.6657295 -0.90323931 -0.80385703
1.5984976 -0.58914644 -0.3778061
3.2958705 -1.0765562 -0.80296111
2.9483633 -0.84370345 -0.74117762
3.1342587 -0.77112395 -0.8148821
1.507254 -0.55713153 -0.42037025
1.4719177 -0.48200697 -0.42089474
1.3544459 -0.38797182 -0.39780691
1.348219 -0.33165342 -0.40757889
0.79994005 -0.29675725 0.26359081
0.82614988 -0.27099428 0.25823936
0.86040175 -0.24648161 0.25635284
0.87416351 -0.21548475 0.24851657
0.82812428 -0.3066211 0.23577468
0.85691166 -0.28133327 0.2309007
0.87919557 -0.25257966 0.22490609
0.88621885 -0.21957247 0.21505371
0.87060601 -0.32233307 0.21083316
0.86453903 -0.28370371 0.19709279
0.88184422 -0.25370717 0.18961133
0.90177953 -0.22411287 0.18269134
0 -0 0
0.89232379 -0.29308024 0.16726708
0.90586072 -0.26111326 0.15865764
0.93827039 -0.23356423 0.15341936
8.4977198 -3.144846 1.3635507
8.4152679 -2.7686813 1.2444241
0.97929168 -0.2828351 0.13332704
0.96793121 -0.24186289 0.12098131
7.9886537 -2.9580355 0.96320617
7.9123421 -2.6033683 0.86093014
7.8866477 -2.2812202 0.77028573
1.0758373 -0.26938468 0.093675435
7.9812093 -2.9567044 0.64922887
7.9389257 -2.6148794 0.55678123
7.8684697 -2.2780459 0.46873862
7.8072128 -1.9576416 0.3826744
7.991611 -2.9634135 0.33652264
7.941237 -2.6199431 0.25023109
7.9102068 -2.2944694 0.16936117
7.8341408 -1.9678819 0.088115565
8.0283308 -2.9783046 0.024360733
7.9493427 -2.6258485 -0.057132076
7.8897691 -2.2919753 -0.13222173
7.8380966 -1.9719299 -0.20726769
8.0128326 -2.9773295 -0.28954402
1.6001767 -0.52922529 -0.072968177
7.9244108 -2.3072889 -0.43630204
7.8685298 -1.9816309 -0.5062384
1.549004 -0.57673305 -0.11668275
1.5972308 -0.52917892 -0.13478845
7.9703765 -2.3220303 -0.74397677
7.8591166 -1.9817402 -0.80499858
1.5521697 -0.57840532 -0.17825024
1.5874686 -0.52671343 -0.19588971
5.9925861 -1.7475377 -0.79012203
0 -0 -0
1.5732656 -0.58773679 -0.2433311
2.8875697 -0.95987046 -0.46992818
2.9542787 -0.86274773 -0.5060299
4.5407023 -1.1469139 -0.81677878
1.569761 -0.58780169 -0.30652225
4.0089574 -1.3347344 -0.81397265
2.9762278 -0.87113112 -0.62776947
3.6914096 -0.93362892 -0.81072938
1.5875409 -0.59619766 -0.37607402
3.290127 -1.0970672 -0.80318671
2.9561908 -0.86560243 -0.74446648
3.1087868 -0.78511786 -0.80949688
1.4766462 -0.55613995 -0.41277772
1.4515433 -0.48521662 -0.41591221
1.3954455 -0.40899718 -0.41057801
1.3424375 -0.33898005 -0.40645224
0.80436027 -0.30402464 0.26565704
0.81629044 -0.27331907 0.2556769
0.85887313 -0.25175631 0.25635284
0.87375945 -0.22108093 0.24878266
0.82532334 -0.31135556 0.23551673
0.84414667 -0.28289196 0.22792453
0.87110758 -0.25605258 0.22323482
0.88391161 -0.22476619 0.21482445
0.86861181 -0.32766894 0.21083316
0.86926901 -0.29117602 0.19857468
0.8830893 -0.25994292 0.19021842
0.90799367 -0.23158182 0.18423466
8.5066824 -3.2067957 1.7128421
0.88584149 -0.29698521 0.16639042
0.9137001 -0.269456 0.16031724
0.93777651 -0.23956141 0.15357608
8.5273037 -3.2154193 1.3714377
8.4394274 -2.8341355 1.2505448
0.96042138 -0.28378111 0.13099252
0.96546739 -0.2475509 0.12086093
8.0019636 -3.0189228 0.96702623
7.9301653 -2.663269 0.8646313
7.8830037 -2.3326764 0.77131325
1.045211 -0.26854199 0.0911505
7.9965005 -3.0182967 0.65196699
7.9378638 -2.6686296 0.5578447
7.8706174 -2.3311028 0.46970981
7.8356833 -2.0159619 0.38466898
7.9985147 -3.0219281 0.3375878
7.962903 -2.6813796 0.2514275
7.886395 -2.3401184 0.1691556
7.8441901 -2.0216541 0.088366456
8.0276775 -3.0342271 0.024414787
7.9501371 -2.6803255 -0.05725491
7.9282722 -2.3560078 -0.13310675
7.8384333 -2.0232346 -0.20760097
8.0140419 -3.03387 -0.29025492
1.5987926 -0.53967285 -0.073054686
7.9196754 -2.3587191 -0.43682995
7.8736172 -2.0343683 -0.50735927
1.5482341 -0.58728808 -0.116894
1.5930094 -0.53865004 -0.1347086
8.0371132 -2.3950703 -0.75156379
7.820797 -2.0231965 -0.80233008
1.5671819 -0.59497619 -0.18039009
1.5851476 -0.53676254 -0.19600603
6.0121727 -1.7933491 -0.79414046
0 -0 -0
1.580729 -0.60160339 -0.24505179
2.8423181 -0.96423531 -0.46351796
2.9460928 -0.88001138 -0.50554323
4.5726786 -1.1848849 -0.82382298
1.5881828 -0.60583687 -0.31083947
3.8621607 -1.3122392 -0.78578728
3.8102448 -1.1406732 -0.80514812
3.6761441 -0.95380509 -0.80864686
1.5938829 -0.60976458 -0.37845558
3.3156137 -1.1282184 -0.81108326
3.2255142 -0.96599036 -0.81376839
3.0560427 -0.7917763 -0.79701293
0 -0 -0
1.4969451 -0.51062596 -0.42981088
1.3864567 -0.41561741 -0.40867594
1.3403323 -0.34721071 -0.40645224
0.79891306 -0.30758125 0.26447633
0.81822658 -0.27956232 0.25681576
0.85639137 -0.25674543 0.2560775
0.87518549 -0.22716458 0.24958089
0.83331782 -0.32022601 0.23835427
0.82681209 -0.28273749 0.22370832
0.87416989 -0.26279059 0.22442858
0.89570171 -0.23362482 0.21803421
0.86567467 -0.3326427 0.2106117
0.86654127 -0.29618818 0.19836299
0.88147771 -0.26535654 0.19021842
0.89326584 -0.23367228 0.18153384
8.5061111 -3.2663293 1.7167302
0.87096143 -0.2979537 0.16393577
0.91391784 -0.27562678 0.16064917
0.92960119 -0.24355876 0.1524791
8.5267992 -3.2751272 1.3745627
8.4471712 -2.8945327 1.2543005
0.97289973 -0.29397082 0.13293795
0.98025179 -0.25776204 0.12290739
8.0259562 -3.084362 0.97219455
7.9503727 -2.7244532 0.86864084
7.88379 -2.3856158 0.77280796
1.0830498 -0.28535926 0.094601251
8.0336704 -3.0887749 0.65653044
7.9572048 -2.729588 0.56037039
7.8752766 -2.3851402 0.4708524
7.8511753 -2.0713925 0.3860462
8.0283146 -3.0896111 0.33963928
7.9737148 -2.7396076 0.25229493
7.8814545 -2.391367 0.16936117
7.8509722 -2.074857 0.088584617
8.0285063 -3.0909719 0.02447453
7.9789305 -2.7446694 -0.057582472
7.9299307 -2.4095521 -0.13338031
7.8577623 -2.0797329 -0.20844696
8.0101957 -3.0887392 -0.29079658
1.5878942 -0.54687011 -0.072708659
7.9394441 -2.4177418 -0.43873039
7.8822107 -2.0882647 -0.5087291
1.5650719 -0.6046859 -0.11844319
1.5698858 -0.54158771 -0.13303174
8.0479908 -2.4521782 -0.75397384
7.8342061 -2.0780344 -0.80499858
1.5328994 -0.59274763 -0.17685932
1.5611714 -0.53934371 -0.1934469
6.0247793 -1.8374406 -0.79727983
0 -0 -0
1.549325 -0.60056055 -0.24075012
2.8540928 -0.98779875 -0.46641782
2.9802742 -0.91017663 -0.51235735
1.6299963 -0.43305928 -0.29413658
1.5835187 -0.61521417 -0.31065959
4.0043378 -1.3880109 -0.81643182
3.8565948 -1.1803813 -0.81645751
1.8166798 -0.48326865 -0.4002625
1.5846535 -0.61740643 -0.37715656
3.3224337 -1.1533337 -0.81446743
3.2529855 -0.99600822 -0.82222557
3.0061474 -0.79856437 -0.78526336
1.0380787 -0.40557945 -0.29155117
1.4937838 -0.51980144 -0.42981088
1.4151651 -0.43370447 -0.41791463
1.3437407 -0.35690618 -0.40814227
0.81035358 -0.3177087 0.26890397
0.8210218 -0.2861551 0.25823936
0.84560847 -0.25917816 0.25332397
0.87656981 -0.23327404 0.25037915
0.82054073 -0.32110801 0.23525876
0.84152627 -0.29354873 0.22817254
0.86697155 -0.26643786 0.22299604
0.88578844 -0.23685341 0.21597078
0.8636173 -0.33794811 0.2106117
0.87578177 -0.30536085 0.20090339
0.88638484 -0.27277648 0.19163494
0.89371067 -0.23965713 0.18191966
8.5380764 -3.3388605 1.727284
0.86261004 -0.30102155 0.16270843
0.89807397 -0.27687138 0.15815978
0.92332 -0.24797724 0.15169555
8.5304861 -3.3367507 1.3784318
8.4591665 -2.9567652 1.2587519
0.99002546 -0.3057873 0.13553187
0.97577614 -0.26299688 0.12254624
8.0226097 -3.1397064 0.97410452
7.9532247 -2.7800772 0.87079984
7.9060988 -2.4454186 0.77645099
0 -0 0
8.027566 -3.1431003 0.65759528
7.9563165 -2.7839632 0.56150025
7.9072247 -2.4478841 0.47365168
7.8450675 -2.1213527 0.38637862
8.027813 -3.1461058 0.34042835
7.9775081 -2.7957547 0.25295296
7.9019656 -2.4506395 0.17012185
7.8680139 -2.1310947 0.088922769
8.03825 -3.1514912 0.02456272
7.9826975 -2.800859 -0.057732601
7.9216805 -2.4602399 -0.13349295
7.8689733 -2.1344504 -0.20908785
8.0208616 -3.1495199 -0.29187989
1.586394 -0.55726516 -0.07279516
7.9330411 -2.4690826 -0.43920547
7.8856235 -2.1410356 -0.50978768
1.5529779 -0.61099076 -0.11780944
1.5740554 -0.55385703 -0.13367054
8.0242348 -2.4988484 -0.75317055
7.8136253 -2.1239767 -0.80420786
1.5597626 -0.61416316 -0.18039009
1.5803148 -0.55683446 -0.19623867
1.6035079 -0.4998132 -0.21259959
0 -0 -0
1.5603396 -0.61586922 -0.24304433
1.6103749 -0.56843764 -0.26373363
2.9897044 -0.93315011 -0.5149532
0 -0 -0
1.556846 -0.61587256 -0.30616248
3.9605658 -1.4001182 -0.80924362
3.7510598 -1.1733004 -0.79562443
1.5711644 -0.42829701 -0.34674147
1.4719373 -0.58391821 -0.35117564
1.6282595 -0.57644504 -0.40001407
1.5454829 -0.48359191 -0.39137939
2.8898623 -0.78668851 -0.75613421
0.92050719 -0.36617008 -0.25915658
1.4905663 -0.52895737 -0.42981088
1.4280897 -0.44726935 -0.42253396
1.3581904 -0.36968043 -0.41321236
0.80483943 -0.32125819 0.26772326
0.81112128 -0.28829801 0.2556769
0.8421675 -0.26378715 0.25277326
0.88163191 -0.24042347 0.25224167
0.83471066 -0.33257365 0.23990203
0.84609836 -0.30097947 0.22990865
0.85605574 -0.26884294 0.22060852
0.89464492 -0.24511327 0.21849275
0.86696291 -0.34540635 0.21194048
0.87481242 -0.31105623 0.20111509
0.8856287 -0.27850389 0.19183731
0.89979255 -0.24721596 0.18346299
8.5466442 -3.4028187 1.7332088
0 -0 0
0.9048233 -0.28504339 0.15965341
0.9351126 -0.25730628 0.15388949
8.54568 -3.4032986 1.3842354
8.4660501 -3.0175908 1.2625077
8.3825617 -2.6455553 1.1497512
0.98275638 -0.27135721 0.12362967
8.0133486 -3.192919 0.97534043
7.9519453 -2.8345027 0.87254763
7.9089828 -2.4995842 0.7782259
7.856864 -2.1735582 0.68855238
8.0220222 -3.1978354 0.65873611
7.9588203 -2.8397717 0.56289607
7.9129977 -2.50298 0.47490853
7.8550062 -2.1758487 0.38751838
7.9879398 -3.1871576 0.33956039
7.9950294 -2.8570967 0.25405964
7.9172783 -2.5087428 0.17077972
7.868279 -2.1830745 0.089075476
8.0577688 -3.2163236 0.024682205
7.9870172 -2.8575351 -0.057889562
7.9455109 -2.521199 -0.1341527
7.8826976 -2.1901867 -0.20980567
8.0069532 -3.2009015 -0.292083
1.5763609 -0.56463039 -0.072492391
7.9139347 -2.5165017 -0.43899429
7.8809919 -2.1917872 -0.51034808
1.4714156 -0.58935297 -0.11189432
1.5715657 -0.56384146 -0.13375039
1.5992824 -0.50882226 -0.15040202
7.8215361 -2.1777525 -0.80638224
1.5319701 -0.61410362 -0.17760827
1.5665866 -0.56282669 -0.19495912
1.5937937 -0.50753552 -0.21172056
0 -0 -0
1.5326554 -0.61583805 -0.23931623
1.6049969 -0.57763869 -0.26342839
2.9876828 -0.95267612 -0.51560217
2.9606452 -0.82561404 -0.53604329
1.3203559 -0.53171176 -0.26029208
3.9140251 -1.410742 -0.80148786
3.7559268 -1.2001727 -0.79820377
2.8770087 -0.80326515 -0.63600504
1.0627716 -0.42916781 -0.25418013
1.5880377 -0.57319486 -0.39098948
1.5647072 -0.50016868 -0.39701748
1.5718429 -0.4382695 -0.41196951
0.90030867 -0.36454937 -0.25409496
1.4900149 -0.53907824 -0.43059763
1.4262352 -0.4563168 -0.4228057
1.3448054 -0.37491509 -0.40983227
0.81170481 -0.3297869 0.270675
0.80753446 -0.29261634 0.25510743
0.84236431 -0.26953554 0.25332397
0.87178433 -0.24349472 0.24984698
0.83086365 -0.33696285 0.23938611
0.8196463 -0.29724795 0.22321227
0.84606802 -0.27142081 0.21845973
0.89406127 -0.25086105 0.21872202
0.88561201 -0.35914844 0.21703413
0.86461794 -0.31342047 0.19920978
0.88670027 -0.28483129 0.19244437
0.89353603 -0.25140357 0.18249843
8.556571 -3.4677455 1.739504
0 -0 0
0.90868962 -0.29240233 0.16064917
0.92686182 -0.26116413 0.15279251
8.5557966 -3.4683011 1.389295
8.4799509 -3.0813177 1.2673763
8.3954277 -2.7063708 1.1537718
1.0049548 -0.28413442 0.12663914
8.056221 -3.2674234 0.98298049
7.9830174 -2.9009073 0.87789375
7.9058146 -2.552042 0.77944028
7.8203697 -2.2152083 0.68653244
7.9920864 -3.2428737 0.6578995
7.9684381 -2.8984435 0.56482351
7.9202914 -2.5588522 0.47627962
7.8588047 -2.2289109 0.3883732
