# .PCD v0.7 - Point Cloud Data file format
VERSION 0.7
FIELDS x y z
SIZE 4 4 4
TYPE F F F
COUNT 1 1 1
WIDTH 1529
HEIGHT 1
VIEWPOINT 0 0 0 1 0 0 0
POINTS 1529
DATA ascii
0.040965647 2.3884273 0.27009773
-0.046998493 2.3967688 0.24777186
-0.13675325 2.4434285 0.2296098
-0.22467916 2.431947 0.20628797
0.04155276 2.4006658 0.18314706
-0.046427574 2.4062188 0.16031471
-0.13547546 2.4312453 0.1393362
-0.22093701 2.40013 0.11459336
0.042238358 2.3967602 0.094644524
-0.045294072 2.4084959 0.072084263
-0.13526285 2.4497502 0.050450638
-0.22208303 2.4237018 0.026550295
0.042641524 2.4006116 0.0068305638
-0.044946358 2.4375291 -0.016637363
-0.13396211 2.4440145 -0.039391361
-0.22168027 2.4291039 -0.062552035
0.043800399 2.3952258 -0.08114545
-0.043579482 2.4113472 -0.10441326
-0.13392287 2.4709184 -0.13081144
-0.21928282 2.409338 -0.1509375
0.045132156 2.3816445 -0.16815835
-0.04285093 2.4418008 -0.1956349
-0.17086476 3.1616974 -0.28375551
-0.21908943 2.4151516 -0.24085715
0.046087321 2.3967173 -0.25795996
-0.041481826 2.4240742 -0.28394702
-0.16989982 3.1591909 -0.40046075
-0.11435685 1.2640554 -0.17334217
0.047890861 2.3885746 -0.34614101
-0.04172824 2.5207682 -0.38934287
-0.11706194 2.1923985 -0.36098641
-0.095429078 1.0566851 -0.18503802
0.049138114 2.3603394 -0.43172148
-0 0 -0
-0.048870943 0.92590386 -0.18769594
-0.081879824 0.90984517 -0.19450842
0.046467796 2.1336441 -0.473286
-0 0 -0
-0 0 -0
-0 0 -0
0 0 -0
-0 0 -0
-0 0 -0
-0.070908777 0.78456056 -0.23125245
0.056093052 2.3468542 0.72524369
-0.034291282 2.3847785 0.70837873
-0.12693937 2.4231083 0.69498885
-0.21188287 2.3569968 0.65322083
0.054826234 2.3558164 0.62916243
-0.033134382 2.3470633 0.60093707
-0.124335 2.4079843 0.59282571
-0.21095482 2.3783228 0.56239527
0.054888092 2.3602452 0.53616291
-0.033967383 2.3824999 0.51612484
-0.12385496 2.4167066 0.50003165
-0.21756238 2.472923 0.48807719
0.05470502 2.3755629 0.44769782
-0.033602197 2.4009831 0.42763564
-0.12253641 2.4148903 0.40693364
-0.20855249 2.3809838 0.37923887
0.054982081 2.3785758 0.3580381
-0.032135941 2.3823917 0.33468416
-0.12417654 2.4727943 0.32384983
-0.2122971 2.4488094 0.29805943
0.055434898 2.3801839 0.26919889
-0.032385103 2.4039743 0.24849153
-0.12453205 2.4999077 0.23484094
-0.21154992 2.454128 0.20805542
0.056188691 2.396378 0.18284281
-0.031491768 2.3934882 0.15945065
-0.12119763 2.4449935 0.14007887
-0.20535138 2.3914886 0.11411846
0.056848865 2.3924603 0.094486721
-0.030578278 2.4137261 0.072233818
-0.12155173 2.4774959 0.051005717
-0.20720731 2.4250188 0.026550295
0.057418387 2.4023044 0.0068362537
-0.030001413 2.4387589 -0.016644187
-0.11988671 2.4637654 -0.039697092
-0.20888996 2.4553201 -0.063192934
0.058032725 2.3759284 -0.080502242
-0.028818682 2.414566 -0.10454302
-0.11784851 2.4527419 -0.12980844
-0.20550764 2.4225719 -0.15168472
0.059569672 2.3743422 -0.16766542
-0.0276969 2.4270668 -0.19443715
-0.14755489 3.0811069 -0.27643624
-0.20493679 2.4243829 -0.24164782
0.060565509 2.387444 -0.25699705
-0.026803408 2.4421597 -0.28604084
-0.14923787 3.1334181 -0.39707023
-0 0 -0
0.062468249 2.385268 -0.34571084
-0.025827955 2.479471 -0.38293266
-0.090708882 1.9200498 -0.31604561
-0.085722789 1.018966 -0.1783375
0.064150125 2.3796601 -0.43531916
-0.010175536 1.0231367 -0.19710889
-0.042138737 0.90366799 -0.18313251
-0.076132208 0.90838116 -0.19409192
0.028825765 1.032503 -0.22906524
-0 0 -0
-0 0 -0
-0.075703822 0.89949703 -0.22789283
0.033380788 1.1565824 -0.30268681
-0 0 -0
-0 0 -0
-0.06593246 0.78306866 -0.23068911
0.069401793 2.3101754 0.71402711
-0.019563098 2.373441 0.70496207
-0.11149184 2.4113574 0.69140923
-0.19822077 2.3678584 0.65588158
0.068456464 2.3274291 0.62168157
-0.01895665 2.3753154 0.60812944
-0.10898394 2.3960907 0.58972186
-0.19939956 2.416435 0.57110751
0.06902542 2.3481672 0.53350538
-0.019467037 2.3973229 0.51930034
-0.10906812 2.4183991 0.50023395
-0.20318465 2.4839909 0.49000633
0.068821743 2.3594658 0.44473538
-0.018822988 2.3952372 0.42658365
-0.10863915 2.4362848 0.41041878
-0.19818655 2.4343913 0.38754451
0.069373287 2.3712745 0.35699642
-0.017641027 2.3993783 0.33704892
-0.10751721 2.4398293 0.31944016
-0.19471799 2.418401 0.29420727
0.069892228 2.3748326 0.26863712
-0.017590208 2.3981597 0.24787466
-0.10593309 2.4260237 0.22783494
-0.19601078 2.4494202 0.20755044
0.070006862 2.3660882 0.18056108
-0.016931098 2.4115961 0.16064703
-0.10558683 2.4317274 0.13927908
-0.19019753 2.3867292 0.11383352
0.070810877 2.3680956 0.093539871
-0.015760828 2.4128685 0.072203904
-0.10531905 2.454222 0.05051231
-0.19366704 2.4431906 0.026735734
0.071496949 2.3799167 0.006773666
-0.014956759 2.4258976 -0.016555471
-0.10332318 2.4304898 -0.039149992
-0.192012 2.4336345 -0.062603302
0.07279326 2.3815215 -0.08070536
-0.013915741 2.3997118 -0.10389423
-0.10279655 2.453419 -0.12980844
-0.19032611 2.4198074 -0.15143566
0.073545642 2.3549886 -0.16632749
-0.012578066 2.3843288 -0.19100356
-0.10243557 2.4540198 -0.22011359
-0.19091225 2.4365075 -0.242735
0.075244762 2.3880212 -0.25710404
-0.011736391 2.4253938 -0.28406334
-0.10336561 2.4919567 -0.31569719
-0.18972564 2.4289844 -0.3327466
0.077102803 2.3848398 -0.34571084
-0.010981754 2.565563 -0.39621094
-0.067257248 1.6366256 -0.26932019
-0.082301624 1.0558122 -0.18469441
0.077904157 2.3536599 -0.43064219
-0.0038563516 1.0123785 -0.19502808
-0.03651385 0.90195096 -0.1827357
-0.070784174 0.91175663 -0.19471668
0.034794979 1.0215738 -0.22668365
-0 0 -0
-0 0 -0
-0 0 -0
0 0 -0
-0 0 -0
-0 0 -0
-0.060753223 0.77867544 -0.22928074
0.08336816 2.303977 0.71225601
-0.0050338949 2.3898127 0.70980227
-0.094922557 2.3678098 0.67874306
-0.18160161 2.3421202 0.64843136
0.082598694 2.3231032 0.62064976
-0.0044120103 2.391856 0.6123457
-0.090958975 2.3122957 0.56895036
-0.18382791 2.4079075 0.56881481
0.083155125 2.3399029 0.53173363
-0.0047453372 2.3915334 0.51803011
-0.093045406 2.3886874 0.49396083
-0.18386978 2.4313776 0.47939596
0.082708322 2.3423035 0.44158778
-0.0041325171 2.3992457 0.42728496
-0.091604702 2.3827083 0.40129101
-0.17976305 2.3892729 0.38017914
0.083327159 2.3540041 0.35446665
-0.0029087497 2.3915193 0.3359361
-0.091567755 2.4146812 0.31606808
-0.1799489 2.4205403 0.29432768
0.083685465 2.3525124 0.26616538
-0.0028905477 2.4111536 0.24921119
-0.090783991 2.4196637 0.22718106
-0.17965673 2.4326894 0.20603548
0.08477281 2.3725893 0.18109348
-0.0021520408 2.4326081 0.16204281
-0.090180598 2.4193597 0.13853641
-0.17884491 2.4326797 0.11597057
0.08515995 2.3626239 0.093342617
-0.00095782249 2.4189172 0.072383367
-0.089045987 2.4218512 0.049833879
-0.17947413 2.455303 0.026855722
0.085736893 2.3694398 0.0067452174
-7.1155424e-05 2.4159439 -0.01648723
-0.088153675 2.4240837 -0.039037354
-0.17736593 2.438755 -0.062705852
0.085864782 2.3390822 -0.079283535
0.00080988684 2.4027493 -0.10402399
-0.087027088 2.4340441 -0.12875266
-0.17655715 2.4358613 -0.15236966
0.087547146 2.342531 -0.16548248
0.0020753017 2.4112749 -0.19315952
-0.086242229 2.42275 -0.21725728
-0.17911087 2.4813039 -0.24708365
0.089447044 2.3755918 -0.2558201
0.0031200026 2.405556 -0.28173685
-0.085060455 2.4072781 -0.3048977
-0.1736806 2.4142909 -0.33058152
0.089679845 2.3309193 -0.33796784
0.0044743838 2.4114099 -0.37240165
-0.052526433 1.5028912 -0.2472554
-0.074481621 1.0376279 -0.18143003
0.092575923 2.359035 -0.43172148
0 0 -0
-0.031887073 0.92860568 -0.18809277
-0.065397561 0.91510051 -0.19534142
0.050239891 1.2496064 -0.27734646
0 0 -0
-0 0 -0
-0 0 -0
0 0 -0
0 0 -0
-0 0 -0
-0.056799389 0.79051811 -0.2326608
0.097422712 2.301513 0.71166569
0.0095989127 2.3821299 0.70752454
-0.081272729 2.394289 0.68617755
-0.16894272 2.367228 0.65508336
0.09677092 2.3206217 0.62013382
0.010210181 2.3792443 0.6091215
-0.076962575 2.3186336 0.57038283
-0.16816401 2.3963675 0.56583434
0.096982971 2.3266823 0.52885461
0.0099208094 2.3895628 0.51760674
-0.078868628 2.4038949 0.49699619
-0.16887969 2.4314814 0.47920305
0.096631117 2.3309512 0.43955109
0.010593401 2.4002104 0.42746034
-0.076728247 2.3753405 0.39996332
-0.1697951 2.4583166 0.39099216
0.097359031 2.3435683 0.35297856
0.011804366 2.3994141 0.33704892
-0.076655343 2.4122245 0.31567898
-0.16786179 2.4622064 0.29926324
0.098160051 2.3529475 0.2662777
0.011928622 2.4160995 0.24972525
-0.075186141 2.3962917 0.22493914
-0.1664762 2.4595945 0.20822376
0.098578244 2.3540924 0.17972445
0.012795161 2.4365666 0.16230868
-0.074526288 2.3939223 0.13705108
-0.16411628 2.4367211 0.11611304
0.099486656 2.3580637 0.093184814
0.013884392 2.4188774 0.072383367
-0.073939279 2.4143577 0.049669411
-0.16607474 2.4813008 0.027128426
0.099174298 2.3428924 0.0066712503
0.014819968 2.4268982 -0.016562296
-0.073127091 2.4195817 -0.038956895
-0.16299622 2.4487746 -0.062936574
0.10102853 2.3574831 -0.079926744
0.015624 2.4136884 -0.10449977
-0.071321942 2.4085798 -0.12738013
-0.16015472 2.4149897 -0.15099978
0.10300323 2.366864 -0.16724291
0.0168078 2.4022458 -0.19244087
-0.071521513 2.4282117 -0.21770358
-0.17233886 2.610446 -0.25983319
0.10349966 2.3630788 -0.25453621
0.017953981 2.4154234 -0.28290009
-0.069506444 2.3809795 -0.30150715
-0.16302532 2.4785857 -0.33924189
0.10464215 2.3451555 -0.34011871
0.019270431 2.4113369 -0.37240165
-0.06330777 2.1975701 -0.36147314
-0.069209985 1.0547767 -0.1843508
0.10820864 2.3839722 -0.43639848
0.018422775 2.1768951 -0.41937658
-0 0 -0
-0.058379263 0.89401269 -0.19075987
0.10085024 2.1757469 -0.48302889
0 0 -0
-0 0 -0
-0 0 -0
0 0 -0
0 0 -0
-0 0 -0
-0.05169623 0.78702193 -0.23153411
0.11209787 2.3123238 0.71520776
0.024078783 2.3686063 0.70353854
-0.06567172 2.3620696 0.67681557
-0.15579432 2.3893821 0.66093707
0.11068493 2.3132291 0.61832809
0.024707744 2.3694499 0.60664135
-0.064388618 2.3802178 0.58542436
-0.15345702 2.3973541 0.56583434
0.11116423 2.3240955 0.52841169
0.024421837 2.3738205 0.51421952
-0.06356889 2.3837755 0.49274665
-0.15594056 2.4638078 0.48537633
0.11125884 2.3371856 0.44084716
0.025081743 2.3774579 0.42342767
-0.063054614 2.4102695 0.40577191
-0.15414989 2.4504409 0.38958174
0.11178417 2.3439145 0.35312736
0.026428141 2.3903844 0.33579698
-0.060124755 2.3452461 0.3068597
-0.15041593 2.4255388 0.29468882
0.11212053 2.3423755 0.26515418
0.026698234 2.4110074 0.24921119
-0.060305536 2.3897407 0.22428523
-0.15107532 2.4555969 0.20780292
0.11254253 2.3434837 0.17896387
0.027552262 2.419481 0.16117877
-0.059836049 2.3943346 0.13705108
-0.14879571 2.4317 0.1158281
0.11322992 2.3424377 0.092593037
0.028654862 2.4127498 0.072203904
-0.059246022 2.4197631 0.049772203
-0.14896634 2.4513319 0.026790274
0.11403237 2.3522282 0.006699699
0.029514987 2.4107633 -0.016453108
-0.058135007 2.4139876 -0.038860351
-0.14995673 2.4826577 -0.063782565
0.11544296 2.3558207 -0.079892889
0.030446416 2.4145463 -0.10454302
-0.056823019 2.4209523 -0.12801361
-0.14695175 2.4428258 -0.15268101
0.11777153 2.3711691 -0.16759501
0.031311762 2.3841565 -0.19100356
-0.056179859 2.4096856 -0.21600765
-0.14799392 2.4723885 -0.24599649
0.11725329 2.3475037 -0.2529313
0.03245097 2.391433 -0.28010833
-0.054941453 2.3833449 -0.30175829
-0.1453376 2.4379995 -0.33355853
0.11877887 2.3395271 -0.33940175
0.03402387 2.4082088 -0.37194377
-0.051633865 2.2778232 -0.37461463
-0.061567325 1.0355136 -0.18091463
0.12242933 2.3754046 -0.43495941
0.032826029 2.2484157 -0.43318558
-0 0 -0
-0.054682635 0.92462146 -0.19721571
0 0 -0
0 0 -0
-0 0 -0
-0 0 -0
0 0 -0
0 0 -0
-0 0 -0
-0.046524093 0.78157741 -0.22984409
0.12664874 2.3182707 0.71727401
0.038424313 2.3569121 0.70012188
-0.05151023 2.3778059 0.68122125
-0.14283489 2.4191613 0.66891938
0.12399091 2.2961056 0.6139428
0.039069455 2.3585987 0.60391325
-0.0493563 2.3601799 0.58041054
-0.1402621 2.4244876 0.57202452
0.12521225 2.3194747 0.52752584
0.038874511 2.3667855 0.51273763
-0.049423497 2.4076192 0.4976033
-0.13734986 2.4039822 0.47341558
0.1249117 2.3237021 0.43844017
0.039816909 2.3861184 0.42500564
-0.048027411 2.3987796 0.4037804
-0.13754454 2.4237311 0.38519388
0.12563239 2.3333101 0.35163924
0.04095858 2.3822565 0.33468416
-0.046236031 2.3713462 0.3102318
-0.13713582 2.4551604 0.29817984
0.12568699 2.3267601 0.26346886
0.040943656 2.3789728 0.2459213
-0.045755282 2.3960385 0.22484572
-0.13539928 2.4455335 0.20687713
0.12686582 2.3417532 0.1788878
0.04220508 2.4082923 0.16044763
-0.045482278 2.4126241 0.13807938
-0.13749489 2.4983933 0.11896244
0.12798129 2.3486831 0.092869192
0.04313463 2.3945396 0.071665518
-0.044489216 2.4250793 0.049874995
-0.13403152 2.4541967 0.026812091
0.12819047 2.3464916 0.0066854749
0.044104453 2.399539 -0.016378043
-0.043339901 2.4152985 -0.03887644
-0.13423327 2.4745471 -0.063551836
0.12879501 2.3351097 -0.079215832
0.044980329 2.3993306 -0.10389423
-0.04191535 2.4182599 -0.12785524
-0.13384371 2.4785628 -0.15486039
0.13087302 2.3445065 -0.16576414
0.046074521 2.3908958 -0.1915625
-0.041187994 2.3980348 -0.21493655
-0.13271412 2.4712629 -0.24579884
0.13087541 2.3328424 -0.2514334
0.046986926 2.3842375 -0.27929404
-0.040702373 2.4064519 -0.30464655
-0.13106316 2.4517074 -0.33531764
0.13391913 2.3525872 -0.34140918
0.048319135 2.3842409 -0.36828083
-0.040086407 2.4251032 -0.39878857
-0.052485835 0.98471773 -0.17198056
0.1359257 2.3559494 -0.43154162
0.046865731 2.2599528 -0.43545553
-0 0 -0
-0 0 -0
0.095185161 1.6227185 -0.36048546
0.045945641 2.1681197 -0.50221729
-0 0 -0
-0 0 -0
0.060899589 1.0217433 -0.26776141
0 0 -0
-0 0 -0
-0.041267317 0.77322483 -0.22730905
0.14029127 2.3079131 0.71432227
0.052799303 2.3527985 0.69898301
-0.036829781 2.3723099 0.67956913
-0.12656301 2.3930392 0.66146916
0.13859937 2.3039813 0.61626446
0.053496834 2.3563776 0.60341716
-0.034859233 2.3594673 0.58017176
-0.12518206 2.4214144 0.57110751
0.13909069 2.3128223 0.52619708
0.053087454 2.3528233 0.50977385
-0.034536965 2.4000435 0.49598444
-0.12359588 2.4243784 0.47727391
0.1394024 2.3268158 0.43918082
0.054591902 2.3917346 0.42605764
-0.03334894 2.4019873 0.40427828
-0.12291975 2.4294612 0.38597742
0.13858479 2.3097923 0.34821662
0.055089992 2.3611701 0.331763
-0.031989515 2.3943892 0.31321478
-0.12197009 2.4539726 0.29793906
0.13972262 2.3219776 0.26301944
0.055563204 2.3796711 0.2460241
-0.031155817 2.4042385 0.22559303
-0.12034224 2.4453228 0.20679295
0.14099197 2.3369496 0.17858358
0.056580011 2.3910303 0.15931772
-0.030728608 2.4168508 0.13830788
-0.11952902 2.4453151 0.11639798
0.1414223 2.3318954 0.092237964
0.057150666 2.3662505 0.070828021
-0.029620575 2.4263062 0.049895555
-0.11853471 2.4459839 0.026713917
0.14143305 2.3266959 0.0066314223
0.058189623 2.3732314 -0.016200615
-0.028530894 2.4165187 -0.03889253
-0.11875907 2.4693332 -0.063398018
0.14299822 2.3322804 -0.079148121
0.058881287 2.3660507 -0.10246687
-0.027042856 2.4154758 -0.12769687
-0.1183468 2.473356 -0.15448679
0.14599666 2.3556068 -0.16660917
0.060794555 2.392561 -0.1917222
-0.026440173 2.3952546 -0.21466878
-0.11717012 2.4640787 -0.24500816
0.14475453 2.3250492 -0.25068444
0.061564125 2.3819187 -0.27906141
-0.026139021 2.4255049 -0.3070325
-0.11494046 2.4297025 -0.33220536
0.14804028 2.3467829 -0.34069225
0.063025914 2.3868632 -0.36873868
-0.025431095 2.4470108 -0.40235785
-0.048391379 1.0263509 -0.17919654
0.14981481 2.3462358 -0.42992264
0.060072109 2.2350829 -0.43072647
-0 0 -0
-0 0 -0
0 0 -0
0.038141303 1.3955315 -0.32330522
-0 0 -0
-0 0 -0
0.14830232 2.2550797 -0.59120101
0 0 -0
-0 0 -0
-0.037608281 0.79646611 -0.23406915
0.15317328 2.2879426 0.70841879
0.067043103 2.3457227 0.69699001
-0.022317989 2.3772976 0.68094581
-0.11228225 2.402437 0.6638639
0.15318124 2.3098359 0.61807019
0.067563266 2.342448 0.59994501
-0.020473419 2.3703184 0.58279806
-0.11010075 2.417275 0.56996113
0.15385988 2.3206828 0.52819026
0.067438982 2.3495224 0.50913876
-0.019721018 2.3894379 0.49375844
-0.10854206 2.42117 0.47650221
0.15341769 2.3219943 0.43844017
0.068268627 2.3569114 0.41992104
-0.018495401 2.3873551 0.40178886
-0.1081421 2.4331295 0.38644755
0.15138391 2.2881775 0.34509158
0.069547646 2.3597977 0.33162385
-0.017261405 2.3895826 0.31256631
-0.10656493 2.4467404 0.296976
0.15377006 2.3181021 0.26268238
0.069782384 2.3663599 0.24468757
-0.016294423 2.3884547 0.22409841
-0.10494992 2.4370556 0.20603548
0.15387319 2.3141527 0.17691033
0.071071684 2.384654 0.15891893
-0.015786875 2.400022 0.1373367
-0.10418143 2.4380188 0.11601806
0.15632735 2.3399568 0.092593037
0.071305446 2.3538663 0.070469104
-0.01468999 2.4194441 0.049751643
-0.10470783 2.4746387 0.027019346
0.15570672 2.3257844 0.0066314223
0.072535895 2.3658333 -0.016152846
-0.013708548 2.4176483 -0.038908623
-0.10239034 2.4410503 -0.062654577
0.15824808 2.345319 -0.07962206
0.073552899 2.3706377 -0.10268313
-0.012160639 2.4036131 -0.12706341
-0.10217033 2.4501028 -0.15299234
0.15929481 2.3377481 -0.16541205
0.075190984 2.3831763 -0.19100356
-0.011830556 2.4132996 -0.21627544
-0.10163695 2.4548087 -0.24401982
0.15990034 2.3370123 -0.25207537
0.076209895 2.3824887 -0.27917773
-0.011127009 2.3978415 -0.30351636
-0.099581718 2.4194722 -0.33071682
0.16189015 2.3379316 -0.33954513
0.077380903 2.3775418 -0.36736506
-0.010483241 2.4629085 -0.40495372
-0.041285742 1.0069423 -0.17576034
0.16434565 2.347235 -0.43028244
0.077025644 2.3328133 -0.44964284
-0.0037017022 1.0153966 -0.20555285
-0 0 -0
0.15414622 2.1716425 -0.48281235
0.073167585 2.1858923 -0.506504
-0.0034864794 0.98464435 -0.23797555
-0 0 -0
0 0 -0
0.038089983 1.1129616 -0.30262464
-0 0 -0
-0.031657424 0.7707969 -0.22646402
0.168045 2.2983944 0.71196091
0.080969192 2.3318546 0.69300389
-0.0077870134 2.3946941 0.68590224
-0.096991748 2.3895965 0.66013885
0.16714171 2.3059616 0.61729628
0.08159627 2.3323078 0.59746486
-0.0059630382 2.3839943 0.58614063
-0.093772024 2.3799734 0.56101966
0.1685193 2.3255305 0.52951902
0.08141166 2.3363667 0.50638664
-0.0050468906 2.3836381 0.49254426
-0.09338057 2.4139466 0.4749589
0.1675207 2.3190491 0.43806988
0.081969142 2.3348024 0.41606373
-0.0038338075 2.3795347 0.4004612
-0.090715975 2.3686106 0.37610468
0.16613439 2.2970684 0.34657967
0.083673328 2.3494301 0.33023283
-0.0026075048 2.3975761 0.31360388
-0.088692553 2.3709617 0.28770679
0.16949968 2.3379273 0.26504183
0.084300779 2.3658872 0.24468757
-0.0016586455 2.417383 0.2268074
-0.088854812 2.4067845 0.20342636
0.16908127 2.3270876 0.17797512
0.08537972 2.3751988 0.15832075
-0.0010713468 2.4250329 0.13876492
-0.08797837 2.4046733 0.1144034
0.17046395 2.3359637 0.092474677
0.08607471 2.3623743 0.070738293
0.00015462203 2.4024923 0.049402151
-0.088509798 2.4472544 0.026713917
0.1702662 2.3287745 0.0066428017
0.08716134 2.3683417 -0.016173318
0.0011261217 2.4176869 -0.038908623
-0.087052763 2.4316423 -0.062398214
0.17197514 2.3353336 -0.079317391
0.087577946 2.3561645 -0.10207759
0.002596484 2.4116316 -0.12748572
-0.086957544 2.4456966 -0.15268101
0.1741534 2.3436902 -0.16590498
0.089812465 2.3826699 -0.19100356
0.0029565045 2.3963945 -0.21475802
-0.085731089 2.4315186 -0.24164782
0.17260997 2.3141739 -0.24972151
0.090751447 2.3799911 -0.27894506
0.0035831113 2.3958805 -0.30326521
-0.084803581 2.4220183 -0.33098748
0.17429739 2.3112359 -0.33581701
0.0912036 2.3572712 -0.36431259
0.0046235155 2.4599664 -0.40446699
-0.052402351 1.5033811 -0.26235196
0.17792292 2.335393 -0.42830369
0.092221856 2.3548641 -0.45399362
0.0054748342 2.1984003 -0.44503382
-0 0 -0
0.17129828 2.2202988 -0.49385425
0.055418007 1.3988521 -0.32420766
0 0 -0
-0 0 -0
0.18432575 2.3601503 -0.61929315
0 0 -0
0 0 -0
-0 0 -0
0.18191798 2.2944627 0.71107537
0.094884224 2.3217356 0.69015676
0.0068623368 2.3793151 0.68149656
-0.083389491 2.4209745 0.66865325
0.18272707 2.3231931 0.62219751
0.095746264 2.3278916 0.5964728
0.0086261639 2.3733041 0.58351427
-0.0795229 2.3912051 0.56354165
0.18263243 2.3225086 0.5290761
0.095185414 2.3221519 0.5034228
0.0095946752 2.3875415 0.49335375
-0.078439474 2.4105515 0.47418723
0.18174696 2.3179774 0.43806988
0.096577726 2.341141 0.41729105
0.010757891 2.3775411 0.40012926
-0.076561652 2.3809683 0.37798521
0.18053535 2.2999492 0.34717494
0.097880997 2.3439255 0.32953733
0.012063748 2.3896143 0.31256631
-0.074856445 2.3942828 0.29047555
0.1837638 2.3358526 0.26492947
0.097861059 2.3424671 0.24232294
0.013081927 2.4004221 0.22521937
-0.073533662 2.3893569 0.20191139
0.18296503 2.3210361 0.17759483
0.098861061 2.3487108 0.15659264
0.013865244 2.4349773 0.1393362
-0.073009148 2.3981791 0.11407097
0.18329602 2.3159478 0.091725096
0.10073844 2.3657966 0.070857935
0.015007614 2.4204419 0.049772203
-0.073131956 2.4357574 0.02658302
0.18399882 2.3207078 0.0066228877
0.10117667 2.3557734 -0.016091427
0.015960749 2.4176345 -0.038908623
-0.072041951 2.4291332 -0.062321313
0.18614219 2.3322418 -0.079249687
0.10168757 2.3475976 -0.10173156
0.017415535 2.414566 -0.12764409
-0.071245164 2.422241 -0.15118659
0.18773052 2.3326342 -0.1652008
0.10364471 2.3641486 -0.18956622
0.01769715 2.4013112 -0.21520431
-0.070114888 2.4081264 -0.23927581
0.17119902 2.1198199 -0.2288579
0.10486982 2.368475 -0.27766553
0.018458022 2.4186306 -0.30615345
-0.069969356 2.4234834 -0.33112279
0.16135508 1.97771 -0.28749493
0.10575437 2.3586419 -0.36461785
0.019322041 2.4105556 -0.39635494
-0.043261617 1.5066285 -0.26286739
0.18021856 2.1881826 -0.401501
0.10720265 2.3660254 -0.4562636
0.019234413 2.2296882 -0.45138294
-0 0 -0
0.13295327 1.595571 -0.35507277
0.048189405 1.0530005 -0.24411461
0.010175384 1.1654007 -0.28167096
-0 0 -0
0.18694228 2.2182269 -0.5823431
0 0 -0
0 0 -0
-0.022361822 0.77688211 -0.22815406
0.19599311 2.2933033 0.71107537
0.10854308 2.3086617 0.68645537
0.021383369 2.3705766 0.67901838
-0.067278616 2.3771167 0.65641367
0.19567181 2.3066249 0.61807019
0.10920464 2.3098419 0.59200853
0.023121906 2.3664093 0.58184302
-0.064664565 2.3848369 0.56193674
0.19696204 2.3223157 0.52929753
0.10938606 2.3205478 0.50321114
0.024025399 2.3658941 0.48890179
-0.063517652 2.4060829 0.47322264
0.19621485 2.3197563 0.43862534
0.11052135 2.3316536 0.41571304
0.025398571 2.3823609 0.40095907
-0.062002227 2.3833678 0.37829861
0.19522819 2.3056955 0.34821662
0.11211905 2.3403132 0.32912001
0.026481947 2.3676825 0.30971298
-0.059615463 2.3728638 0.28782716
0.19742081 2.3267603 0.26403064
0.11232756 2.3438098 0.24252857
0.027856534 2.404279 0.22559303
-0.059067775 2.3977323 0.20258471
0.19661202 2.3129153 0.17706242
0.11317446 2.3460665 0.1564597
0.028475029 2.406894 0.1377366
-0.058098674 2.3905931 0.11369105
0.19801266 2.3207531 0.091961809
0.1147663 2.3551502 0.070558831
0.029649219 2.4033091 0.049422707
-0.058256678 2.4391594 0.026615744
0.19789435 2.3155499 0.0066115079
0.11489397 2.3401268 -0.015989065
0.03062921 2.4044938 -0.038699437
-0.056971185 2.4225335 -0.062141854
0.19984968 2.3240855 -0.079012714
0.11579411 2.3409426 -0.10147205
0.032164056 2.409421 -0.12738013
-0.056427669 2.424628 -0.15131111
0.20169526 2.3274632 -0.16491911
0.1182982 2.3664548 -0.18980578
0.032471336 2.404145 -0.2154721
-0.055269018 2.4055269 -0.23897934
0.14863673 1.7096434 -0.18466981
0.11865023 2.3529077 -0.27592066
0.032943007 2.3926802 -0.30288848
-0.054737564 2.4080184 -0.32895774
0.13247314 1.5093771 -0.21952854
0.11946987 2.3431435 -0.3623285
0.034224279 2.4182851 -0.39765289
-0.033927374 1.502926 -0.26218015
0.12675196 1.4315677 -0.26281047
0.12096133 2.3506131 -0.45342612
0.020197609 1.3680972 -0.27698046
-0 0 -0
0.1890448 2.1120386 -0.47025493
0.072529398 1.3970939 -0.32398206
0 0 -0
-0 0 -0
0.21571496 2.3846891 -0.62637949
0.059736844 1.1342363 -0.30865616
0 0 -0
-0.017724872 0.78276026 -0.22984409
0.20866568 2.2768342 0.70635253
0.12270672 2.3079522 0.68645537
0.035811998 2.362711 0.67681557
-0.052990656 2.3909769 0.66013885
0.20920831 2.2986457 0.61626446
0.12280695 2.2984872 0.58928043
0.037394352 2.3506875 0.57802296
-0.049785316 2.3735111 0.5591855
0.21050084 2.3132944 0.52752584
0.12336259 2.3149533 0.50215262
0.038462035 2.360806 0.48788998
-0.04883251 2.4103515 0.47399428
0.20902359 2.3028498 0.4356629
0.12472074 2.3289657 0.41536239
0.040032547 2.383146 0.40112501
-0.047318112 2.3807409 0.37782848
0.20972989 2.3083935 0.34881184
0.12562153 2.3237598 0.32689434
0.041232526 2.3803637 0.31139904
-0.045186624 2.3801327 0.28866982
0.20935167 2.2997761 0.26110944
0.12719019 2.3520155 0.24345385
0.042237878 2.3831577 0.22363134
-0.044336028 2.3970532 0.20250055
0.21170558 2.3215952 0.17782301
0.1270798 2.3363612 0.15586151
0.043135308 2.4006851 0.13739385
-0.043791994 2.4108787 0.11464085
0.21288618 2.3264599 0.092237964
0.12894119 2.3494112 0.070409276
0.044173483 2.3910866 0.049176008
-0.043360144 2.44347 0.026659375
0.21319376 2.326242 0.0066456469
0.12925056 2.3393779 -0.015989065
0.045344587 2.402261 -0.038667254
-0.042036247 2.4188395 -0.062039312
0.21383104 2.3198299 -0.078911155
0.12937894 2.3262224 -0.1008665
0.046519347 2.387213 -0.12621878
-0.041583568 2.4269245 -0.15143566
0.21458927 2.3112831 -0.16386285
0.13292803 2.3676751 -0.18996549
0.047085352 2.39693 -0.21484728
-0.040759228 2.4207449 -0.24046183
0.13957931 1.4988241 -0.1619873
0.13229966 2.3382525 -0.27429211
0.047505129 2.3864815 -0.30213502
-0.039944772 2.4073181 -0.32882237
0.13765873 1.4651815 -0.21321943
0.1335066 2.3364463 -0.36141273
0.048661612 2.3982987 -0.39440808
-0.035891794 2.1837389 -0.3809
0.14063573 1.4846246 -0.27270406
0.13498679 2.3429646 -0.45210198
0.042785168 2.0470216 -0.41447866
-0.015908074 0.98674947 -0.21012741
0.14164214 1.480114 -0.32974136
0.06229372 1.0727539 -0.24885251
0.024496293 1.16616 -0.28190589
-0 0 -0
0.20372567 2.1079144 -0.55399787
0 0 -0
0 0 -0
-0.012794929 0.77517921 -0.22759071
0.22309731 2.2802656 0.7078284
0.13714959 2.3119404 0.68787903
0.050063033 2.350913 0.67351133
-0.037407648 2.3343911 0.64444023
0.22265428 2.2905874 0.61445874
0.13800269 2.3160644 0.59399271
0.051645972 2.3426473 0.57611293
-0.035148583 2.3689055 0.55803913
0.22327603 2.2974002 0.5242039
0.13768053 2.3161039 0.50257599
0.052903026 2.3585677 0.48748529
-0.034194361 2.4213982 0.47611639
0.22172713 2.2868519 0.43288562
0.13848056 2.3193116 0.41378438
0.054473605 2.3749688 0.39979735
-0.032844935 2.390862 0.37939557
0.2221707 2.2893469 0.34613326
0.14017509 2.3278875 0.32758984
0.055697858 2.3741186 0.31062087
-0.030632569 2.384336 0.28915137
0.22336274 2.2974594 0.26099712
0.14096163 2.3402691 0.24232294
0.05669361 2.3758864 0.22297746
-0.029516324 2.3883128 0.20174307
0.2246903 2.3073511 0.17683426
0.14123213 2.3325493 0.15566212
0.057864819 2.4003751 0.13739385
-0.029046349 2.4150975 0.11483081
0.22686559 2.3221264 0.092119612
0.14207561 2.3276243 0.069781162
0.058401275 2.3727796 0.048805952
-0.028320054 2.4396906 0.026615744
0.22736591 2.3238945 0.0066428017
0.14262164 2.322571 -0.015879879
0.059508648 2.3789477 -0.038297158
-0.027249921 2.4240501 -0.062167495
0.22835474 2.3214581 -0.079012714
0.14297237 2.3144162 -0.10039072
0.060935903 2.3778982 -0.12574369
-0.026614631 2.4201481 -0.15099978
0.22866869 2.3089304 -0.16379245
0.14639963 2.3499019 -0.18860804
0.06174041 2.3946047 -0.21466878
-0.025798576 2.4109991 -0.23947349
0.14946115 1.5048653 -0.16273625
0.14707975 2.3443356 -0.27510637
0.061940763 2.378211 -0.30113041
-0.025183354 2.4085088 -0.32895774
0.14782974 1.4761261 -0.2149401
0.14802754 2.338542 -0.36187062
0.063350305 2.3969684 -0.3942458
-0.021720912 2.1090522 -0.36784253
0.14016141 1.3887982 -0.25525531
0.14954789 2.345032 -0.45266947
0.060457874 2.2358146 -0.45277181
-0 0 -0
0.14013219 1.375293 -0.306575
0.068874843 1.0723516 -0.24885251
0.037796874 1.3923837 -0.33664265
-0 0 -0
0.19943413 1.9391727 -0.50996149
0.071210735 1.0958619 -0.2984288
0 0 -0
-0.0081178648 0.78291881 -0.22984409
0.23827098 2.2902575 0.71137053
0.15108225 2.3072293 0.68674016
0.064487025 2.3505616 0.67351133
-0.023664763 2.3933749 0.66067094
0.23859292 2.3074374 0.61935991
0.15170276 2.3074405 0.59200853
0.065690897 2.3306379 0.57324785
-0.020773495 2.3875697 0.56239527
0.23726815 2.295017 0.52398247
0.15137745 2.3074138 0.50088245
0.067234091 2.3533039 0.48647347
-0.019148262 2.3980138 0.47148639
0.23525065 2.2805607 0.43195987
0.15238543 2.3135061 0.41290772
0.068615191 2.3598039 0.39730793
-0.018121716 2.3841052 0.37829861
0.23763543 2.3017113 0.34821662
0.15360348 2.3141384 0.32578149
0.070029415 2.365803 0.30958331
-0.016061937 2.3934133 0.29023477
0.23745549 2.2960455 0.26099712
0.15485734 2.3324125 0.24160327
0.070912413 2.3635516 0.22185649
-0.014917157 2.3974168 0.20250055
0.2380219 2.2979946 0.1762258
0.15501042 2.3236744 0.1551304
0.071867742 2.3760247 0.13602275
-0.014274114 2.4232209 0.11521073
0.24079984 2.317709 0.092001259
0.15635498 2.3267088 0.069781162
0.073235877 2.3813705 0.04899098
-0.013289678 2.4288192 0.026495757
0.24151731 2.3214612 0.006639957
0.15734187 2.3286362 -0.015927646
0.073979937 2.3745403 -0.038232792
-0.012360407 2.4211726 -0.062090583
0.24176313 2.3120613 -0.078741893
0.15757696 2.3194759 -0.10065024
0.075176485 2.3665004 -0.12516299
-0.011754678 2.4182696 -0.15087524
0.2441889 2.3203804 -0.16470787
0.16040708 2.3429925 -0.18812892
0.0760509 2.3822346 -0.21359766
-0.011004478 2.4111118 -0.23947349
0.16547373 1.56819 -0.1696908
0.16036922 2.3275354 -0.27324522
0.076532029 2.3777862 -0.30113041
-0.010447347 2.4185259 -0.33031091
0.1574076 1.4801118 -0.21565704
0.16134654 2.3228011 -0.35958129
0.077606924 2.3827274 -0.39197445
-0.0098949941 2.377099 -0.41457453
0.14888984 1.3898684 -0.25561512
0.16413943 2.3470089 -0.45323697
0.072127648 2.1736879 -0.44027197
-0 0 -0
0.14867312 1.3753779 -0.30679151
0.13886705 1.9727787 -0.45799693
0.046372004 1.3930969 -0.33687755
-0 0 -0
0.24562398 2.2524023 -0.59271944
0 0 -0
0 0 -0
-0 0 -0
0.25462258 2.3096457 0.71786439
0.16393468 2.2880917 0.6813305
0.078489199 2.3376315 0.66993177
-0.0089860782 2.3954029 0.66120315
0.25222027 2.3011281 0.61807019
0.16627501 2.3122637 0.59349662
0.079690352 2.3214564 0.5710991
-0.0061507095 2.3983593 0.56491727
0.25251418 2.3041809 0.52641851
0.16532274 2.3035171 0.5002473
0.081332691 2.3430598 0.48444986
-0.0044285236 2.3951428 0.47090769
0.24923947 2.2790744 0.43195987
0.16770971 2.3282392 0.41571304
0.083093382 2.3593385 0.39730793
-0.0034927798 2.3841715 0.37829861
0.2516464 2.299227 0.34806782
0.16779988 2.3131523 0.32578149
0.084615238 2.3673105 0.30984271
-0.0013856289 2.4103434 0.29228124
0.25197241 2.2984962 0.26144651
0.16959774 2.3373709 0.24222013
0.085377596 2.362077 0.22176307
-0.00020763336 2.4094207 0.20351054
0.25266171 2.3014467 0.17660607
0.16941035 2.3246698 0.15526333
0.085828193 2.3585782 0.13505158
0.00059255172 2.414273 0.11478332
0.25556329 2.3211541 0.092198521
0.17040904 2.3227148 0.069691427
0.08718276 2.3628924 0.048620924
0.0016121988 2.4268551 0.026473939
0.25564742 2.3189416 0.0066371122
0.17089181 2.3176541 -0.015859405
0.088436641 2.3710442 -0.038184516
0.0025092582 2.4341986 -0.062423855
0.25594512 2.3105342 -0.078741893
0.1717322 2.3174691 -0.10060699
0.089166023 2.3520241 -0.12442395
0.0030748586 2.41131 -0.15043937
0.2584219 2.3188384 -0.16470787
0.17403854 2.3320239 -0.18733041
0.090439253 2.3757515 -0.21306209
0.0037790844 2.4041684 -0.23878166
0.16559854 1.4821676 -0.16048941
0.17509377 2.3324499 -0.27394313
0.090968415 2.3733065 -0.30062813
0.004408841 2.4274616 -0.33152875
0.16814686 1.49387 -0.21780787
0.17485063 2.3119128 -0.35805506
0.092111088 2.3792484 -0.39148772
0.0047432845 2.4037135 -0.41921335
0.16306478 1.4387776 -0.26478919
0.17779218 2.3361666 -0.45134532
0.046949241 1.1938424 -0.24186191
0.0025841016 1.1296737 -0.24053237
0.15123312 1.3230317 -0.29531661
0.10724016 1.4007213 -0.32533574
0.088352978 2.240696 -0.54196411
0.0020373075 1.0510206 -0.26534462
0.184333 1.5992396 -0.42112947
0 0 -0
0 0 -0
0.0014848856 0.78008091 -0.22899906
0.26912108 2.3108869 0.71874988
0.17759919 2.282264 0.67990685
0.092640392 2.332303 0.66855502
0.0057028132 2.3915572 0.66013885
0.26622385 2.2985775 0.61781222
0.17955472 2.2996101 0.59052044
0.094207928 2.3277159 0.57277042
0.008537652 2.3905649 0.56308305
0.26732069 2.3084004 0.52774733
0.17854241 2.2907667 0.49770692
0.095228173 2.330775 0.48202157
0.010255259 2.3921812 0.47032893
0.26581389 2.2999551 0.43621838
0.18122479 2.3173511 0.41395971
0.096590318 2.3351374 0.39332491
0.011177807 2.3930368 0.37970901
0.26552221 2.295675 0.34777018
0.181446 2.3051686 0.32480776
0.097769745 2.3340542 0.30556276
0.013343258 2.3993864 0.29095703
0.26629964 2.2988811 0.26167122
0.18292145 2.323395 0.2408836
0.099154264 2.3445983 0.22017506
0.014594382 2.4123657 0.20376301
0.26643369 2.2968817 0.17637791
0.18390694 2.3265707 0.15546273
0.099874265 2.3480325 0.13448028
0.015412616 2.4152229 0.11483081
0.27003172 2.3215275 0.092277423
0.18434073 2.3176401 0.069571786
0.1020235 2.3703039 0.048785396
0.016448675 2.4188004 0.026386674
0.26987135 2.3173294 0.0066371122
0.18510945 2.3165619 -0.015859405
0.10259285 2.3614664 -0.038039695
0.017344872 2.4201422 -0.062064946
0.27000132 2.3079276 -0.078708038
0.18610857 2.3183634 -0.10069349
0.10355215 2.3504353 -0.12437116
0.01798127 2.4262161 -0.15137339
0.27217886 2.3132463 -0.16442619
0.18842457 2.3319054 -0.18741025
0.10466293 2.3671916 -0.21234803
0.018645763 2.4190261 -0.24026416
0.1750392 1.4840857 -0.16081038
0.15731235 1.9363418 -0.22752985
0.10526455 2.3667569 -0.29987466
0.019334899 2.4313521 -0.33207002
0.16622074 1.399448 -0.20418592
0.18057242 2.207372 -0.34202957
0.10586792 2.3599088 -0.38840514
0.01967584 2.4262962 -0.42316496
0.1657009 1.3859831 -0.25525531
0.16845007 2.0473118 -0.39573109
0.1008893 2.2186573 -0.44959724
0.015546267 1.8455621 -0.39297366
0.15958188 1.3240174 -0.29574963
0.094706573 1.1446904 -0.2659992
0.063773751 1.3992201 -0.33852202
0.0095117576 1.1779988 -0.29741114
0 0 -0
0.082939461 0.99339151 -0.2708936
0 0 -0
0 0 -0
0.28248096 2.3025539 0.71668369
0.19216122 2.2878182 0.68189996
0.1065089 2.3220873 0.66580153
0.020278465 2.3799102 0.65694588
0.28055671 2.2988188 0.61832809
0.19292946 2.2897773 0.58828837
0.10781041 2.3125434 0.56918907
0.023177376 2.3875477 0.56239527
0.2819522 2.3105886 0.52863318
0.19349606 2.3003409 0.50003564
0.10915989 2.3223207 0.48040268
0.024871852 2.3861861 0.46917143
0.27944586 2.2943785 0.43547773
0.1965165 2.3289487 0.41623902
0.11091664 2.3345008 0.39332491
0.025860995 2.3929234 0.37970901
0.27936393 2.2920392 0.34747255
0.19600567 2.3089457 0.32550329
0.11223213 2.3363817 0.30595183
0.0281002 2.4022374 0.29131818
0.28160429 2.3070674 0.26279476
0.19692163 2.3192556 0.24057518
0.11363493 2.3459346 0.22036189
0.029250402 2.4002745 0.20275304
0.28282043 2.3140087 0.17782301
0.1974165 2.3164508 0.15486453
0.11418255 2.345381 0.13436602
0.030144332 2.4080911 0.11449838
0.28390664 2.3168514 0.09215907
0.19855803 2.3164654 0.069571786
0.1161234 2.360646 0.048600368
0.031186363 2.4106548 0.02629941
0.28311098 2.3076892 0.0066143526
0.19940589 2.3163788 -0.015866229
0.11683298 2.3557994 -0.03795924
0.032034684 2.4079955 -0.061757315
0.28562406 2.3181305 -0.079114273
0.20101871 2.3251407 -0.10103951
0.1179722 2.3497555 -0.12437116
0.032638066 2.4090946 -0.15031482
0.28587699 2.3075728 -0.16414452
0.20238383 2.3267334 -0.18709086
0.11898537 2.3625257 -0.21199098
0.033336747 2.4079211 -0.23917699
0.18242687 1.4691702 -0.15931249
0.14228959 1.627625 -0.19135307
0.11903231 2.3512044 -0.29799104
0.034015741 2.4143455 -0.32976961
0.17443621 1.3954558 -0.20375577
0.13027498 1.4806597 -0.22954594
0.12039634 2.3602004 -0.38856739
0.034506813 2.4221897 -0.42247772
0.17739388 1.4103162 -0.25993231
0.12874825 1.4554516 -0.28147602
0.11354076 2.199399 -0.44582748
0 0 -0
0.16549304 1.3055797 -0.29185247
0.10293646 1.1576732 -0.2691578
0.067286417 1.30076 -0.31479493
0 0 -0
0.26583841 2.0814805 -0.54893619
0.12574977 1.4023123 -0.38260776
0 0 -0
0 0 -0
0.29635951 2.298882 0.7160933
0.2060232 2.2846866 0.6813305
0.12060514 2.3185098 0.66497546
0.034753788 2.3710663 0.65455115
0.29281282 2.2826796 0.61445874
0.20671387 2.285656 0.58754432
0.12189554 2.3098991 0.56871158
0.037641611 2.3756816 0.5596441
0.29438761 2.2952735 0.52553266
0.20769495 2.3000836 0.5002473
0.12267957 2.3079164 0.47756964
0.039382767 2.3781397 0.46762806
0.29451701 2.3004189 0.43695897
0.20831667 2.3002453 0.41132975
0.12497455 2.3288524 0.3924951
0.040275488 2.3769195 0.37720165
0.29329669 2.2893012 0.34732375
0.20936105 2.2988236 0.32425135
0.12661943 2.3366392 0.30608153
0.042662501 2.3920941 0.2901144
0.29512262 2.3003681 0.26223299
0.21132907 2.3199847 0.24078079
0.12791863 2.343205 0.22017506
0.043813355 2.3910832 0.20199555
0.29548916 2.3003621 0.17691033
0.21235286 2.3231449 0.15539625
0.12769675 2.3286865 0.13345198
0.044677328 2.3948777 0.11388101
0.29786199 2.3130836 0.092080161
0.21359111 2.3241613 0.069840975
0.12889318 2.328943 0.047963053
0.045786578 2.4004204 0.026190327
0.29828823 2.313843 0.0066371122
0.21416643 2.3210862 -0.015907174
0.13106307 2.3510449 -0.037894875
0.046712104 2.402756 -0.061629131
0.29868773 2.3074138 -0.078809597
0.2144523 2.3149102 -0.10065024
0.13176969 2.3380201 -0.12379047
0.047085438 2.3918853 -0.14925627
0.30131775 2.3156672 -0.1648487
0.21591681 2.3175075 -0.18645203
0.13331072 2.358768 -0.21172322
0.047931917 2.3987169 -0.23828748
0.19079524 1.4630936 -0.15877752
0.15394007 1.6445212 -0.1934469
0.13328807 2.3474584 -0.29761431
0.048729066 2.4091384 -0.32909304
0.17565486 1.3384278 -0.19558258
0.14686298 1.559531 -0.24190845
0.13442545 2.351536 -0.38726944
0.048806299 2.3943546 -0.41766709
0.18076532 1.3692169 -0.25255707
0.13323514 1.4077106 -0.27239618
0.12754269 2.2074673 -0.44761315
0.038496584 1.8599002 -0.39609745
0.17530276 1.3180883 -0.29488361
0.10293567 1.0823421 -0.25178549
0.081332721 1.4051249 -0.34016645
0 0 -0
0.30121207 2.2485728 -0.59347874
0 0 -0
0 0 -0
0.016369537 0.80582291 -0.2366042
0.30892393 2.2856581 0.71255118
0.22114131 2.2948298 0.68474716
0.1348848 2.3186858 0.66525078
0.049121354 2.3621349 0.65215653
0.30604073 2.2750947 0.61291099
0.22073451 2.2843444 0.58754432
0.13652349 2.3168628 0.57062161
0.051961109 2.3637285 0.55689287
0.30924556 2.2992229 0.52686149
0.22011448 2.2812552 0.49643669
0.13701232 2.3100529 0.47817674
0.053884953 2.3739297 0.46685642
0.30914968 2.3024642 0.43769956
0.2233749 2.3087232 0.41308308
0.13920289 2.3270576 0.39232916
0.054836441 2.3756404 0.37704495
0.31023499 2.3090198 0.35059759
0.22317483 2.294539 0.32383403
0.14107385 2.3377979 0.30634093
0.057339311 2.3917873 0.2901144
0.31055677 2.3083618 0.26335651
0.22546394 2.3176544 0.24067798
0.14187126 2.3354194 0.21952116
0.058410838 2.3877809 0.20174307
0.31319216 2.3251865 0.17896387
0.22718495 2.3277566 0.15579505
0.14173977 2.323873 0.13322346
0.059123594 2.3845727 0.11340611
0.31178179 2.309232 0.092001259
0.22794548 2.323802 0.069870889
0.14305814 2.3261125 0.047921937
0.06051442 2.4000945 0.026190327
0.31207827 2.3089962 0.0066285776
0.22722849 2.3077862 -0.015825283
0.14523923 2.3462045 -0.037830509
0.061530951 2.4054222 -0.06170604
0.31203383 2.2995956 -0.078606479
0.22845575 2.3115623 -0.10056373
0.14567687 2.3301909 -0.12342095
0.061194032 2.3696012 -0.14788637
0.31632942 2.3197048 -0.16527121
0.22845723 2.2992764 -0.18509458
0.14703371 2.3459768 -0.2106521
0.062545329 2.3943987 -0.23789215
0.18496135 1.3535339 -0.1470083
0.14716139 1.4745462 -0.17355549
0.1473154 2.3406556 -0.29686084
0.063223079 2.3978989 -0.3276045
0.19235624 1.3990927 -0.20461608
0.14744821 1.4691162 -0.2280197
0.14804101 2.3378649 -0.38516033
0.063340142 2.3881013 -0.41663623
0.18579498 1.3437216 -0.24805997
0.14640215 1.4518081 -0.28109771
0.14095998 2.2046869 -0.44721636
0.029887067 1.1136265 -0.2372003
0.18029025 1.2947481 -0.28990394
0.11968796 1.1815236 -0.27502379
0.12182153 1.9022233 -0.46068123
0 0 -0
0.2763164 1.9707572 -0.52059096
0.098565117 0.96577621 -0.26381317
0 0 -0
0.021009184 0.7941972 -0.23322415
0.32334399 2.2865577 0.71343672
0.23512013 2.2924759 0.68446237
0.14910945 2.3178146 0.66525078
0.06309513 2.3425169 0.64683497
0.32524714 2.3104863 0.62297142
0.23653045 2.3002932 0.59200853
0.15086307 2.3179195 0.5710991
0.066080622 2.3497434 0.5536831
0.32334751 2.2972822 0.52686149
0.23510619 2.2895839 0.49855369
0.15099201 2.306237 0.47756964
0.068110682 2.3617847 0.46454147
0.32422873 2.3073361 0.43899563
0.23713344 2.3033917 0.41238171
0.15445268 2.3409195 0.39481857
0.069383219 2.3742719 0.37688825
0.32549855 2.3149066 0.35178804
0.23714775 2.2921414 0.32369494
0.15541565 2.3368881 0.30634093
0.071625501 2.3784907 0.28854945
0.32457626 2.305429 0.26324418
0.23845194 2.3043542 0.23944426
0.15573318 2.3275511 0.21886727
0.072420806 2.3664618 0.19997561
0.32828832 2.3291452 0.17942023
0.23981529 2.3104396 0.1547316
0.15606302 2.3239558 0.13328059
0.07369218 2.3821685 0.11331113
0.32678375 2.3132117 0.092237964
0.24157767 2.3163946 0.069691427
0.15739569 2.3261883 0.047942493
0.0750833 2.3946807 0.026135789
0.32778031 2.3179295 0.006659871
0.24148862 2.3073432 -0.015832109
0.15915725 2.3382864 -0.037717871
0.074862927 2.3600368 -0.060552422
0.32964942 2.3223755 -0.079452805
0.24346982 2.3180659 -0.10090975
0.15997191 2.3292532 -0.12342095
0.075828142 2.3721738 -0.14807318
0.33027521 2.3157451 -0.16513038
0.24329351 2.3047702 -0.18565352
0.16060477 2.3331065 -0.20958097
0.076850854 2.3820348 -0.23670617
0.20029585 1.4015865 -0.15235794
0.14981982 1.413367 -0.16645972
0.15996486 2.3149645 -0.29372147
0.077741981 2.3915243 -0.32679263
0.20206378 1.4057229 -0.20576321
0.15960152 1.4976653 -0.23259841
0.16210949 2.3329749 -0.38451135
0.077541798 2.3738832 -0.41423088
0.19656914 1.3600806 -0.25129789
0.15279919 1.4274496 -0.27655777
0.15133227 2.1588054 -0.43808949
0.066636868 2.0205827 -0.43045923
0.18907472 1.2994139 -0.29120296
0.13526586 1.2582577 -0.29307291
0.080326088 1.1441607 -0.27720746
0.031746589 0.97293854 -0.24576198
0 0 -0
0 0 -0
0 0 -0
0.025881892 0.79405338 -0.23322415
0.33862421 2.2930374 0.7160933
0.24866383 2.2862253 0.68303883
0.1635989 2.3206918 0.66635215
0.076734431 2.319927 0.64071518
0.33660698 2.2893295 0.61781222
0.25074533 2.2997615 0.59225655
0.16528976 2.3198562 0.57181537
0.080130473 2.338593 0.55116111
0.33743727 2.2952549 0.52686149
0.24989098 2.2948995 0.50003564
0.16472012 2.2994063 0.47635549
0.082395218 2.3554387 0.46338394
0.34052095 2.3198876 0.44177294
0.2496599 2.2872128 0.40975174
0.16711034 2.3163218 0.39083549
0.083391666 2.3580091 0.37438086
0.33926535 2.3099306 0.35134161
0.24991214 2.2788305 0.32202569
0.16917665 2.3279788 0.30530334
0.085858606 2.3680859 0.28734568
0.33886054 2.3043771 0.26335651
0.25399661 2.3157017 0.24078079
0.16979416 2.3235729 0.21858704
0.086720236 2.3599982 0.19947061
0.34228304 2.325114 0.17926811
0.25431469 2.3119001 0.15493099
0.1701736 2.3209629 0.13316633
0.087530278 2.3607094 0.11231384
0.33965862 2.3022664 0.091882899
0.25688404 2.3248038 0.069990531
0.17159234 2.3241818 0.047921937
0.089063466 2.3751895 0.025928535
0.34082797 2.3079605 0.0066371122
0.25520092 2.3018427 -0.015804812
0.17202131 2.3173232 -0.037396047
0.08987198 2.3735185 -0.060911324
0.34477219 2.326241 -0.079655923
0.25813043 2.3205001 -0.10108276
0.17426093 2.3282278 -0.12342095
0.090344094 2.3706665 -0.14801091
0.34491885 2.3166349 -0.16534163
0.25798437 2.3081875 -0.18605278
0.17566238 2.3420093 -0.21047357
0.091274343 2.3765466 -0.23621199
0.20449124 1.3708298 -0.14914815
0.17787124 1.585149 -0.18681642
0.17342158 2.3040464 -0.29246569
0.091840625 2.3761513 -0.32476285
0.20672123 1.3780314 -0.20189171
0.1633611 1.448537 -0.22511984
0.17560248 2.3211131 -0.38272673
0.092068009 2.3723783 -0.4140591
0.20109709 1.3335589 -0.24662089
0.15857141 1.4001411 -0.27145034
0.15831457 2.0757446 -0.42142302
0.048100799 1.2294778 -0.26198241
0.19704422 1.2982293 -0.29120296
0.14309391 1.2583721 -0.29329851
0.087493055 1.1455847 -0.27767733
0 0 -0
0.20304665 1.3293306 -0.35178486
0 0 -0
0 0 -0
0.032090738 0.82839608 -0.24336432
0.35399604 2.2994153 0.71874988
0.26192066 2.2779901 0.68104577
0.17710046 2.3100591 0.66359866
0.091118895 2.3232653 0.64177948
0.35401508 2.309186 0.62374532
0.26607171 2.3087661 0.59498471
0.17907128 2.3129892 0.57038283
0.0945962 2.340975 0.55184895
0.3524009 2.2989247 0.52819026
0.26486155 2.3010902 0.50172919
0.17935768 2.3051867 0.477772
0.096241578 2.3401828 0.4604902
0.35489777 2.3187261 0.44195807
0.26402777 2.2885721 0.41027775
0.18332171 2.3408141 0.39515045
0.098022409 2.3614001 0.37500772
0.35477969 2.3166027 0.35268092
0.26514402 2.288075 0.32355586
0.18127552 2.2992194 0.30167189
0.10013495 2.3615632 0.28662339
0.35525247 2.3169873 0.26504183
0.26636842 2.2982905 0.23913585
0.18452005 2.3284423 0.21914752
0.10094307 2.3534484 0.19896562
0.35533309 2.3150856 0.17865965
0.26699805 2.2974114 0.15406695
0.184728 2.3238559 0.13339485
0.10171173 2.3531425 0.11198141
0.3562091 2.3159406 0.092514127
0.27125981 2.3241765 0.070020437
0.18585002 2.3230851 0.047921937
0.10389727 2.3805921 0.025993984
0.35452646 2.3028607 0.0066285776
0.2705991 2.3111584 -0.015879879
0.18679786 2.3232007 -0.037508685
0.10412624 2.3659313 -0.060731873
0.36117548 2.3379095 -0.080129862
0.27154809 2.3119268 -0.10078
0.18886594 2.3310959 -0.1236321
0.10453553 2.3620911 -0.14751278
0.35851517 2.3105321 -0.16505995
0.27272627 2.3115106 -0.18645203
0.18801466 2.3160689 -0.2082421
0.10550052 2.3679888 -0.23542133
0.2107605 1.3557949 -0.14765026
0.16761996 1.4153674 -0.16692501
0.16774517 2.0596919 -0.26157409
0.10637435 2.3745532 -0.32462755
0.20325269 1.3004688 -0.19070736
0.17201254 1.4455446 -0.22481461
0.16344535 1.9974157 -0.32951164
0.10679989 2.3757052 -0.41474631
0.21064967 1.3410459 -0.24823986
0.16681007 1.3962166 -0.27088284
0.12393741 1.5033031 -0.30535311
0.098062299 2.1661737 -0.46169716
0.26185936 1.6566832 -0.37196037
0.14501195 1.2091061 -0.2820178
0.088523082 1.0723723 -0.26005819
0 0 -0
0.35554439 2.2357264 -0.59221333
0 0 -0
0 0 -0
0 0 -0
0.36900535 2.3028605 0.72052097
0.27612388 2.2782433 0.68161517
0.19103329 2.3060546 0.6627726
0.10598408 2.3361437 0.64550453
0.3686341 2.3098323 0.62451911
0.27964893 2.3022814 0.59374464
0.1919658 2.2963636 0.56656277
0.10873204 2.335489 0.55070263
0.36926621 2.3140528 0.53217655
0.27850497 2.295541 0.50088245
0.19390845 2.3089223 0.47878382
0.11045986 2.3366079 0.45991144
0.37143809 2.3310618 0.44473538
0.27865937 2.2917955 0.41115439
0.19701704 2.3317842 0.39382279
0.1120867 2.3518753 0.37359729
0.36820894 2.3094995 0.35193685
0.27965847 2.2903368 0.32411227
0.19546385 2.2990518 0.30180156
0.11404567 2.3490059 0.28517884
0.3691493 2.3128014 0.26481712
0.28251529 2.3133979 0.2408836
0.19829518 2.3213141 0.21858704
0.11523524 2.3497989 0.19871312
0.37157661 2.3256617 0.1796484
0.28327245 2.3135571 0.15526333
0.19889823 2.3216841 0.13333772
0.11585288 2.346488 0.11169647
0.36883315 2.3038449 0.092119612
0.28453988 2.3145318 0.069781162
0.20130251 2.3358464 0.048209753
0.11760724 2.3619332 0.025797637
0.36864987 2.300642 0.0066285776
0.28489739 2.310447 -0.015886702
0.20035924 2.3140416 -0.037379958
0.1193425 2.3792257 -0.061090779
0.37202361 2.3139408 -0.079385094
0.28560603 2.3092256 -0.10073674
0.20299225 2.3279037 -0.12352654
0.11902708 2.3614051 -0.14751278
0.37125459 2.2994258 -0.16442619
0.28592134 2.3018801 -0.18581323
0.20144214 2.3059416 -0.20743877
0.11997784 2.366303 -0.23532248
0.21669427 1.3397535 -0.14604536
0.17716134 1.4212112 -0.16773929
0.13612933 1.5536036 -0.19740492
0.12018612 2.3590131 -0.32259777
0.21106958 1.2982204 -0.19056398
0.18112458 1.4464232 -0.22511984
0.14109489 1.6031944 -0.26461521
0.12031906 2.3543446 -0.41113836
0.20824771 1.2746834 -0.23618764
0.17096511 1.3600929 -0.26407295
0.12926564 1.4585812 -0.29642466
0.085384816 1.6605337 -0.35403031
0.21834406 1.3284677 -0.29856423
0 0 -0
0.095101364 1.0718089 -0.26005819
0 0 -0
0.16064207 0.97166908 -0.2576381
0.13754675 1.0836891 -0.29685536
0 0 -0
0.038830657 0.7608614 -0.22364731
0.384855 2.31092 0.72376788
0.29130951 2.2860153 0.68446237
0.20441218 2.296221 0.66029441
0.12016761 2.3325615 0.64470631
0.38042828 2.2932303 0.62064976
0.29303393 2.2947564 0.59225655
0.20509727 2.2845035 0.56393653
0.12285535 2.3308897 0.54978549
0.38345802 2.3117435 0.53217655
0.29209024 2.289911 0.50003564
0.20719266 2.2979355 0.47676021
0.12458555 2.3319669 0.45913979
0.38348594 2.3151658 0.4421432
