# .PCD v0.7 - Point Cloud Data file format
VERSION 0.7
FIELDS x y z
SIZE 4 4 4
TYPE F F F
COUNT 1 1 1
WIDTH 1548
HEIGHT 1
VIEWPOINT 0 0 0 1 0 0 0
POINTS 1548
DATA ascii
-0.22166927 2.3983967 -0.081585534
-0.31332341 2.4245484 -0.10584062
-0.39318526 2.3672185 -0.12685224
-0.48091617 2.357775 -0.15012802
-0.22485335 2.4505818 -0.17372137
-0.31478423 2.4459276 -0.19755134
-0.38037878 2.2923431 -0.2082421
-0.44682196 2.1939461 -0.22237529
-0.21356474 2.3347173 -0.25228932
-0 0 -0
-0.34439412 2.0788527 -0.26672268
-0.25180212 1.2379234 -0.17253028
-0.10873089 1.199506 -0.1745044
-0.13806681 1.0812987 -0.16834386
-0.16910455 1.0231955 -0.17051536
-0.21504578 1.0580708 -0.1883024
-0.089019865 0.9905163 -0.18186268
-0 0 -0
-0.1498322 0.91004014 -0.18670389
-0.18224959 0.89815211 -0.19513318
-0.080057196 0.90048444 -0.20048621
-0.11147331 0.87950099 -0.20530896
-0.143291 0.87087953 -0.2133088
-0.17692102 0.87033325 -0.2242211
-0 0 -0
-0.10687027 0.84828705 -0.23234439
-0.13228446 0.80530107 -0.23042366
-0.15408514 0.75786042 -0.22702737
-0.2094488 2.4139349 0.74856246
-0.31376597 2.5005808 0.74852401
-0.38047042 2.3165646 0.67240995
-0.47919899 2.3627384 0.66546041
-0 0 0
-0.31678614 2.5300119 0.65277195
-0.38068768 2.3288147 0.58017176
-0.47873774 2.3749297 0.57064891
-0.20941931 2.3956301 0.54612875
-0.30876401 2.4631534 0.53771824
-0.37702319 2.3119729 0.48404518
-0.47702229 2.3751929 0.4763093
-0.21819328 2.4894879 0.47084183
-0.32272297 2.5799832 0.46305278
-0.38005316 2.3380022 0.39863566
-0.47864762 2.3880351 0.38644755
-0.21192369 2.420383 0.36562741
-0.30138791 2.419364 0.34247398
-0.38360745 2.3676946 0.31373358
-0.48033404 2.4075682 0.29769829
-0.21296094 2.4371247 0.27661422
-0.31338793 2.5160511 0.26206243
-0.37724012 2.3343296 0.22185649
-0.47609279 2.3924026 0.20603548
-0.21651874 2.4823365 0.1900683
-0.31664324 2.5487144 0.17108211
-0.37532061 2.3260605 0.13482307
-0.46594363 2.3454652 0.11369105
-0.20754583 2.3881309 0.094644524
-0.30368036 2.4541759 0.073998541
-0.38340795 2.3838539 0.049648855
-0.46526423 2.3471892 0.026103064
-0.20918825 2.4109321 0.0068846168
-0.30009323 2.432502 -0.016726077
-0.37773097 2.3545854 -0.038377613
-0.46777114 2.3643796 -0.061808582
-0.20952494 2.4295835 -0.082601123
-0.28953755 2.3540392 -0.10268313
-0.37818015 2.3666282 -0.12669387
-0.47147015 2.3861387 -0.15174699
-0.21117339 2.4678175 -0.17484806
-0.29552945 2.4131835 -0.19475655
-0.36646307 2.2956173 -0.20833135
-0.44163364 2.238627 -0.22662514
-0.21089523 2.4726951 -0.26705435
-0.23951942 1.9629245 -0.23160119
-0.35505238 2.2278848 -0.28555906
-0 0 -0
-0.098536819 1.1666214 -0.16962919
-0.13238275 1.0899742 -0.16956486
-0.1637527 1.030061 -0.17148882
-0.20512444 1.0419719 -0.18520984
-0 0 -0
-0.11368717 0.93974376 -0.18235411
-0.14347903 0.90610206 -0.18571185
-0.17805552 0.90597147 -0.19659096
-0.074047498 0.89512092 -0.19918716
-0.10770662 0.89370948 -0.20846756
-0.13870429 0.87654269 -0.21448341
-0.17382516 0.88281816 -0.22715847
-0 0 -0
-0.098679923 0.82401472 -0.22552615
-0.12508824 0.79183882 -0.22634777
-0.15017369 0.76255733 -0.22815406
-0.19401924 2.4075558 0.7462011
-0.30863264 2.5881269 0.77414858
-0.3689487 2.3359478 0.67736626
-0.4669221 2.3769846 0.66865325
-0.20171313 2.4835379 0.66527671
-0.30331656 2.5492234 0.65723616
-0.36880365 2.3464556 0.58399183
-0.46825907 2.39884 0.57569283
-0.19629526 2.4163094 0.55055803
-0.28601444 2.4009504 0.52374607
-0.37268957 2.3771296 0.49719855
-0.45906806 2.360738 0.47283682
-0.20219581 2.4819646 0.46917543
-0.28689986 2.4137628 0.4328956
-0.37316045 2.3880312 0.4067677
-0.4598465 2.3695967 0.3829999
-0.1970685 2.4216378 0.36562741
-0.30318019 2.5617957 0.36236584
-0.37548035 2.4111533 0.31918079
-0.46122259 2.3880515 0.29492956
-0.20081785 2.4730499 0.28054661
-0.29443723 2.4882922 0.25897813
-0.36306268 2.3375843 0.22194992
-0.46046188 2.3903863 0.20561464
-0.20297481 2.5044892 0.19166553
-0.29082504 2.4643998 0.16529962
-0.36333585 2.3431182 0.13567998
-0.45720178 2.377707 0.11511575
-0.19304942 2.3913512 0.094723418
-0.29188254 2.4837892 0.074836031
-0.36755204 2.378257 0.049484383
-0.45895478 2.3922272 0.026572112
-0.19776484 2.4540343 0.0070041018
-0.28609279 2.4422431 -0.016780671
-0.36297175 2.3548822 -0.03834543
-0.45193881 2.3603325 -0.061629131
-0.19692639 2.4597144 -0.083582856
-0.28261986 2.4202724 -0.1054946
-0.36319712 2.365943 -0.12653551
-0.46619284 2.4380019 -0.15486039
-0.19531666 2.4601173 -0.17421432
-0.28221312 2.4278231 -0.19579461
-0.35901329 2.3411407 -0.21225876
-0.42770272 2.2403171 -0.22652631
-0.19093589 2.413482 -0.26052782
-0 0 -0
-0.33912382 2.2153113 -0.2836754
-0.39227867 2.0574942 -0.28606194
-0.11068709 1.413866 -0.20547643
-0.12105379 1.0505127 -0.16330728
-0.15876974 1.0398254 -0.172949
-0.19153759 1.0054694 -0.17850929
-0 0 -0
-0 0 -0
-0.13850598 0.91084135 -0.18650548
-0.16865599 0.88686901 -0.19221763
-0.069298893 0.90529281 -0.20135224
-0.10177838 0.89048183 -0.2075651
-0.13171701 0.86680645 -0.21189928
-0.1673162 0.87815344 -0.22568978
-0 0 -0
-0.096125849 0.84665805 -0.23155767
-0.12094891 0.79734892 -0.2277064
-0.14387533 0.75498146 -0.22561902
-0 0 0
-0.2691673 2.3813643 0.71179527
-0.35979804 2.3723848 0.68727893
-0.45214841 2.3788579 0.66838723
-0.1900135 2.5319376 0.67791665
-0.28419536 2.5202315 0.64929968
-0.36743915 2.4350932 0.6054796
-0.44811273 2.3729742 0.56881481
-0.17920254 2.3873229 0.54369271
-0.27248326 2.413343 0.52607471
-0.36786175 2.4442549 0.51075667
-0.44330448 2.35676 0.47148639
-0.18482329 2.4547403 0.46380603
-0.2839855 2.5211368 0.45183152
-0.36391261 2.4263592 0.4129082
-0.4469381 2.38111 0.38441032
-0.18294749 2.4326622 0.36711553
-0.28160718 2.5114501 0.35499334
-0.3586269 2.3996823 0.31736502
-0.44747245 2.395716 0.29553148
-0.1843015 2.4563994 0.27852422
-0.2777231 2.4772015 0.25764161
-0.35707825 2.3958988 0.22727446
-0.44560361 2.3921871 0.20553048
-0.1872315 2.500716 0.19128522
-0.27913481 2.4968779 0.16736004
-0.35600442 2.3927035 0.13842215
-0.44150832 2.3745756 0.11483081
-0.17733267 2.3785403 0.094171099
-0.26845491 2.4120204 0.072622657
-0.35280579 2.3794785 0.049463827
-0.44755051 2.4126954 0.026768459
-0.18262924 2.4542046 0.007001257
-0.26845613 2.4200995 -0.01661689
-0.34983188 2.3659673 -0.038490251
-0.43708369 2.3610952 -0.061577864
-0.17674862 2.3921034 -0.081247009
-0.26304331 2.3792615 -0.10363471
-0.34881857 2.3691149 -0.1265883
-0.44360456 2.3995962 -0.15224513
-0.18742961 2.5597601 -0.18118571
-0.26622078 2.4196007 -0.1949961
-0.34507635 2.3462558 -0.21252654
-0.41430959 2.2448564 -0.22672398
-0.17778705 2.4374154 -0.26298866
-0 0 -0
-0.32754195 2.2310925 -0.28543344
-0.41251117 2.2381761 -0.31082511
-0.10663678 1.4786801 -0.21479671
-0.12638758 1.1593066 -0.18009588
-0.15210059 1.0388273 -0.1726245
-0.19196559 1.042473 -0.18486622
-0 0 -0
-0 0 -0
-0.13079359 0.89712608 -0.18352933
-0.1665708 0.90616435 -0.19617444
-0.064976551 0.92323065 -0.20524938
-0.097045384 0.89786965 -0.20914441
-0.12625577 0.86663646 -0.21166435
-0.16087106 0.87344235 -0.2242211
-0 0 -0
-0.090826064 0.84627247 -0.23129542
-0.11757758 0.80855191 -0.23069538
-0 0 -0
-0.16328923 2.3925974 0.740888
-0.26748165 2.5040262 0.74795455
-0.34371313 2.3640831 0.68425006
-0.42831191 2.3313389 0.65428513
-0 0 0
-0.26533887 2.490139 0.64111525
-0.36055249 2.4930446 0.61932737
-0.42847636 2.3479102 0.56216604
-0.16615947 2.4117262 0.54900777
-0 0 0
-0.3809571 2.6412916 0.55143106
-0.4304145 2.3681245 0.47322264
-0.16887683 2.4430833 0.46139905
-0 0 0
-0.40653291 2.8287492 0.48095176
-0.42879465 2.3643715 0.3812761
-0.16774508 2.4297929 0.36652029
-0.25523964 2.40973 0.3403874
-0.35134447 2.4538596 0.3242389
-0.43364558 2.4033012 0.29613337
-0.16806537 2.4406316 0.27661422
-0.26367038 2.4897399 0.25877252
-0.35672396 2.4985793 0.23680261
-0.42562324 2.3654552 0.20300554
-0.17126878 2.4928648 0.19060071
-0.25647518 2.4290845 0.16270746
-0.36596775 2.5678091 0.14841962
-0.42904863 2.3890376 0.11540069
-0.16668905 2.4374037 0.096459299
-0.24832207 2.3629241 0.071097218
-0.35042807 2.467716 0.051252417
-0.4343251 2.4242544 0.02686663
-0.16702238 2.4472973 0.0069784978
-0.25276843 2.4137447 -0.016562296
-0.34245712 2.4185588 -0.039310902
-0.42681038 2.3873503 -0.062193129
-0.16936067 2.5008345 -0.084903121
-0.25341657 2.4285266 -0.10571086
-0.33664519 2.3880208 -0.12748572
-0.92404926 5.17594 -0.32802755
-0.16531274 2.4653149 -0.17442557
-0.25281048 2.4350693 -0.196114
-0.45399904 3.2241442 -0.29178885
-0.40628934 2.2796853 -0.22998548
-0.16514653 2.473182 -0.26673338
-0 0 -0
-0.31177494 2.2183237 -0.28354985
-0.41439462 2.3284576 -0.32300371
-0.071575686 1.0852858 -0.1575845
-0.11189314 1.0882938 -0.16895434
-0.14599754 1.0416955 -0.172949
-0.18453072 1.0378116 -0.18383537
-0 0 -0
-0 0 -0
-0 0 -0
-0.15622176 0.88020468 -0.19034335
-0.058309469 0.90802354 -0.20178525
-0.091139361 0.89457136 -0.20824195
-0.12335184 0.88472348 -0.21589294
-0.158225 0.88968652 -0.22813761
-0.054429051 0.86027312 -0.22549661
-0.083981231 0.83049208 -0.22683737
-0.10969602 0.78828794 -0.22471741
-0.13476774 0.75763488 -0.22590068
-0 0 0
-0 0 0
-0.32827359 2.3594823 0.68232262
-0.41214705 2.3234828 0.65135825
-0.15348567 2.4472952 0.65470034
-0.25276318 2.5187099 0.64805967
-0.34538174 2.496172 0.61956608
-0.41625705 2.362957 0.56514651
-0.15032031 2.3961549 0.54524291
-0.23913375 2.3795524 0.51803011
-0.36969572 2.6794739 0.55891836
-0.41112882 2.3436601 0.467821
-0.15264815 2.4244583 0.45769599
-0.25538236 2.5479422 0.45603949
-0.3464646 2.5205214 0.42817649
-0.40780863 2.3299897 0.37532115
-0.15159197 2.4110382 0.36354408
-0.24241427 2.4309585 0.34316948
-0.32713443 2.3891668 0.31541961
-0.41412318 2.3785324 0.29276276
-0.15408164 2.4574845 0.2784119
-0.24611893 2.4685457 0.25640792
-0.32280192 2.3645871 0.22391158
-0.40598786 2.3385694 0.2004806
-0.15646753 2.5018301 0.19120917
-0.24462479 2.4613922 0.16476789
-0.33712971 2.4740515 0.14287817
-0.4136996 2.3876884 0.11521073
-0.15197852 2.4423697 0.096617103
-0.23352367 2.3614192 0.071007483
-0.34254223 2.5233178 0.05236258
-0.41365188 2.3933725 0.026495757
-0.15379991 2.4772203 0.0070609995
-0.23844343 2.4202261 -0.016596418
-0.32667196 2.4136789 -0.039198264
-0.40994528 2.3771176 -0.061859857
-0 0 -0
-0.2358757 2.4031901 -0.10454302
-0.32505274 2.4128039 -0.12869987
-0.41073689 2.3851876 -0.15099978
-0.15715528 2.580785 -0.18252364
-0.23718648 2.42963 -0.19555506
-0.43380907 3.2239079 -0.2915211
-0.39027077 2.2703667 -0.22879948
-0.15520182 2.5604911 -0.27604178
-0 0 -0
-0.23926561 1.7816622 -0.22754309
-0.39875877 2.3231444 -0.3219212
-0.065623961 1.0975593 -0.15930517
-0.10416792 1.0781392 -0.1672755
-0.13829345 1.0327914 -0.17132656
-0.17333072 1.0107666 -0.1788529
-0 0 -0
-0.090590455 0.94225073 -0.18235411
-0.1208105 0.90643573 -0.1851166
-0.14933291 0.87247014 -0.18846908
-0 0 -0
-0.086669393 0.90578139 -0.2107237
-0.11753602 0.88257319 -0.21518818
-0.14833747 0.86483884 -0.22152847
-0 0 -0
-0.07742472 0.81562078 -0.22264153
-0.10701258 0.80516398 -0.22933675
-0.13319901 0.77641577 -0.23125245
-0.13637033 2.438303 0.75446606
-0.22817229 2.4164553 0.72090632
-0.32012144 2.4091005 0.69609022
-0.39967054 2.3364196 0.65428513
-0.13595682 2.4038186 0.64283425
-0.23312636 2.4758468 0.63665104
-0.32446265 2.4558849 0.60906094
-0.39572006 2.3299606 0.55666357
-0.13467854 2.3804808 0.54147804
-0.23122683 2.4520051 0.53348428
-0.31718126 2.4078913 0.50185281
-0.394941 2.3354962 0.4656989
-0.13983116 2.4616508 0.46454662
-0.22868285 2.431839 0.43499961
-0.33484119 2.5519323 0.4331553
-0.39235425 2.3256307 0.37422413
-0.13724323 2.4198213 0.36473459
-0.22592598 2.4156387 0.34080473
-0.32081997 2.4550369 0.32384983
-0.3944284 2.3506782 0.28903097
-0.13793412 2.4395342 0.27627715
-0.23346804 2.4967496 0.25918376
-0.32282037 2.4780867 0.2344673
-0.38817835 2.3203776 0.19871312
-0.14015941 2.4858193 0.18991619
-0.22923961 2.4598665 0.1645685
-0.33854848 2.6037879 0.15024774
-0.39492908 2.3655508 0.11402348
-0.13950673 2.4881506 0.098392434
-0.22465786 2.4235203 0.072832026
-0.31973377 2.4688561 0.051190741
-0.3958379 2.3771245 0.026288502
-0.14116576 2.5240455 0.0071918643
-0.22404839 2.4266222 -0.016630538
-0.31377605 2.4305124 -0.039439637
-0.39092809 2.352962 -0.061167687
-0.1413126 2.5506237 -0.08652807
-0.22222342 2.4165306 -0.10506206
-0.30807862 2.3979146 -0.12780245
-0.39544055 2.3837245 -0.1507507
-0.14327966 2.6175578 -0.18505868
-0.2252692 2.4637976 -0.19819014
-0.41452643 3.2304606 -0.29187813
-0.37486964 2.2638829 -0.22790997
-0.13716322 2.5187051 -0.27144107
-0.1101627 1.2106892 -0.14238064
-0.25290087 1.9749866 -0.25203034
-0.38191077 2.309907 -0.31975609
-0 0 -0
-0.092210248 1.019702 -0.15811807
-0.12720542 0.99642587 -0.16516142
-0.1703364 1.0312505 -0.18228909
-0 0 -0
-0.081552163 0.90660298 -0.17535503
-0.1149994 0.90521538 -0.18471979
-0.14636306 0.88784575 -0.19159287
-0 0 -0
-0.080415264 0.89853346 -0.20891879
-0.11187364 0.88134921 -0.21471833
-0.14334421 0.86764598 -0.22201805
-0 0 -0
-0.07617186 0.85837442 -0.23418008
-0 0 -0
-0.12765034 0.77248508 -0.22984409
-0.11922167 2.3951979 0.740888
-0 0 0
-0.32779863 2.5884125 0.74730575
-0.38752082 2.3521435 0.65801018
-0.11823782 2.345747 0.62709874
-0.21742107 2.4714403 0.63516295
-0.31569412 2.5079303 0.62147617
-0.3804737 2.3265812 0.55528796
-0.12056073 2.3910017 0.54369271
-0.21248852 2.4115148 0.52438116
-0.3100827 2.4710088 0.51460153
-0.37918428 2.3291595 0.4639627
-0.12228829 2.4143713 0.45547417
-0.21660025 2.4655607 0.44078559
-0.32663622 2.6136286 0.44327885
-0.38187689 2.3513916 0.37798521
-0.12244283 2.4216053 0.36488339
-0.21187513 2.425858 0.34205666
-0.33060682 2.6567037 0.350178
-0.38047227 2.3559942 0.28939211
-0.12271281 2.4353726 0.27571541
-0.21390386 2.4495795 0.25414607
-0.30687371 2.4740925 0.23390682
-0.37599239 2.335505 0.19980727
-0.12325337 2.4537694 0.18740629
-0.21483375 2.4691792 0.16510023
-0.29901704 2.4155817 0.13927908
-0.37977314 2.3639846 0.11383352
-0.12304154 2.4650083 0.097445585
-0.20909394 2.4168863 0.072592743
-0.30616933 2.4836709 0.051458001
-0.38108653 2.3785214 0.026277594
-0.12179819 2.4469607 0.0069699632
-0.21001294 2.4379141 -0.01669878
-0.29739362 2.4204831 -0.039246541
-0.37600988 2.352355 -0.061090779
-0.12285732 2.4945443 -0.084598444
-0.2101239 2.4497018 -0.10644617
-0.29226896 2.3908391 -0.12732735
-0.380335 2.3831494 -0.15056391
-0.12542485 2.5815229 -0.18245322
-0.21158674 2.482018 -0.1995476
-0.38660982 3.1667025 -0.28589773
-0.3631632 2.2798986 -0.22929364
-0.11777242 2.4380651 -0.26266766
-0 0 -0
-0.23801853 1.9538505 -0.2491421
-0.367419 2.3102498 -0.31948546
-0.11964992 2.5198207 -0.36549851
-0.092340045 1.0960778 -0.16987009
-0.12144592 1.0001264 -0.16564813
-0.16014114 1.0079529 -0.17799386
-0.046039503 0.98556417 -0.1804236
-0.075823873 0.90512931 -0.17497671
-0.11179402 0.92536479 -0.188688
-0.14152525 0.89259112 -0.19242589
-0 0 -0
-0.074819565 0.89803916 -0.20869318
-0.10658015 0.88298404 -0.21495324
-0.13893075 0.87425452 -0.22348674
-0 0 -0
-0.067489371 0.81747121 -0.22290376
-0.096088246 0.79781735 -0.22689122
-0.12426365 0.78178227 -0.23237914
-0.10352334 2.3729751 0.73380375
-0.20046142 2.4429584 0.7280243
-0.29386681 2.4405265 0.70407546
-0.3748914 2.3659019 0.66120315
-0.10666161 2.4101322 0.64412409
-0.20059405 2.4524519 0.62995464
-0.30226105 2.5262115 0.62553495
-0.36800522 2.3404102 0.55803913
-0.10709523 2.4189744 0.54989362
-0.19696946 2.4040065 0.52247584
-0.29213172 2.4495265 0.50974488
-0.37535432 2.3983319 0.47727391
-0.10764644 2.4190035 0.45621482
-0.2017082 2.4697871 0.4413116
-0.29082495 2.4491107 0.41506568
-0.36774647 2.3556418 0.37829861
-0.10766959 2.4242868 0.36518103
-0.19658582 2.4221776 0.34136117
-0.29311326 2.4794674 0.32657343
-0.36677027 2.3631895 0.28999403
-0.10750384 2.4301236 0.27504128
-0.19814546 2.4419229 0.2532208
-0.2934345 2.4907606 0.23530801
-0.36241665 2.3426917 0.20022811
-0.10661423 2.4186187 0.18466821
-0.2003222 2.4784071 0.16563194
-0.28757012 2.4461255 0.14093579
-0.36419418 2.3593602 0.11350109
-0.10769577 2.4607255 0.097248331
-0.19866255 2.4729226 0.074237816
-0.28453141 2.4308875 0.050327286
-0.36481154 2.3699436 0.026157603
-0.10747898 2.4636469 0.0070154811
-0.19337633 2.4182241 -0.016555471
-0.28184116 2.4163034 -0.039149992
-0.36293459 2.3635108 -0.061321504
-0.10711841 2.485266 -0.084259912
-0.19540595 2.4549286 -0.10661918
-0.28139147 2.4253218 -0.12906939
-0.36479765 2.379519 -0.15019029
-0.10442274 2.4606562 -0.17386222
-0 0 -0
-0.28050888 2.4210365 -0.21841766
-0.3461571 2.2624109 -0.22731698
-0.1033968 2.4526491 -0.26416555
-0.20102765 2.5565803 -0.3003487
-0.22078493 1.9099402 -0.24336562
-0.35682738 2.3359673 -0.3227331
-0.10202004 2.4680998 -0.35789892
-0.084920615 1.0877563 -0.16849649
-0.11925971 1.035162 -0.17132656
-0.15766855 1.0332631 -0.18228909
-0 0 -0
-0.070116743 0.90361947 -0.17459838
-0.10499817 0.91629589 -0.18670389
-0.13545682 0.889575 -0.19159287
-0 0 -0
-0.069232963 0.89750993 -0.20846756
-0.10215528 0.89231277 -0.21706754
-0.13663593 0.89521855 -0.22862716
-0 0 -0
-0.065044574 0.85154694 -0.23208216
-0 0 -0
-0.12120204 0.79391229 -0.23575918
-0.086062528 2.2962294 0.70989466
-0.18662846 2.4594362 0.73257977
-0.29164743 2.5540345 0.73629159
-0.35717705 2.347192 0.65534937
-0 0 0
-0.18188989 2.4053364 0.61755395
-0.27613831 2.4344239 0.60237581
-0.37165385 2.4619691 0.58646846
-0 0 0
-0.18110757 2.3905516 0.51930034
-0.27137607 2.400671 0.49922216
-0.36748248 2.4461951 0.48634094
-0.090843216 2.3685548 0.44658688
-0.18373366 2.4336729 0.43464893
-0.28748092 2.5547235 0.43265742
-0.36148113 2.4125516 0.38707438
-0.091015212 2.3784592 0.3581869
-0.18171991 2.4233382 0.34136117
-0.27447277 2.4506721 0.32255289
-0.36176792 2.429219 0.29781869
-0.091191396 2.3939981 0.27088419
-0.18419948 2.4569798 0.25466013
-0.27372921 2.4529347 0.23157147
-0.35008347 2.3586705 0.2014064
-0.090864718 2.3953137 0.18284281
-0.18496263 2.4775994 0.165499
-0.27476519 2.4676888 0.14207837
-0.35102749 2.3704433 0.1139285
-0.09097977 2.4184039 0.095551908
-0.18067604 2.4362161 0.073101215
-0.27115229 2.4464993 0.050615102
-0.35011691 2.3711481 0.026146697
-0.092622481 2.4712548 0.0070353956
-0.18008018 2.4403076 -0.01669878
-0.26646098 2.4130182 -0.039069537
-0.34988216 2.3755832 -0.061577864
-0.089837082 2.4309454 -0.082398005
-0.18319234 2.4949403 -0.10830606
-0.26519668 2.415091 -0.12843592
-0.35164219 2.391587 -0.15081297
-0.087947734 2.4233701 -0.17118634
-0.2292354 3.1445556 -0.25256866
-0.26727682 2.4375632 -0.21975656
-0.34945998 2.3816552 -0.23907816
-0.086771287 2.4095182 -0.25945789
-0.23091754 3.1868057 -0.3742145
-0.21564198 1.9714172 -0.25102574
-0.34421062 2.3498769 -0.32435688
-0.084994659 2.4152706 -0.35015592
-0.075764082 1.0537559 -0.16315465
-0 0 -0
-0.15232398 1.0410342 -0.18349175
-0.036039736 1.0470076 -0.19157641
-0.064431004 0.9020738 -0.17422006
-0.099690728 0.91984612 -0.18729913
-0.13056114 0.89426064 -0.19242589
-0 0 -0
-0.064138435 0.90374851 -0.20982125
-0.097829163 0.90355283 -0.21965168
-0 0 -0
-0 0 -0
-0.059750769 0.85096741 -0.23181991
-0.086393908 0.7998932 -0.22716294
-0 0 -0
-0 0 0
-0.16660076 2.3897696 0.7115106
-0.26709503 2.4735782 0.71261132
-0.34763908 2.3827245 0.66466212
-0 0 0
-0.17142327 2.4682589 0.63342685
-0.26875317 2.5065575 0.61980492
-0.3582131 2.4757633 0.58921969
-0.075937495 2.3742969 0.53948486
-0.16847152 2.420867 0.52565134
-0.25768104 2.4120288 0.5012458
-0.34939012 2.4270375 0.48209676
-0 0 0
-0.16947837 2.444576 0.43640226
-0.25584859 2.4064066 0.40726557
-0.33881143 2.3599772 0.37829861
-0.077118024 2.4007168 0.36146075
-0.16807097 2.4421904 0.34386504
-0.25734428 2.4325891 0.31995893
-0.3455939 2.4225481 0.29673526
-0.076119632 2.3825948 0.26953596
-0.16898371 2.4560788 0.25445452
-0.2615948 2.4822922 0.23418705
-0.337147 2.3716259 0.20233221
-0.075880498 2.386857 0.18215831
-0.16989323 2.4806788 0.16563194
-0.26066247 2.4792571 0.14264967
-0.33535403 2.3646407 0.11354858
-0.075604595 2.4019382 0.094881237
-0.16185921 2.3804355 0.071396321
-0.25800836 2.4660156 0.050985154
-0.34242085 2.4217665 0.026681192
-0.077614009 2.4767745 0.0070496202
-0.16672267 2.4653115 -0.016862562
-0.25092441 2.4076462 -0.038956895
-0.33850986 2.4004526 -0.062167495
-0.074580804 2.4204626 -0.082025625
-0.1647291 2.449167 -0.10627314
-0.25171074 2.4295855 -0.12912218
-0.33863056 2.4055591 -0.15156019
-0.072956309 2.4198756 -0.17090465
-0.21133028 3.1667895 -0.25424552
-0.25067544 2.4233057 -0.2183284
-0.44834486 3.1918068 -0.32012159
-0.072133541 2.4149742 -0.25999284
-0.2103738 3.1732969 -0.3724696
-0.2297097 2.2263224 -0.28329867
-0.31162468 2.2224257 -0.30649495
-0.070345655 2.4216821 -0.35101625
-0.075260743 1.1449273 -0.17719603
-0.11512399 1.1199818 -0.18511707
-0.14210747 1.0146323 -0.17868111
-0.029670356 1.0491755 -0.19193618
-0.0611329 0.93674725 -0.18084079
-0.093945153 0.91946542 -0.18710071
-0.1257484 0.89988822 -0.19346716
-0 0 -0
-0.057961911 0.89440328 -0.2075651
-0.09021055 0.88382924 -0.21471833
-0.12241149 0.87378305 -0.22275238
-0 0 -0
-0.052986115 0.8272422 -0.22526391
-0 0 -0
-0.11091778 0.79153895 -0.23463251
-0 0 0
-0.15120472 2.3792667 0.708094
-0.25911549 2.5459445 0.7329874
-0.33861151 2.4249096 0.6758374
-0 0 0
-0.15370518 2.4286575 0.62301028
-0 0 0
-0.34168068 2.4682732 0.586927
-0 0 0
-0.15287179 2.4101508 0.52311093
-0.24473925 2.4320779 0.50509059
-0.34332564 2.4932904 0.49482921
-0.062077876 2.3812797 0.44880867
-0.15379286 2.4347618 0.4344736
-0.24874097 2.4844668 0.42021042
-0.34649253 2.5234585 0.40415582
-0.061718274 2.3754427 0.35759166
-0.15190621 2.4243972 0.34122205
-0.24034983 2.4134023 0.31723535
-0.3283079 2.4069176 0.29456842
-0.061242521 2.3730836 0.26841244
-0.15384813 2.4560769 0.25435171
-0.24232982 2.443229 0.2303571
-0.32715106 2.4072208 0.20519383
-0.061821632 2.4102035 0.18390763
-0.1555378 2.4956164 0.16656245
-0.24338089 2.4599459 0.14144996
-0.32030183 2.3626947 0.11335862
-0.060687996 2.3953645 0.094605066
-0.14928579 2.4143062 0.072383367
-0.24140336 2.4526277 0.050676782
-0.327153 2.4208491 0.026648469
-0.062591657 2.4842017 0.0070695342
-0.14883196 2.4213738 -0.016555471
-0.2383901 2.4320278 -0.039326992
-0.32417515 2.4054565 -0.062244404
-0.05930867 2.4038897 -0.081450127
-0.15146509 2.4790506 -0.10752749
-0.23466852 2.4092183 -0.12796082
-0.32705736 2.4313314 -0.15305462
-0.058202628 2.4242668 -0.17118634
-0.19105147 3.1540968 -0.2531276
-0.23445195 2.4109197 -0.21707878
-0.42756054 3.1856215 -0.31923211
-0.057880253 2.4392271 -0.26256067
-0.191972 3.1923738 -0.37456346
-0 0 -0
-0.23128161 1.7264073 -0.2378888
-0.053558603 2.3379686 -0.33882821
-0.064707875 1.0861754 -0.16803862
-0.10350611 1.0715581 -0.17700502
-0.13679369 1.0223202 -0.17988376
-0.021860456 0.98738068 -0.18060349
-0 0 -0
-0.089425318 0.93173218 -0.18948163
-0.12035383 0.9016124 -0.19367541
-0 0 -0
-0 0 -0
-0.085991703 0.89694464 -0.21777231
-0.11897712 0.88893288 -0.22642413
-0 0 -0
-0 0 -0
-0 0 -0
-0.10478568 0.78269434 -0.23181579
-0 0 0
-0.13385661 2.3322978 0.69385809
-0.2272076 2.3771436 0.68397474
-0.32793206 2.458473 0.684618
-0 0 0
-0.13935286 2.4392266 0.62549037
-0.22807333 2.4052584 0.59401947
-0.32117209 2.4297943 0.57729775
-0 0 0
-0.13746582 2.4003103 0.52078223
-0.22797026 2.4140344 0.50104338
-0.32955524 2.5070243 0.49714422
-0.045781445 2.2971196 0.43288562
-0.13901864 2.4386084 0.43499961
-0.22565348 2.4024923 0.40610382
-0.31880957 2.4325066 0.38926834
-0.047082815 2.3728108 0.35714522
-0.13769786 2.4371481 0.34289131
-0.22526033 2.4118698 0.31684625
-0.31993964 2.4581082 0.30058742
-0.046445921 2.3614929 0.26706418
-0.13877504 2.4569745 0.25435171
-0.22604327 2.4307911 0.22904932
-0.31109321 2.3993013 0.20435219
-0.046701074 2.3935897 0.18261464
-0.1412852 2.5154519 0.1678253
-0.22883555 2.4673576 0.14179273
-0.31156352 2.4091935 0.11549567
-0.046104245 2.401686 0.094841778
-0.13652502 2.4521031 0.073490053
-0.22708437 2.4620271 0.050841246
-0.32162449 2.4952075 0.027444759
-0.047462028 2.4905379 0.0070866034
-0.13380621 2.4192462 -0.016534999
-0.22273152 2.4254794 -0.039198264
-0.31093863 2.4192984 -0.062552035
-0.044724237 2.4132016 -0.081754804
-0.13718279 2.496892 -0.10826279
-0.22314699 2.446414 -0.12986122
-0.30756131 2.3976543 -0.15081297
-0.043362156 2.426573 -0.17132716
-0.17099059 3.1422703 -0.25208953
-0 0 -0
-0.4090164 3.1960814 -0.32002276
-0.042702504 2.4276071 -0.26127675
-0.17179146 3.1825821 -0.37328389
-0 0 -0
-0.19444814 1.5223849 -0.20960735
-0.040556218 2.4184046 -0.35044268
-0.056513201 1.0579325 -0.16361253
-0.095418841 1.0554664 -0.17424691
-0.13126624 1.0290035 -0.18091463
-0.016478352 1.0297893 -0.1883385
-0 0 -0
-0.081515364 0.90785861 -0.18452138
-0.11605399 0.91203642 -0.19575794
-0 0 -0
-0 0 -0
-0.080139235 0.89358288 -0.21683262
-0 0 -0
-0 0 -0
-0 0 -0
-0 0 -0
-0.09791597 0.76714218 -0.22702737
-0.029857118 2.3110249 0.71402711
-0.12238849 2.3886018 0.71037173
-0 0 0
-0.3115035 2.4499197 0.68169111
-0 0 0
-0.12265726 2.4061735 0.61680996
-0.21253902 2.397907 0.59187067
-0.3139196 2.4925604 0.59174162
-0.032684542 2.4094203 0.54723608
-0.1220866 2.3884196 0.51803011
-0.21134588 2.3949018 0.49679387
-0.30831444 2.4622657 0.48788422
-0.032959655 2.3897233 0.45028993
-0.12345298 2.4276166 0.4328956
-0.21185593 2.4146378 0.40792939
-0.31256369 2.5039995 0.40039477
-0.032671697 2.3839314 0.35878214
-0.1219943 2.4231117 0.34080473
-0.21019869 2.410243 0.31645715
-0.30497304 2.4610102 0.30070779
-0.032237511 2.3825984 0.2694236
-0.12319672 2.4478455 0.25332361
-0.2125877 2.4489946 0.23063734
-0.29648757 2.4021537 0.20443633
-0.032133404 2.4028044 0.18329917
-0.1235055 2.469434 0.16470143
-0.21024796 2.4289293 0.13950759
-0.29506674 2.3971806 0.11483081
-0.031197285 2.3889349 0.094328903
-0.11959787 2.4149582 0.07235346
-0.21128766 2.4554052 0.050676782
-0.30143836 2.4574339 0.027008435
-0.032114889 2.4857826 0.0070723789
-0.11984322 2.4379997 -0.016657835
-0.20903936 2.4407475 -0.03942354
-0.2954815 2.4161994 -0.062423855
-0.03017641 2.4344168 -0.082465716
-0.12156747 2.4916995 -0.10800329
-0.20737043 2.4387822 -0.12938613
-0.2951411 2.4183199 -0.15199606
-0.028144497 2.3988647 -0.16935547
-0.14992876 3.1064215 -0.24913506
-0.20644899 2.4324718 -0.21877471
-0.30653962 2.5179293 -0.25192651
-0.028671568 2.503382 -0.26940823
-0.15192814 3.1766317 -0.3724696
-0 0 -0
-0.21234898 1.7478032 -0.24045983
-0.025811102 2.4275146 -0.35173318
-0.059586328 1.2606318 -0.19490038
-0.087450199 1.0383331 -0.17132656
-0.12471259 1.0278336 -0.18057099
-0.010052635 1.0190511 -0.18635976
-0 0 -0
-0.076678246 0.91713208 -0.18630707
-0.10986813 0.90787637 -0.19471668
-0 0 -0
-0 0 -0
-0.074735686 0.89502645 -0.21706754
-0.10735866 0.88455087 -0.22495542
-0 0 -0
-0 0 -0
-0 0 -0
-0 0 -0
-0.015883751 2.341738 0.72347271
-0.10734139 2.3806889 0.70780927
-0.19841787 2.3845429 0.68535149
-0.29577094 2.4460433 0.68009466
-0.017886221 2.4133911 0.644382
-0.10893211 2.4301076 0.62276226
-0.19861972 2.4088438 0.59425819
-0.29202479 2.4393516 0.57867336
-0.017776852 2.3929982 0.54347122
-0.1086146 2.4154854 0.52374607
-0.19840929 2.4176261 0.5012458
-0.29320046 2.4641111 0.48788422
-0.018311014 2.3918457 0.4506602
-0.1065326 2.3830862 0.42483032
-0.19936068 2.4443955 0.41274226
-0.27928051 2.3548315 0.37626138
-0.017961232 2.37321 0.35714522
-0.10681801 2.4168894 0.33983099
-0.19500534 2.4065461 0.31580871
-0.28534126 2.4243841 0.296013
-0.017566126 2.3757961 0.26863712
-0.10742836 2.4316616 0.25157583
-0.20171773 2.501858 0.23549484
-0.28638229 2.4435148 0.20780292
-0.017389469 2.4029565 0.18329917
-0.10546515 2.4043546 0.16031471
-0.20021987 2.4908781 0.14299242
-0.28904814 2.4733548 0.11839256
-0.016579973 2.3950765 0.094565615
-0.10560069 2.4346204 0.07292176
-0.19518279 2.4436996 0.050409518
-0.28392547 2.4383795 0.026779367
-0.016861808 2.4859328 0.0070723789
-0.10505354 2.4426851 -0.016685132
-0.19366325 2.4370008 -0.039343089
-0.28007412 2.4130018 -0.062295672
-0.015263563 2.4385538 -0.082601123
-0.10419088 2.4434888 -0.10588387
-0.19397242 2.459919 -0.13044192
-0.28006732 2.4181023 -0.15187153
-0.013341079 2.3840299 -0.16829918
-0.10762833 2.555541 -0.20489763
-0 0 -0
-0.27269867 2.3606093 -0.23601431
-0.012855954 2.4180057 -0.26020682
-0.10240667 2.4570582 -0.28801835
-0.18966506 2.4182191 -0.3070325
-0.1707592 1.481348 -0.20365338
-0.010897868 2.4236686 -0.35115963
-0.10028957 2.4390013 -0.37698033
-0.082382686 1.0555742 -0.17408468
-0.11468586 0.99628347 -0.17490131
-0 0 -0
-0 0 -0
-0.070671059 0.91269928 -0.18531501
-0.10440698 0.90950513 -0.19492492
-0 0 -0
-0 0 -0
-0.0680435 0.87996221 -0.2133088
-0 0 -0
-0 0 -0
-0 0 -0
-0 0 -0
-0.090251297 0.78353733 -0.23153411
-0.0015179077 2.3465686 0.72494853
-0.09068016 2.3286192 0.69214982
-0.1803863 2.3416243 0.67268527
-0.28833586 2.5138915 0.69845402
-0.0030640424 2.4028277 0.64154446
-0.09147308 2.3649039 0.60589731
-0.18317086 2.4013028 0.59210944
-0.27935681 2.4614074 0.58348793
-0.0031097431 2.4057391 0.54635018
-0.092540361 2.3838787 0.51675993
-0.1823855 2.4031742 0.49800801
-0.27521661 2.4405129 0.48286843
-0.0036181542 2.3811033 0.44862354
-0.090770297 2.3541815 0.41957036
-0.18480316 2.4514725 0.41373798
-0.26570868 2.3643525 0.37751508
-0.0034161475 2.3851418 0.35893098
-0.091459103 2.4036455 0.33788356
-0.18475051 2.468013 0.32372013
-0.27145004 2.4349689 0.2970964
-0.0030081822 2.3917577 0.2704348
-0.089406028 2.3507683 0.24314541
-0.18259268 2.4524117 0.23073074
-0.27369201 2.4660237 0.20957038
-0.0026448786 2.4030178 0.18329917
-0.089356437 2.3690617 0.15792195
-0.18301138 2.4661736 0.14150709
-0.26496831 2.394664 0.11454587
-0.0018845322 2.3961325 0.094605066
-0.090065174 2.4192407 0.072443195
-0.18011136 2.4438541 0.050388962
-0.26884896 2.4390819 0.026768459
-0.0015938631 2.4639897 0.0070097921
-0.089879349 2.4382873 -0.01665101
-0.17877954 2.4391403 -0.039359178
-0.26504466 2.4126878 -0.062244404
-0.00029898997 2.4256089 -0.082161032
-0.089050196 2.4400883 -0.10571086
-0.17706524 2.4361634 -0.12912218
-0.26500738 2.4177909 -0.15174699
0.0013077714 2.4219725 -0.17097509
-0.087072589 2.420675 -0.19403788
-0.23177005 3.195766 -0.28714737
-0.26404801 2.4156559 -0.24135134
0.0019890368 2.4279816 -0.26127675
-0.086164616 2.424885 -0.28417966
-0.22966596 3.178287 -0.40334901
-0.17004535 1.5591949 -0.21420817
0.0039315014 2.3979585 -0.34743151
-0.084424116 2.4138911 -0.37301213
-0.074560188 1.0373597 -0.17100209
-0.10899723 1.0008858 -0.17558855
0.0027944648 1.1607484 -0.21226306
-0 0 -0
-0.065348186 0.91702628 -0.18610865
-0.098824397 0.91012859 -0.19492492
0 0 -0
-0 0 -0
-0 0 -0
-0.09649577 0.88580173 -0.22495542
0 0 -0
-0 0 -0
-0 0 -0
-0.086065568 0.78979957 -0.23322415
0.01287515 2.3455782 0.72465336
-0.076955929 2.3463776 0.69727468
-0.16893704 2.3839214 0.68452543
-0.26375663 2.4312804 0.67503917
0.011543299 2.374783 0.63406366
-0.077653639 2.3867221 0.61135364
-0.16755038 2.3897884 0.58900559
-0.26030308 2.4262986 0.57477582
0.011793344 2.4349678 0.55299413
-0.077592239 2.3746336 0.51464295
-0.16872635 2.419879 0.5012458
-0.26460347 2.4831347 0.49097091
0.011132724 2.4115446 0.45436329
-0.076451182 2.3586302 0.42027169
-0.16785111 2.4250147 0.40909111
-0.25526297 2.4042413 0.38362679
0.011228174 2.3870955 0.35922858
-0.07670889 2.4041615 0.33788356
-0.16776894 2.4423914 0.32021835
-0.25619245 2.4336269 0.29673526
0.011633494 2.3847756 0.26964831
-0.077072784 2.4168899 0.24993089
-0.16720238 2.4485195 0.2302637
-0.25637504 2.4468451 0.20780292
0.012114874 2.4059801 0.18352734
-0.075511232 2.3915055 0.15938418
-0.16841798 2.4752185 0.14196411
-0.25120375 2.4051859 0.11497328
0.012924802 2.4160831 0.095394105
-0.075343519 2.423744 0.072562829
-0.16369809 2.4239652 0.049957231
-0.25180885 2.420794 0.026550295
0.01342612 2.4459534 0.0069585838
-0.074486762 2.4247999 -0.016555471
-0.16394384 2.4421866 -0.039391361
-0.25301835 2.4411159 -0.062936574
0.014434043 2.4005799 -0.081314713
-0.07362178 2.4256098 -0.10506206
-0.16556031 2.489017 -0.13186722
-0.25386262 2.455111 -0.15398863
0.016068801 2.4069564 -0.16991881
-0.072009936 2.4141893 -0.19347893
-0.21288227 3.2080598 -0.28812924
-0.24789412 2.4043624 -0.2400665
0.016942136 2.4358776 -0.26213267
-0.071138285 2.4204042 -0.28359807
-0.21061805 3.1865659 -0.40422803
-0.13827419 1.3443619 -0.18457356
0.018829705 2.4216406 -0.35087284
-0.069839038 2.422267 -0.37423313
-0.070264064 1.0693058 -0.17619382
-0.1019481 0.9927159 -0.17404225
0.0099922651 1.1695622 -0.21388201
-0 0 -0
-0.058828838 0.90371734 -0.18333091
-0.093736157 0.91558278 -0.19596618
0 0 -0
-0 0 -0
-0 0 -0
-0.090167016 0.87769663 -0.22275238
0 0 -0
-0 0 -0
-0 0 -0
-0 0 -0
0.027289318 2.3473659 0.72524369
-0.062531836 2.3458474 0.69699001
-0.1555478 2.4040999 0.69003248
-0.25314921 2.4750466 0.6867466
0.026273839 2.389159 0.63793302
-0.062061772 2.3513222 0.60217714
-0.15437108 2.4140301 0.59473574
-0.24413812 2.4152606 0.57179528
0.026273431 2.39292 0.54347122
-0.062735133 2.3643179 0.5123142
-0.15319173 2.4101179 0.4990198
-0.24475716 2.4388249 0.48190385
0.025697015 2.3898125 0.45028993
-0.061796464 2.3521657 0.41904435
-0.15178926 2.4072995 0.40593788
-0.23883584 2.3890557 0.3809627
0.025907062 2.3899481 0.35967499
-0.061343629 2.3808281 0.33454508
-0.15451218 2.4710844 0.32384983
-0.23959136 2.4183588 0.29468882
0.026298815 2.3876402 0.26998538
-0.061627094 2.3934522 0.24746343
-0.15199019 2.4465182 0.22998345
-0.24243195 2.4592803 0.20872873
0.026610136 2.3819315 0.18170196
-0.060861178 2.3929214 0.15945065
-0.15254888 2.4652445 0.14133571
-0.238492 2.4275579 0.11597057
0.027737888 2.4149592 0.095354646
-0.060445365 2.4231615 0.072532922
-0.15261894 2.4867945 0.051231857
-0.23626897 2.4153271 0.026473939
0.028154964 2.4218266 0.0068903067
-0.059607066 2.4252112 -0.016555471
-0.14877322 2.4401526 -0.039343089
-0.23677473 2.429688 -0.062603302
0.029005617 2.3874547 -0.080874629
-0.058978949 2.4360037 -0.1054946
-0.15034503 2.4909828 -0.13191999
-0.23637958 2.4317882 -0.15243194
0.03065839 2.3928485 -0.16893296
-0.05705376 2.4086065 -0.19299982
-0.19091968 3.1715257 -0.28473735
-0.23380843 2.4127715 -0.24075833
0.031120164 2.3770714 -0.2558201
-0.056308709 2.421788 -0.28371435
-0.19082427 3.1838369 -0.40372574
-0 0 -0
0.03357812 2.413563 -0.34972575
-0.055535484 2.4473507 -0.37804875
-0.11854599 1.9906976 -0.32788923
-0.10692609 1.1080501 -0.19414388
0 0 -0
-0 0 -0
-0.054493595 0.92460817 -0.18749753
-0.087273709 0.90737849 -0.19409192
0.03256594 2.0821526 -0.4618111
-0 0 -0
-0 0 -0
-0 0 -0
0.041755144 2.5179124 -0.65877408
-0 0 -0
-0 0 -0
-0.075168028 0.77838033 -0.22956242
0.041573189 2.3404672 0.72317749
-0.048018832 2.3404365 0.69528168
-0.14006323 2.3925331 0.68645287
-0.23316364 2.4266577 0.67291051
0.04056881 2.3677006 0.63225794
-0.048967201 2.4175205 0.61904204
-0.14409392 2.493458 0.61407477
-0.22903793 2.413806 0.57110751
0.040605139 2.3722379 0.53882045
-0.047947779 2.3509784 0.50935042
-0.13862513 2.4149232 0.49982923
-0.22840837 2.4256275 0.47901011
0.040011637 2.3689756 0.44640172
-0.046787992 2.3239555 0.41395971
-0.13880801 2.4396908 0.41124859
-0.22454123 2.3944094 0.38158953
0.040369593 2.3778796 0.35788929
-0.046831142 2.3861101 0.33524057
-0.13862151 2.459116 0.32216379
-0.22685967 2.4425182 0.29745755
0.041255336 2.4053173 0.27200773
-0.046959493 2.3947799 0.24756625
-0.13775468 2.4613216 0.23129123
-0.2271542 2.4587371 0.20856042
0.041276664 2.3847144 0.18193012
-0.046408322 2.405221 0.16024823
-0.14019683 2.515975 0.14419213
-0.22157794 2.4070928 0.11492579
0.042379208 2.4047527 0.094960131
-0.045312867 2.4094954 0.07211417
-0.13493213 2.4437604 0.050327286
-0.22454658 2.4505877 0.026844816
0.042446166 2.3896134 0.0067992704
-0.044688255 2.4235315 -0.016541824
-0.1327582 2.4220502 -0.039037354
-0.22349732 2.4490144 -0.063064754
0.04369076 2.38923 -0.080942325
-0.043778066 2.4223351 -0.10488905
-0.13532804 2.4968441 -0.13218395
-0.22172534 2.4361749 -0.15261875
0.045736946 2.4135592 -0.17041174
-0.042361207 2.4138947 -0.19339909
-0.17091849 3.1626918 -0.28384477
-0.21801063 2.4032593 -0.23967117
0.046278477 2.4066579 -0.2590299
-0.041260909 2.4111643 -0.28243482
-0.17059243 3.1720693 -0.40209323
-0.12435526 1.3745739 -0.18849777
0.047910701 2.3895643 -0.34628442
-0.041793667 2.5247207 -0.38995337
-0.11306342 2.117512 -0.34865609
-0.089403845 0.9899677 -0.17335503
0.049486175 2.3770585 -0.4347795
-0.016595302 1.0318913 -0.19881137
-0.047786072 0.90534997 -0.18352933
-0.082318164 0.91471589 -0.1955497
0 0 -0
-0 0 -0
-0 0 -0
-0.078778856 0.87197751 -0.22103891
0 0 -0
-0 0 -0
-0 0 -0
-0.07082241 0.78360498 -0.23097077
0.056070223 2.3458991 0.72494853
-0.033464324 2.3272679 0.69129568
-0.12507853 2.3875873 0.6848008
-0.21395424 2.3800387 0.65960664
0.055006064 2.3635433 0.63122606
-0.033749755 2.3906531 0.61209768
-0.12368403 2.3953769 0.58972186
-0.21448077 2.4180746 0.57179528
0.055160154 2.3719442 0.53882045
-0.034148503 2.3952041 0.51887697
-0.1237046 2.4137723 0.49942455
-0.2147246 2.4406676 0.48171097
0.054591898 2.3706505 0.44677204
-0.033188887 2.3714509 0.42237568
-0.12148696 2.3942082 0.40344849
-0.21234436 2.4242747 0.38613415
0.054365076 2.3518834 0.35402024
-0.032122586 2.3814015 0.33454508
-0.12372896 2.4638815 0.32268256
-0.21109672 2.434963 0.29637411
0.055411763 2.3791907 0.26908657
-0.032492295 2.4119313 0.24931403
-0.12175807 2.4442215 0.2296098
-0.21197782 2.4590919 0.20847626
0.055394009 2.3624859 0.18025686
-0.031491768 2.3934882 0.15945065
-0.12406446 2.5028279 0.14339232
-0.20970966 2.4422443 0.11654045
0.05639787 2.3734806 0.093737133
-0.030565614 2.4127264 0.072203904
-0.12478527 2.5434027 0.05236258
-0.21010175 2.4588935 0.026921172
0.056773238 2.3753121 0.0067594419
-0.029841505 2.42576 -0.016555471
-0.11735972 2.4118338 -0.038860351
-0.20956789 2.4632888 -0.063398018
0.057910711 2.3709328 -0.08033298
-0.028782912 2.4115691 -0.10441326
-0.12091573 2.5165789 -0.13318694
-0.20803851 2.4524066 -0.15355276
0.059819859 2.3843143 -0.16836961
-0.027378412 2.3991578 -0.19220132
-0.14869834 3.1049838 -0.27857846
-0.20468533 2.4214084 -0.24135134
0.060515076 2.3854561 -0.25678304
-0.026367404 2.4024336 -0.2813879
-0.14952105 3.1393638 -0.39782369
-0.12540522 1.4878635 -0.20392402
0.062545978 2.3882358 -0.34614101
-0.026517663 2.5456827 -0.3931585
-0.064585842 1.3670992 -0.22502838
-0 0 -0
0.063964568 2.3727767 -0.43405998
-0 0 -0
-0.042503972 0.91150045 -0.18471979
-0.077030763 0.91910237 -0.19638269
0.033321276 1.1935265 -0.26478902
-0 0 -0
-0 0 -0
-0 0 -0
0.032878399 1.1391755 -0.29813132
-0 0 -0
-0 0 -0
-0.064966418 0.77159512 -0.22730905
0.070463337 2.3455107 0.72494853
-0.019570999 2.3743997 0.70524687
-0.10993779 2.3777463 0.68177187
-0.19990946 2.3880308 0.66146916
0.069280215 2.3554356 0.62916243
-0.019033961 2.3850029 0.61060959
-0.10995466 2.4174325 0.59497446
-0.19755846 2.3941236 0.56583434
0.069197334 2.3540158 0.53483415
-0.019419421 2.3914592 0.51803011
-0.10752387 2.3841581 0.49315134
-0.20126478 2.46052 0.48537633
0.068506561 2.3486605 0.44269866
-0.018706942 2.3804703 0.42395368
-0.10833164 2.4293888 0.40925705
-0.19754544 2.4265163 0.38629085
0.068303339 2.3347023 0.35149044
-0.017531818 2.3845246 0.3349624
-0.10738625 2.4368575 0.31905106
-0.19726749 2.4500659 0.29805943
0.069424525 2.3589408 0.26683947
-0.017539138 2.391197 0.247155
-0.10645429 2.4379599 0.22895591
-0.19664668 2.4573665 0.20822376
0.069711976 2.3561215 0.17980051
-0.016819017 2.3956318 0.15958358
-0.10649631 2.4526732 0.14047877
-0.19233991 2.4136136 0.11511575
0.071079671 2.3770847 0.093894936
-0.015800001 2.4188657 0.072383367
-0.10433315 2.4312479 0.050039463
-0.19651161 2.4790759 0.027128426
0.071557008 2.3819158 0.0067793564
-0.014981419 2.4298973 -0.016582768
-0.10319578 2.4274929 -0.039101716
-0.1925624 2.4406104 -0.062782757
0.072274186 2.3645391 -0.080129862
-0.014072162 2.426686 -0.10506206
-0.10216948 2.4384527 -0.12901659
-0.19486512 2.4775164 -0.15504718
0.074230656 2.3769231 -0.16787668
-0.012819952 2.4301815 -0.1946767
-0.10260173 2.4580004 -0.22047062
-0.19161186 2.445436 -0.24362449
0.074681133 2.3701336 -0.25517815
-0.011741197 2.4263868 -0.28417966
-0.1023377 2.4671757 -0.31255779
-0.19983302 2.5583854 -0.35047325
0.077198744 2.3878071 -0.34614101
-0.010859076 2.5369029 -0.39178485
-0.08860939 2.1562049 -0.35482123
-0.07732524 0.99197239 -0.17352684
0.078652613 2.3762722 -0.4347795
-0 0 -0
-0.038258269 0.94504088 -0.19146574
-0.071692631 0.92345828 -0.19721571
0 0 -0
-0 0 -0
-0 0 -0
-0 0 -0
0 0 -0
-0 0 -0
-0 0 -0
-0.06015614 0.77102262 -0.22702737
0.084646493 2.3393054 0.72317749
-0.0050076451 2.3773508 0.70610094
-0.094190903 2.3495588 0.67351133
-0.18570013 2.394979 0.66306567
0.083010659 2.3346896 0.62374532
-0.0044263061 2.399606 0.61432981
-0.093440026 2.3753672 0.58446932
-0.18397608 2.4098485 0.56927329
0.083951697 2.3623176 0.53682727
-0.0047259447 2.3817599 0.51591313
-0.092244923 2.3681374 0.48971123
-0.18312986 2.4215934 0.47746679
0.083020419 2.3511422 0.44325411
-0.0041155596 2.3894005 0.42553166
-0.090998553 2.3669419 0.39863566
-0.18435715 2.4503345 0.38989517
0.082592532 2.3332508 0.35134161
-0.0029111584 2.3934996 0.3362143
-0.092131369 2.429544 0.31801352
-0.18156806 2.4423201 0.296976
0.083650135 2.3515191 0.26605299
-0.0028774308 2.400212 0.2480803
-0.089738779 2.3918054 0.22456548
-0.18090434 2.4495831 0.20746627
0.083384261 2.3337271 0.17812723
-0.0021176152 2.3936944 0.15945065
-0.089659967 2.4053919 0.1377366
-0.17921109 2.4376605 0.11620802
0.085771829 2.3795996 0.094013296
-0.00095980149 2.4239149 0.072532922
-0.088972516 2.4198532 0.049792763
-0.17874515 2.4453301 0.026746642
0.084579758 2.337461 0.0066541815
-7.1597198e-05 2.4309437 -0.016589593
-0.087681293 2.411094 -0.038828168
-0.18012142 2.4766426 -0.063680023
0.086561382 2.3580585 -0.079926744
0.00081190729 2.4087436 -0.1042835
-0.086705953 2.4250624 -0.12827756
-0.1792268 2.472693 -0.15467359
0.088813782 2.3764229 -0.16787668
0.0020675804 2.4023037 -0.19244087
-0.086100504 2.4187686 -0.21690024
-0.17660333 2.4465659 -0.24362449
0.088885903 2.3606887 -0.25421521
0.0031161378 2.4025762 -0.2813879
-0.086146481 2.4380133 -0.30879053
-0.17517357 2.4350443 -0.33342323
0.091620311 2.381355 -0.34528071
0.0046339212 2.4973905 -0.38567993
-0.067484751 1.9308798 -0.31766802
-0.071942486 1.0022542 -0.17524494
0.093193091 2.3747621 -0.43459964
0.002291586 0.98488867 -0.18973149
-0.033703428 0.98150092 -0.19880691
-0.065955326 0.92290521 -0.19700746
0.039376155 0.97939485 -0.21737382
0 0 -0
-0 0 -0
-0 0 -0
0 0 -0
0 0 -0
-0 0 -0
-0.055767924 0.77616245 -0.22843572
0.098311678 2.3225141 0.7181595
0.0094868932 2.3543303 0.69926775
-0.080294326 2.3654654 0.677917
-0.17017788 2.3845351 0.65987271
0.097052701 2.327379 0.62193954
0.010193552 2.3753693 0.60812944
-0.079088792 2.3826897 0.58614063
-0.16939048 2.4138451 0.56996113
0.097389102 2.3364255 0.53106922
0.0099208094 2.3895628 0.51760674
-0.078130037 2.3813829 0.49234194
-0.16799586 2.418756 0.47669515
0.096834645 2.3358607 0.44047686
0.010554295 2.39135 0.42588234
-0.076059669 2.3546426 0.39647818
-0.16693681 2.416934 0.38441032
0.097030669 2.335664 0.35178804
0.011775134 2.3934724 0.3362143
-0.076497875 2.4072692 0.31503052
-0.16799684 2.4641874 0.29950398
0.096710421 2.3181992 0.26234534
0.011879513 2.4061525 0.24869716
-0.075654492 2.4112189 0.22634032
-0.16560142 2.4466703 0.20712961
0.098369651 2.3491111 0.17934416
0.012606534 2.4006467 0.15991591
-0.075085461 2.4118843 0.13807938
-0.1633108 2.4247615 0.11554316
0.10024481 2.3760335 0.093894936
0.013815545 2.4068832 0.07202445
-0.073786259 2.4093609 0.049566615
-0.16513984 2.4673326 0.02697571
0.099977843 2.3618755 0.0067253034
0.014783329 2.4208984 -0.01652135
-0.073036477 2.4165838 -0.038908623
-0.16140278 2.4248354 -0.062321313
0.10094295 2.3554862 -0.079859041
0.015598132 2.4096923 -0.10432676
-0.071203716 2.4045873 -0.12716898
-0.16444752 2.4797213 -0.15504718
0.10274302 2.3608847 -0.16682042
0.016870568 2.4112167 -0.19315952
-0.070700437 2.4003353 -0.21520431
-0.16296476 2.4684551 -0.24569999
0.10323863 2.3571188 -0.25389424
0.01801304 2.4233687 -0.28383067
-0.070548609 2.4166794 -0.30602786
-0.15990397 2.4311297 -0.3327466
0.10605384 2.3767931 -0.34470713
0.019388899 2.4261608 -0.37469101
-0.055323265 1.9204079 -0.3158834
-0.065468907 0.99776179 -0.17438589
0.10687053 2.3544919 -0.43100196
0.016694343 1.9726579 -0.38003048
-0 0 -0
-0.059207786 0.90670055 -0.19346716
0 0 -0
0 0 -0
-0 0 -0
-0 0 -0
0.11472134 2.425575 -0.6352374
0 0 -0
-0 0 -0
-0 0 -0
0.11265304 2.3237758 0.71874988
0.024069037 2.3676476 0.70325375
-0.06543126 2.3534207 0.67433739
-0.15673511 2.4038107 0.6649282
0.1119317 2.3392854 0.62529302
0.024828961 2.3810744 0.60961753
-0.063915938 2.3627448 0.58112675
-0.1531461 2.3924973 0.56468797
0.11163013 2.3338361 0.53062636
0.024542488 2.3855479 0.51675993
-0.063464463 2.3798597 0.49193722
-0.15333743 2.4226792 0.47727391
0.11195976 2.3519096 0.44362444
0.025154443 2.3843491 0.42465502
-0.061636206 2.3560507 0.39664412
-0.15414989 2.4504409 0.38958174
0.11107756 2.3290982 0.3508952
0.02618729 2.3685999 0.33273673
-0.061776537 2.4096758 0.31528991
-0.15367249 2.4780524 0.30106893
0.11140789 2.3274875 0.26346886
0.026544036 2.3970826 0.24777186
-0.060782757 2.4086516 0.22606009
-0.15046343 2.4456511 0.20696127
0.11306866 2.354439 0.17980051
0.027461367 2.411499 0.16064703
-0.059561685 2.3833559 0.13642265
-0.14897874 2.4346912 0.11597057
0.11409831 2.3604028 0.093303159
0.028405586 2.3917608 0.071575783
-0.059148137 2.4157653 0.049689967
-0.14926963 2.4563224 0.026844816
0.1129671 2.3302541 0.0066371122
0.029368088 2.3987646 -0.01637122
-0.057846133 2.4019926 -0.038667254
-0.1485102 2.4587095 -0.063167304
0.11495379 2.3458383 -0.079554364
0.030496802 2.4185419 -0.10471603
-0.056494966 2.4069755 -0.12727456
-0.14767094 2.4547811 -0.15342823
0.11693031 2.3542321 -0.1663979
0.031586654 2.4050875 -0.19268042
-0.056295935 2.4146645 -0.21645397
-0.15001553 2.5061615 -0.24935682
0.1168565 2.3395596 -0.25207537
0.03292264 2.426192 -0.28417966
-0.056381863 2.4458296 -0.30966955
-0.14639889 2.4558022 -0.33599421
0.1208363 2.3800514 -0.34528071
0.033954065 2.4032679 -0.37118068
-0.054048959 2.3843651 -0.39213666
-0.059170116 0.99519449 -0.17387046
0.12106224 2.3488798 -0.43010253
0.033901114 2.3220537 -0.44737285
-0 0 -0
-0.053931974 0.91192865 -0.19450842
0.11230454 2.1390142 -0.47501805
0 0 -0
-0 0 -0
-0 0 -0
0.06159978 1.1525166 -0.30192757
0 0 -0
-0 0 -0
-0.045326781 0.76146328 -0.22392897
0.12607543 2.3077765 0.71402711
0.038221173 2.3444517 0.69642055
-0.051426943 2.3739614 0.68011975
-0.14073271 2.3835573 0.65907454
0.1259706 2.3327663 0.62374532
0.039390355 2.3779712 0.60887349
-0.049579632 2.3708594 0.58303678
-0.13790096 2.3836746 0.56239527
0.12647384 2.3428447 0.53284097
0.038874511 2.3667855 0.51273763
-0.048800427 2.3772669 0.49133015
-0.13852523 2.4245539 0.47746679
0.12528095 2.3305712 0.43973622
0.039652649 2.3762746 0.42325231
-0.047198329 2.3573704 0.39681005
-0.13776837 2.4276752 0.38582072
0.12557922 2.3323228 0.35149044
0.04056704 2.3594835 0.33148476
-0.046873905 2.4040613 0.31451175
-0.13730191 2.4581337 0.29854095
0.12499022 2.3138611 0.26200828
0.041217528 2.3948855 0.24756625
-0.046097454 2.4139566 0.22652717
-0.13655607 2.4664268 0.20864457
0.12594885 2.3248274 0.17759483
0.042170115 2.4062972 0.16031471
-0.044955388 2.3846748 0.13647979
-0.1355738 2.4634855 0.11730029
0.12809002 2.3506787 0.092948101
0.04315263 2.395539 0.071695425
-0.044305831 2.4150832 0.049669411
-0.13452226 2.4631827 0.026910262
0.12726314 2.3295171 0.0066371122
0.04447199 2.4195352 -0.016514527
-0.043214329 2.4083006 -0.038763802
-0.13455816 2.4805365 -0.06370566
0.12840973 2.3281243 -0.078978866
0.04486797 2.3933372 -0.10363471
-0.04186343 2.4152646 -0.12769687
-0.13174482 2.4396951 -0.15243194
0.13103981 2.3474944 -0.16597539
0.04630499 2.4028552 -0.19252071
-0.041359041 2.4079933 -0.21582915
-0.13127331 2.4444335 -0.24313033
0.13087541 2.3328424 -0.2514334
0.047808856 2.4259443 -0.28417966
-0.041306365 2.4421618 -0.30916727
-0.13021691 2.4358771 -0.33315256
