# .PCD v0.7 - Point Cloud Data file format
VERSION 0.7
FIELDS x y z
SIZE 4 4 4
TYPE F F F
COUNT 1 1 1
WIDTH 1605
HEIGHT 1
VIEWPOINT 0 0 0 1 0 0 0
POINTS 1605
DATA ascii
0.48242053 -2.0767727 0.29949087
0.70671922 -2.6048419 0.35303131
0.83296567 -2.6810181 0.34043297
0.23372589 -1.2057296 0.13886888
0 -0 0
0.72054696 -2.6600337 0.2585679
0.83152807 -2.6810143 0.23709229
0.22713909 -1.1727359 0.091117181
0 -0 0
0.72005218 -2.6607833 0.15773156
0.83827221 -2.70593 0.13468163
0.23237407 -1.2017869 0.048328277
0 -0 0
0.72494245 -2.6842413 0.057173274
0.83478391 -2.6986685 0.030815359
0.22973041 -1.1890051 0.0034451534
1.2092768 -5.233994 -0.03665952
0.72184169 -2.6770289 -0.044621017
0.83858651 -2.7144852 -0.072857738
0.23691882 -1.2296664 -0.042417709
0.93320966 -4.0458798 -0.17976037
0 -0 -0
0.33027235 -1.0700109 -0.069864638
0.23076238 -1.2020036 -0.086402975
0 -0 -0
0 -0 -0
0 -0 -0
0.20683776 -1.0790113 -0.11822719
0 -0 -0
0 -0 -0
0 -0 -0
0.1998065 -1.0469755 -0.15442994
0 -0 -0
0.21491589 -0.80154538 -0.13644475
0.23191191 -0.75320995 -0.137447
0 -0 -0
0 -0 -0
0.2190631 -0.81901246 -0.17162473
0.23576646 -0.76658511 -0.17076756
0 -0 -0
0.19194335 -0.84154391 -0.19989422
0.21314961 -0.79723811 -0.19944842
0.23826367 -0.77374333 -0.20439367
0 -0 -0
0.18543851 -0.81584817 -0.22736184
0.20660755 -0.77358061 -0.22607604
0.22677924 -0.73635709 -0.22618236
0.22603346 -1.2096746 0.38018477
0 -0 0
0.71186036 -2.6656413 0.79026067
0.8206588 -2.669261 0.77082711
0.22346045 -1.1917566 0.32373878
0.27520263 -1.2150446 0.31894553
0 -0 0
0.82575691 -2.6972351 0.66441971
0.23077828 -1.2306654 0.28435901
0.29120433 -1.2848607 0.28537172
0.63125753 -2.3746188 0.5077213
0.81499767 -2.6689129 0.54865277
0.22686 -1.2082572 0.23162527
0.350604 -1.5488266 0.28281111
0.5315271 -2.0035439 0.34884766
0.79453123 -2.6054716 0.43220696
0.228175 -1.2158458 0.18616195
0.33114582 -1.4663146 0.21115984
0.69072288 -2.6091292 0.35303131
0.81621087 -2.6851289 0.3403126
0.22797126 -1.2159308 0.13988006
0 -0 0
0.71209848 -2.6942446 0.2614637
0.81419402 -2.6832056 0.23683979
0.22544669 -1.2035092 0.093398906
0 -0 0
0.70804524 -2.681561 0.15870273
0.80716699 -2.6632259 0.13230713
0.22554669 -1.2061367 0.048446633
0.27708879 -1.2316508 0.03777694
0.7084586 -2.6886389 0.057173274
0.81009984 -2.6769419 0.030509934
0.2244509 -1.2012051 0.0034764467
0.26777059 -1.1922723 -0.0083391536
0.70234954 -2.6698039 -0.04442792
0.81063604 -2.6822596 -0.071857929
0.22515899 -1.208499 -0.04163909
0.2469814 -1.1015949 -0.048876133
0 -0 -0
0 -0 -0
0.22265445 -1.1994737 -0.086121298
0 -0 -0
0 -0 -0
0 -0 -0
0.2168825 -1.1702003 -0.12807053
0 -0 -0
0 -0 -0
0.2347175 -0.77884942 -0.11109596
0.20307447 -1.100737 -0.16217294
0 -0 -0
0.20674764 -0.79043877 -0.13433562
0.23666149 -0.78574681 -0.1431167
0.18643396 -1.0149071 -0.18869826
0.18417208 -0.82917553 -0.16362686
0.2127964 -0.81559932 -0.17063268
0.23162189 -0.76989049 -0.17118406
0.18739702 -1.0256896 -0.23123032
0 -0 -0
0.20727266 -0.79476875 -0.19850874
0 -0 -0
0 -0 -0
0.17876421 -0.80943227 -0.22526391
0.20161445 -0.77390248 -0.22580431
0.22419426 -0.74416584 -0.22815406
0.21657006 -1.1997557 0.37664264
0 -0 0
0.69258291 -2.6587954 0.78695643
0.80259931 -2.6687076 0.76923066
0.21803823 -1.2035627 0.32657629
0.25629124 -1.1646738 0.3053048
0 -0 0
0.80639923 -2.6929266 0.66212702
0.22565661 -1.245492 0.28745952
0 -0 0
0.52155638 -2.0115845 0.42940798
0.72756279 -2.4359984 0.49984503
0.22435358 -1.2367004 0.23680954
0.25629628 -1.165375 0.21250282
0.50860202 -1.9657158 0.34171137
0.74183291 -2.4872596 0.4118346
0.21965183 -1.2113849 0.18526909
0.27036196 -1.2323045 0.17721847
0.65586251 -2.5403528 0.34317446
0.79010177 -2.6577332 0.33621973
0.21873502 -1.2075292 0.13875653
0.26451418 -1.2057508 0.12758709
0.69406259 -2.6927786 0.26090324
0.78439128 -2.6432528 0.23288405
0.21326344 -1.1783786 0.091345355
0.24638066 -1.1247798 0.076701149
0.69506347 -2.6993906 0.15950254
0.79222983 -2.6729171 0.13254458
0.22578023 -1.2497799 0.050143052
0.26269746 -1.2020797 0.036819804
0.69493383 -2.7045555 0.057419978
0.79110539 -2.6732326 0.030411759
0.21991846 -1.2183052 0.0035219651
0.25703979 -1.178261 -0.0082299672
0.6819796 -2.658567 -0.044170458
0.78084642 -2.6421247 -0.070653029
0.21986385 -1.2216613 -0.042045329
0.24170558 -1.109923 -0.04917891
0 -0 -0
0 -0 -0
0.20983334 -1.1703796 -0.083938338
0.21920882 -1.009158 -0.082725614
0 -0 -0
0 -0 -0
0.20128927 -1.1245314 -0.12293489
0 -0 -0
0 -0 -0
0 -0 -0
0.20568986 -1.1545758 -0.16991596
0 -0 -0
0 -0 -0
0.23155746 -0.78623909 -0.14294487
0.18913595 -1.0663977 -0.19805224
0.18570583 -0.86100584 -0.1696801
0.21044573 -0.82733828 -0.17281519
0.22578947 -0.76754391 -0.17035106
0.17465635 -0.99028534 -0.22300303
0 -0 -0
0 -0 -0
0.22875071 -0.77660888 -0.20439367
0 -0 -0
0.17804302 -0.83032858 -0.23077096
0.19496688 -0.76766288 -0.2236305
0 -0 -0
0.2051056 -1.1775302 0.36926329
0.2468331 -1.1539466 0.35048804
0.67743891 -2.6676538 0.78833318
0.78892881 -2.6828299 0.77189142
0.20981726 -1.2001194 0.32528651
0.25298548 -1.1842246 0.31001705
0 -0 0
0.78767252 -2.6903505 0.66029286
0.20692492 -1.1834539 0.27284294
0.25845715 -1.2090112 0.26780063
0 -0 0
0 -0 0
0.21794744 -1.2448295 0.2381056
0.2653802 -1.2429876 0.22635408
0.4261148 -1.6895914 0.2932511
0.68011081 -2.3324738 0.38550729
0.21579431 -1.2331653 0.1883941
0.2551634 -1.1981037 0.17207162
0.59331989 -2.3577836 0.31801352
0.76934665 -2.6472785 0.33429366
0.21525718 -1.2313615 0.14134066
0.26021856 -1.2219443 0.12912923
0.6751011 -2.6873305 0.25996912
0.77204436 -2.6614139 0.23406236
0.2070583 -1.1855582 0.091801696
0.25109544 -1.1809248 0.080423214
0.67775816 -2.7006996 0.15933114
0.77442437 -2.6729305 0.13230713
0.21639144 -1.2412981 0.049748536
0.25863519 -1.2193137 0.037298374
0.67516869 -2.6961606 0.057152718
0.77802223 -2.689563 0.030542659
0.21604252 -1.2403201 0.0035817076
0.25063381 -1.1837291 -0.0082572633
0.67729396 -2.7092626 -0.044942841
0.77100098 -2.6689556 -0.07124266
0.21014091 -1.2101864 -0.041605238
0.25017819 -1.1837181 -0.052379645
0.68420643 -2.7440364 -0.14949878
0 -0 -0
0.20519817 -1.186389 -0.084994607
0.24200374 -1.1480114 -0.093984604
0 -0 -0
0 -0 -0
0.20487452 -1.1864905 -0.12956844
0 -0 -0
0 -0 -0
0.23583707 -0.81880289 -0.11637335
0.19022185 -1.1070477 -0.16274652
0 -0 -0
0 -0 -0
0.22291368 -0.77439147 -0.14053956
0.18325245 -1.0714165 -0.19877176
0.18283294 -0.87366259 -0.17195009
0.20654424 -0.83337063 -0.17380723
0.22404857 -0.77925485 -0.17264184
0.16644911 -0.97882628 -0.22018842
0.18020405 -0.86305374 -0.2041809
0 -0 -0
0.22156705 -0.76961225 -0.20219062
0.16709279 -0.9882462 -0.26219359
0.17333792 -0.83329493 -0.23129542
0.19279581 -0.77912098 -0.2266195
0.21876214 -0.75976968 -0.23209746
0.19487123 -1.1608638 0.363655
0.24286412 -1.1704574 0.35504353
0.66175044 -2.6745601 0.78915924
0.77005607 -2.6792822 0.7694968
0.20967413 -1.2442569 0.33689469
0.24394532 -1.1772171 0.30778491
0.38181084 -1.5481261 0.39203376
0.77114999 -2.695133 0.66029286
0.20500751 -1.2164344 0.28015122
0.25460595 -1.2277999 0.27161121
0.34651798 -1.4073484 0.29949281
0.46606362 -1.6332886 0.33393738
0.20261911 -1.2006001 0.22940347
0.24836485 -1.1992822 0.21811347
0.46232507 -1.8817897 0.32611117
0 -0 0
0.20740132 -1.2295907 0.18765005
0.24920948 -1.2064353 0.17304535
0.57671702 -2.3527124 0.31684625
0.75444466 -2.656724 0.33489552
0.20571643 -1.2209009 0.13999242
0.25030145 -1.2118285 0.12789552
0.66214901 -2.7059286 0.2613703
0.76738441 -2.7073245 0.23768143
0.19812478 -1.1769737 0.091041118
0.23679134 -1.1482403 0.078096926
0.66164839 -2.7067473 0.15944541
0.76725966 -2.7103097 0.13392179
0.20910202 -1.2445732 0.049827438
0.24933611 -1.2120662 0.037029177
0.6567173 -2.692482 0.056988247
0.77727872 -2.7500963 0.031175327
0.20246817 -1.2061193 0.0034792919
0.24236022 -1.180347 -0.0082231425
0.65994787 -2.7104528 -0.044894565
0.76873016 -2.7236645 -0.072575741
0.2068349 -1.236096 -0.04245156
0.2372939 -1.1578267 -0.051168557
0.67041993 -2.7607982 -0.15018503
0 -0 -0
0.20332585 -1.220096 -0.087318406
0.22776872 -1.1143166 -0.091109969
0 -0 -0
0 -0 -0
0.19775364 -1.1887059 -0.12967543
0 -0 -0
0 -0 -0
0 -0 -0
0.19797029 -1.1960683 -0.17565151
0 -0 -0
0 -0 -0
0.22455865 -0.79850495 -0.14466298
0.18083197 -1.0977566 -0.20344874
0.17824975 -0.87861741 -0.17270674
0.2021167 -0.8374806 -0.17440248
0.21820496 -0.77684838 -0.17180882
0.16848567 -1.0289651 -0.23123032
0.17645118 -0.871782 -0.20598581
0 -0 -0
0 -0 -0
0.1565184 -0.9615615 -0.2548542
0.17585076 -0.87218153 -0.24178502
0.18756071 -0.778418 -0.22607604
0.20941931 -0.74447179 -0.22702737
0.18942092 -1.1724128 0.36690187
0.24115862 -1.1991795 0.36330032
0 -0 0
0.75933456 -2.7043741 0.77535045
0.19723994 -1.2159555 0.32889795
0.2369082 -1.1796417 0.30803296
0 -0 0
0.7572186 -2.7091882 0.66258556
0.20113137 -1.2398088 0.28524488
0.24129041 -1.2005936 0.26526022
0.36915252 -1.5399173 0.32721615
0.53322428 -1.9130573 0.39046174
0.2001337 -1.2318906 0.23514318
0.23499584 -1.1708604 0.21267816
0.35212815 -1.4721869 0.25474843
0.59820944 -2.1493964 0.35400853
0.19874339 -1.2240076 0.18660839
0.24044162 -1.2011447 0.17207162
0 -0 0
0.72194445 -2.6029499 0.32755241
0.1953577 -1.2044848 0.13797005
0.24442293 -1.2211443 0.128718
0.63169056 -2.6518288 0.2557655
0.74411184 -2.6879735 0.23557732
0.19967076 -1.232302 0.095224299
0.23873554 -1.1946801 0.081154339
1.7820883 -7.4893012 0.44051722
0.73757249 -2.6677916 0.13159478
0.19843085 -1.2270912 0.049077861
0.24306668 -1.2194549 0.037208643
0.6422627 -2.7052157 0.057173274
0.74575675 -2.7017999 0.030575383
0.1969777 -1.2191851 0.0035134302
0.23843013 -1.1984847 -0.0083391536
1.2160528 -5.1311879 -0.084865212
0.74509722 -2.7032731 -0.071909197
0.20178869 -1.2531294 -0.04299321
0.23271465 -1.1720001 -0.051730849
0 -0 -0
0 -0 -0
0.19520395 -1.2173809 -0.087036736
0.22325061 -1.127427 -0.09206818
0 -0 -0
0 -0 -0
0.19532757 -1.2203317 -0.13299222
0 -0 -0
0 -0 -0
0.22367117 -0.8139922 -0.11529081
0.19311745 -1.2128983 -0.17794573
0.19559 -0.99292254 -0.1562866
0 -0 -0
0.2204375 -0.80271763 -0.14517839
0.17363107 -1.0959307 -0.2029091
0.19235595 -0.97893721 -0.19219063
0.19652602 -0.83679664 -0.17400564
0.22171287 -0.80835629 -0.17847294
0.17431636 -1.1071316 -0.24855092
0.18459171 -0.94168192 -0.22223003
0 -0 -0
0 -0 -0
0.15585032 -0.9959572 -0.26371208
0 -0 -0
0.18805343 -0.80204141 -0.23259747
0.20764305 -0.75592035 -0.23012576
0.18149057 -1.1688324 0.365426
0.23104768 -1.1865226 0.35902956
0 -0 0
0.73100191 -2.6662188 0.76311088
0.19007294 -1.2190521 0.32941386
0.24168512 -1.2428844 0.32415381
0 -0 0
0.73853105 -2.7062714 0.6607514
0.19412126 -1.2448736 0.28613073
0.23727952 -1.2193197 0.2690708
0.36414576 -1.5612277 0.33126336
0.50730538 -1.8642198 0.37985137
0.19484566 -1.2476596 0.23792046
0.23907544 -1.2302661 0.2231981
0.34509993 -1.4829639 0.25624204
0.52700078 -1.9395347 0.31890541
0.19107677 -1.224227 0.18645957
0.22873351 -1.1802371 0.16887224
0 -0 0
0.68105239 -2.515341 0.31599599
0.186892 -1.1987883 0.13718358
0.22784212 -1.1757474 0.12378313
0 -0 0
0.72916448 -2.6982605 0.2360823
0.1911851 -1.2275926 0.09476795
0.22836834 -1.1804484 0.080090888
1.7446568 -7.537056 0.44268811
0.71598405 -2.6529796 0.13064498
0.19227891 -1.2371719 0.049432922
0.23501155 -1.2179791 0.037118908
1.6859525 -7.3002648 0.15406564
0.72292143 -2.6831524 0.030313587
0.19133446 -1.2322288 0.0035475693
0.22672273 -1.1773406 -0.0081821969
1.175337 -5.0986061 -0.084205471
0.7201854 -2.676903 -0.07108885
0.19195618 -1.2405164 -0.042519268
0.22891311 -1.1910658 -0.052509405
0.24698953 -1.0744375 -0.058279186
0 -0 -0
0.1872749 -1.215598 -0.086825483
0.21051237 -1.0984271 -0.089592807
0 -0 -0
0 -0 -0
0.18859164 -1.2264208 -0.13352717
0.22457013 -1.1745507 -0.14005417
0 -0 -0
0 -0 -0
0.18462433 -1.2072123 -0.17694202
0.21891724 -1.1484619 -0.18055376
0.1931982 -0.84353918 -0.14228542
0.21040718 -0.78502423 -0.14174223
0.16912276 -1.111563 -0.20560735
0.1933153 -1.0167563 -0.19937886
0.19509776 -0.85423052 -0.17737862
0.2132079 -0.79647416 -0.17555739
0.16679023 -1.1033537 -0.24746838
0.1838931 -0.9695971 -0.22854722
0 -0 -0
0 -0 -0
0.14829929 -0.98732758 -0.26118127
0.17534347 -0.92832327 -0.25673267
0.18184504 -0.79755038 -0.2309671
0.20175855 -0.75254625 -0.2287174
0.16995041 -1.1406286 0.35627559
0.23174816 -1.23031 0.37184191
0 -0 0
0.71587443 -2.6753099 0.76444131
0.18444818 -1.2326171 0.33276734
0.22438419 -1.1929326 0.31076109
0.2994667 -1.3181542 0.33234531
0 -0 0
0.18214919 -1.2171085 0.27948684
0.22708149 -1.2063457 0.26589531
0.35954097 -1.585399 0.33591762
0.50668597 -1.9080765 0.38814673
0.18339905 -1.2235633 0.23310649
0.22788474 -1.2123586 0.21969146
0.27876198 -1.2320943 0.2125946
0.51635575 -1.9475052 0.31968898
0.18575892 -1.2400455 0.18869172
0.22860272 -1.2195779 0.17429727
0.27069539 -1.1993582 0.1608225
0.6341638 -2.4004574 0.30106893
0.17806248 -1.1900852 0.13606004
0.23033541 -1.2289401 0.12923205
0.27088639 -1.2024519 0.11564562
0.70954603 -2.6911216 0.23507234
0.1860074 -1.2445209 0.095984876
0.224057 -1.1975198 0.081154339
0.26344684 -1.1707623 0.068668351
0.70859408 -2.6911309 0.13230713
0.18379979 -1.2323987 0.049196217
0.22441685 -1.2026941 0.036610432
1.6404703 -7.3075457 0.15400395
0.71051168 -2.703011 0.030488117
0.18627532 -1.2501938 0.0035959322
0.22425412 -1.2042696 -0.0083596259
0.26890069 -1.2000836 -0.019792227
0.70526934 -2.687073 -0.07124266
0.18610212 -1.253534 -0.042925499
0.22269577 -1.1983414 -0.052768923
0.24801338 -1.1100429 -0.060126804
0 -0 -0
0.18141678 -1.2275791 -0.087600082
0.21829753 -1.1781077 -0.095980875
0 -0 -0
0 -0 -0
0.18193342 -1.2334565 -0.13416915
0.22115012 -1.1964165 -0.14249696
0 -0 -0
0 -0 -0
0.1782188 -1.2151767 -0.17794573
0.20058346 -1.0885524 -0.17093846
0 -0 -0
0.2172986 -0.83109576 -0.14981723
0.16016924 -1.0979789 -0.2029091
0.17855352 -0.97156626 -0.19029899
0.18900317 -0.8515842 -0.17658497
0.20263319 -0.77600151 -0.17076756
0.1577771 -1.0888973 -0.24400428
0.18127778 -0.98891401 -0.23283391
0 -0 -0
0 -0 -0
0 -0 -0
0.17432274 -0.95501322 -0.26381317
0.1779888 -0.80334908 -0.23232573
0.19737999 -0.75469834 -0.22899906
0.051928245 -1.1903058 0.36808261
0.10074029 -1.2276893 0.36586282
0.15135807 -1.2570095 0.36263877
0.1989866 -1.2557845 0.3509565
0.055231664 -1.248018 0.33354121
0.10274523 -1.2561574 0.32266575
0.14893855 -1.2447859 0.30823115
0.19624931 -1.2480907 0.29759035
0.056415852 -1.2742724 0.28967413
0.10247519 -1.2507067 0.2718229
0.14681968 -1.231084 0.25618777
0.19465627 -1.243759 0.24751107
0.056706611 -1.2742964 0.24032743
0.10217638 -1.251084 0.22354877
0.1483777 -1.2495263 0.2117648
0.19331826 -1.2383221 0.19886534
0.056467302 -1.2714169 0.19151913
0.10205799 -1.2574792 0.17721847
0.14748789 -1.2476113 0.16432428
0.19229175 -1.2389822 0.1520392
0.055859834 -1.2627112 0.14291361
0.10217001 -1.259132 0.13056858
0.14549413 -1.234998 0.11667316
0.18737808 -1.2112277 0.10352272
0.056117374 -1.273062 0.097201802
0.10192958 -1.2610835 0.084278211
0.14803974 -1.259254 0.072553091
0.19215433 -1.2448339 0.059884883
0.056097921 -1.2817734 0.050655924
0.10261297 -1.2773114 0.03834524
0.14528768 -1.2412618 0.025698163
0.19199008 -1.2472347 0.013766012
0.056485303 -1.2947632 0.0036869682
0.10290553 -1.286862 -0.0088100219
0.14885569 -1.2761817 -0.020677246
0.19148137 -1.2469693 -0.032352731
0.05564649 -1.2910603 -0.043771826
0.10059641 -1.2638152 -0.05488833
0.14696805 -1.2667222 -0.067411706
0.18950722 -1.2361264 -0.078021735
0.053162977 -1.2527522 -0.08851552
0.10002315 -1.2649868 -0.1016503
0.14890929 -1.2852172 -0.11594791
0.18842986 -1.2315384 -0.1237395
0.053143192 -1.260596 -0.13577403
0.10066954 -1.2802706 -0.150407
0.1492406 -1.2910328 -0.16450411
0.19060716 -1.2478081 -0.17239495
0.052317973 -1.2656922 -0.18353792
0.099304803 -1.2720047 -0.1970371
0.14354081 -1.2459195 -0.20620841
0.17594679 -1.1530474 -0.20342156
0.046291057 -1.1411231 -0.20884526
0.095337503 -1.2286484 -0.23740083
0.14327061 -1.2502911 -0.25475854
0.17285468 -1.135175 -0.24448916
0.044507612 -1.1237947 -0.24941696
0.093359597 -1.2102786 -0.28111535
0.13576481 -1.1858875 -0.28848371
0.15287425 -1.0016097 -0.25579807
0.042008713 -1.0865961 -0.28446487
0.081213847 -1.0632309 -0.28977489
0 -0 -0
0.14002675 -0.91722006 -0.27237651
0.04433741 -1.1829638 0.3657212
0.092480101 -1.2187257 0.36301562
0.14004312 -1.2263951 0.35355213
0.18968233 -1.2464992 0.34802967
0.047572929 -1.2483335 0.33354121
0.095473938 -1.2625601 0.32415381
0.14184512 -1.2505008 0.30942491
0.18873274 -1.2502338 0.29781958
0.048298776 -1.266799 0.28790244
0.094725244 -1.2503375 0.27161121
0.14300321 -1.2650477 0.26306802
0.18570912 -1.236197 0.24577482
0.04771905 -1.2441788 0.23458771
0.096499078 -1.2781937 0.22828273
0.14114906 -1.254333 0.21242866
0.18703356 -1.2482758 0.20027575
0.048627157 -1.2707512 0.19137031
0.095228925 -1.2699318 0.17888771
0.14060245 -1.2553905 0.16523214
0.18556325 -1.2460302 0.15276147
0.047619235 -1.2501218 0.14145301
0.094888382 -1.2656866 0.13118543
0.13846567 -1.2408149 0.11714023
0.1881351 -1.2675513 0.10823595
0.048909709 -1.2893245 0.09841872
0.093521267 -1.25273 0.083680019
0.14042079 -1.2611308 0.072610214
0.18582948 -1.2548825 0.060312297
0.048044231 -1.2771009 0.050458666
0.095291086 -1.2848946 0.038554613
0.14306532 -1.2908216 0.026705531
0.1841875 -1.2474 0.013755104
0.048202641 -1.2860918 0.0036613643
0.094418831 -1.2794912 -0.0087554296
0.14135163 -1.2800525 -0.02072552
0.18542878 -1.2589997 -0.032634728
0.047465276 -1.2843862 -0.043534853
0.092913046 -1.2654051 -0.054931585
0.14082782 -1.2824898 -0.068203539
0.18337078 -1.2471404 -0.078644417
0.046090253 -1.2700014 -0.08971262
0.091824614 -1.2596117 -0.1011712
0.13982639 -1.275216 -0.11496606
0.18231438 -1.2425171 -0.12472784
0.046122961 -1.2807707 -0.1379139
0.092237815 -1.2729392 -0.14947641
0.1398059 -1.2781174 -0.16274604
0.18553197 -1.2666003 -0.17483068
0.044098377 -1.2531317 -0.18167385
0.09093108 -1.2647042 -0.19581613
0.13739015 -1.26051 -0.20847979
0.17015214 -1.1628782 -0.20496784
0.039829832 -1.1571153 -0.21172342
0.088076696 -1.233128 -0.23815748
0.13116089 -1.2102213 -0.24642533
0.16503833 -1.1304075 -0.24323966
0.036501244 -1.0908716 -0.2420557
0.087035172 -1.226377 -0.28472519
0.12921819 -1.1934627 -0.29012814
0.15515004 -1.0600903 -0.27048504
0 -0 -0
0.07975781 -1.1359067 -0.30944288
0.11667311 -1.0802386 -0.30677867
0.14023343 -0.95793647 -0.28420672
0 -0 0
0.084667064 -1.2144887 0.36159205
0.13437316 -1.2444354 0.3585085
0.18147372 -1.2438241 0.34696534
0.039418515 -1.2331512 0.32941386
0.086517066 -1.2457265 0.31968957
0.1344801 -1.2542442 0.31014118
0.18161544 -1.2552217 0.29873666
0.040026166 -1.2514768 0.28435901
0.087662183 -1.2596699 0.27351651
0.13513429 -1.2649274 0.26286566
0.17812045 -1.2373132 0.24577482
0.040210564 -1.2483768 0.23532832
0.086611688 -1.2492971 0.22302277
0.13574362 -1.2767488 0.21607976
0.17951111 -1.2503774 0.20043245
0.040543318 -1.2621306 0.19003102
0.086619101 -1.258637 0.17721847
0.13592201 -1.2848252 0.16899332
0.17609166 -1.2343693 0.15119654
0.040740978 -1.2752196 0.14426185
0 -0 0
0.13387561 -1.2703553 0.11984922
0 -0 0
0 -0 0
0 -0 0
0.13675122 -1.3006916 0.074838221
0 -0 0
0 -0 0
0 -0 0
0.13919969 -1.3304552 0.027507314
0 -0 0
0 -0 0
0 -0 -0
0.13670769 -1.3117247 -0.021224348
0 -0 -0
0 -0 -0
0 -0 -0
0.13449956 -1.298229 -0.068995371
0 -0 -0
0.038086381 -1.2632809 -0.089219697
0.08548788 -1.281038 -0.10284807
0.13302401 -1.2859571 -0.11585866
0.17510228 -1.2465687 -0.12502433
0.037936904 -1.2700976 -0.13673697
0.083702758 -1.2625798 -0.14819685
0.13297911 -1.2888197 -0.16400181
0.17816952 -1.2706585 -0.17523663
0.036753304 -1.2652497 -0.18339452
0.084400944 -1.2839752 -0.19871596
0.13005681 -1.2652555 -0.20912875
0.15713806 -1.1219492 -0.19758007
0 -0 -0
0.079869241 -1.2238467 -0.23626584
0.12562549 -1.229529 -0.25019512
0.1639196 -1.1730514 -0.25219455
0.03146008 -1.1515819 -0.25547919
0.07755556 -1.1967505 -0.27773115
0.12307721 -1.2058371 -0.29294723
0.16438115 -1.1733658 -0.29912463
0 -0 -0
0.068653725 -1.0718517 -0.2918728
0.11062752 -1.0866787 -0.30840904
0.12796156 -0.91316795 -0.27068648
0.025268886 -1.0028973 0.30993322
0.076483928 -1.2035052 0.3581754
0.12673491 -1.2452365 0.3585085
0.17397165 -1.2458689 0.34723142
0.033771854 -1.307739 0.34927672
0.07862705 -1.2423667 0.31869754
0.12775767 -1.2647074 0.31252873
0.1727089 -1.2476349 0.29667324
0.032850336 -1.2711957 0.28878829
0.079003349 -1.2455535 0.27034101
0.12805668 -1.2725536 0.2642822
0.16891889 -1.2267183 0.24345984
0.032780398 -1.2574415 0.2369947
0.079316899 -1.2557005 0.22407478
0.12712118 -1.2697078 0.21475208
0.17076075 -1.2436277 0.19917876
0.033594467 -1.2930001 0.19464415
0.078708842 -1.2561797 0.17680115
0.12616892 -1.2668881 0.1665291
0.16784355 -1.2305084 0.15059465
0.032710526 -1.2674987 0.14336301
0.076613136 -1.2230746 0.12666181
0.12578353 -1.2681806 0.11956898
0.1694798 -1.2470549 0.10630016
0.033084031 -1.2898276 0.09841872
0.078513704 -1.2597586 0.084078819
0.12670355 -1.2806423 0.073638529
0.16907428 -1.2471702 0.059837397
0.032925393 -1.2995702 0.051326606
0.078035764 -1.2620238 0.037836764
0.12809557 -1.3014349 0.026890559
0.16913393 -1.2515482 0.01377692
0.032416686 -1.2865865 0.0036613643
0.078096904 -1.2705724 -0.008687187
0.12670571 -1.2926368 -0.020902522
0.17156716 -1.273069 -0.032942362
0.031897511 -1.2928649 -0.043805677
0.077438511 -1.2674471 -0.054974835
0.12536953 -1.2871031 -0.068361908
0.1685849 -1.2532535 -0.07889349
0.030310376 -1.2624935 -0.089149274
0.075456299 -1.2457191 -0.099973433
0.12397417 -1.274853 -0.11478753
0.16943575 -1.2624135 -0.12650684
0.030284531 -1.2762704 -0.13737893
0.076669559 -1.2749666 -0.14959273
0.12487702 -1.2876364 -0.16375065
0.17023799 -1.2707458 -0.1751013
0.028807864 -1.2575361 -0.1822474
0.074816644 -1.2558595 -0.19428986
0.12058318 -1.2483505 -0.20620841
0.16187908 -1.2097943 -0.21287104
0.025104685 -1.1339142 -0.20740619
0.07160522 -1.2115706 -0.23380671
0.1174234 -1.2234473 -0.24880625
0.15814234 -1.1846992 -0.25448531
0.02300846 -1.086357 -0.24097316
0.069241367 -1.1806706 -0.27389571
0.11168718 -1.1649638 -0.28284562
0.15357694 -1.1474441 -0.29227069
0.0222358 -1.0987922 -0.28750184
0.058171544 -1.0048156 -0.27351603
0.10423247 -1.090211 -0.30922419
0.12222874 -0.91298491 -0.27040482
0.021645175 -1.135816 0.35096246
0.069042996 -1.2029948 0.3578907
0.11845163 -1.2392919 0.35658103
0.16377485 -1.2278032 0.34190989
0.024587134 -1.2489976 0.33354121
0.070892043 -1.2408913 0.31820151
0.11981183 -1.2635341 0.31205121
0.1647952 -1.2467412 0.2962147
0.025184279 -1.2781981 0.29033855
0.070856363 -1.237233 0.26843572
0.12024603 -1.2733154 0.2642822
0.16100506 -1.2248132 0.24288109
0.024574729 -1.2330562 0.23236591
0.071834698 -1.2600951 0.2247761
0.11859027 -1.2626094 0.2134244
0.16325513 -1.2456313 0.19933549
0.025248161 -1.2724198 0.19151913
0.071334757 -1.2625712 0.17763577
0.1188541 -1.2725748 0.16717757
0.16451842 -1.2640011 0.15456717
0.025108544 -1.2766169 0.14437421
0.070228919 -1.243384 0.128718
0.11597162 -1.2471187 0.11751388
0.1606717 -1.2391777 0.10554268
0.025052473 -1.284025 0.097962379
0.070950352 -1.2632052 0.084278211
0.12105604 -1.3052541 0.075009614
0.16218726 -1.2541279 0.060122333
0.024471303 -1.2747718 0.05034031
0.070957452 -1.274455 0.038195688
0.12166873 -1.3191209 0.027240053
0.16157924 -1.2535542 0.013787828
0.024750371 -1.298759 0.0036955029
0.070299342 -1.2710278 -0.008687187
0.11767466 -1.2814417 -0.020709429
0.1645171 -1.2800468 -0.033096176
0.023667734 -1.2770483 -0.043264035
0.069166876 -1.2589204 -0.054585561
0.11619971 -1.2739253 -0.067622855
0.16114587 -1.2562441 -0.079018027
0.022616759 -1.2656478 -0.089360535
0.067865446 -1.2471539 -0.10005328
0.11777522 -1.293444 -0.11639421
0.16017072 -1.2515846 -0.12532084
0.022592807 -1.284385 -0.13823487
0.068791538 -1.2744213 -0.14947641
0.11679448 -1.2864023 -0.1634995
0.16381848 -1.2825774 -0.1765898
0.020892095 -1.2458149 -0.18052675
0.068058342 -1.2740587 -0.1970371
0.11523114 -1.2746181 -0.21042667
0.15545014 -1.2185825 -0.21424553
0.018477157 -1.1547017 -0.21118376
0.059393425 -1.1217744 -0.21640362
0.11254378 -1.2534305 -0.25475854
0.15519135 -1.2196062 -0.26177418
0.015740259 -1.0464548 -0.23209634
0.05254817 -1.0010909 -0.23215705
0.10479746 -1.1685314 -0.28355035
0.14849706 -1.1637534 -0.29618722
0 -0 -0
0.0515064 -0.9955163 -0.2708936
0.099341065 -1.1109596 -0.31493044
0.11188661 -0.87659794 -0.25941962
0.014798959 -1.145481 0.3539142
0.061905522 -1.2081826 0.35931429
0.10904776 -1.2198873 0.35079864
0.15830506 -1.2450413 0.34643319
0.018140161 -1.3389691 0.3575314
0.063326061 -1.2422705 0.3184495
0.11171374 -1.2603763 0.31109622
0.15653411 -1.2429001 0.29506838
0.017208656 -1.2685778 0.28812391
0.06436114 -1.259118 0.27309313
0.11165605 -1.2652495 0.26246095
0.15263334 -1.2189628 0.24153069
0.017021928 -1.2341663 0.23255104
0.063751541 -1.2536294 0.22354877
0.11299558 -1.2878723 0.21757342
0.15866736 -1.2711105 0.20325324
0.017670631 -1.2893598 0.19404891
0.063486837 -1.2610071 0.17735757
0.1108712 -1.2713045 0.16691819
0.15407364 -1.2433126 0.15191883
0.017006028 -1.2568755 0.14212714
0.0637483 -1.2666408 0.13108262
0.10857557 -1.2507825 0.11779412
0.15526232 -1.2579414 0.10705765
0.017253371 -1.2901365 0.09841872
0.063497178 -1.269596 0.084677003
0.109601 -1.2661864 0.072724469
0.15631945 -1.2699703 0.060834683
0.016622895 -1.2728996 0.050261408
0.063531734 -1.282853 0.038434971
0.11134388 -1.2939438 0.026705531
0.15498023 -1.2634546 0.013886
0.015876589 -1.2288926 0.0034963612
0.06235186 -1.2684389 -0.0086667147
0.10895644 -1.2721775 -0.020548517
0.15617441 -1.2770631 -0.032993633
0.016314587 -1.316144 -0.044584293
0.06246338 -1.2802765 -0.05549388
0.10888851 -1.2805845 -0.067939594
0.15464376 -1.2671163 -0.079640701
0.0150143 -1.2797271 -0.090346389
0.060211778 -1.2475468 -0.10005328
0.1076466 -1.2683389 -0.11407347
0.15381098 -1.2634099 -0.126408
0.01465461 -1.2795285 -0.1376999
0.059784342 -1.2500175 -0.14656831
0.10789539 -1.2752322 -0.16199259
0.15690164 -1.291427 -0.17767234
0.013100212 -1.2320651 -0.17851929
0.059446342 -1.2576702 -0.1944425
0.10475805 -1.2438366 -0.20523497
0.14939407 -1.2312489 -0.21630722
0.011401397 -1.1557771 -0.21136364
0.053014126 -1.1329074 -0.21848443
0.1039525 -1.2433536 -0.25257602
0.14888012 -1.2302454 -0.26385671
0.0088669946 -0.99576712 -0.22083795
0.045818344 -0.98874319 -0.22922407
0.099404946 -1.1904627 -0.28871864
0.14369003 -1.1838928 -0.30108288
0 -0 -0
0 -0 -0
0.084379859 -1.0137243 -0.2872144
0 -0 -0
0.007847908 -1.1570154 0.35745633
0.054059304 -1.1989633 0.3564671
0.10251722 -1.2320298 0.35410285
0.1501998 -1.2421613 0.34536889
0.010045784 -1.3554795 0.36191672
0.056136258 -1.2523135 0.32092965
0.10381851 -1.2591025 0.31061873
0.15098746 -1.2612336 0.2991952
0.0094462158 -1.2715849 0.28878829
0.056853641 -1.2643709 0.27415162
0.10373033 -1.2639588 0.26205623
0.14874505 -1.2500809 0.24751107
0.0094263358 -1.2312994 0.23199558
0.056014247 -1.2530135 0.22337344
0.10324751 -1.2659354 0.21375634
0.15179554 -1.2799063 0.20450692
0.009624226 -1.2716449 0.19137031
0.055704519 -1.2603836 0.17721847
0.10298844 -1.2709725 0.16678849
0.14887875 -1.264939 0.1544468
0.0091687692 -1.2400641 0.14021713
0.055492215 -1.2560769 0.12995172
0.10201909 -1.265319 0.11910191
0.14591694 -1.2450148 0.10587934
0.0092431158 -1.277256 0.097429968
0.05596824 -1.2759428 0.085075796
0.1005499 -1.2509125 0.071810417
0.14806035 -1.266937 0.060644723
0.0088260509 -1.2749761 0.05034031
0.056222189 -1.2962006 0.038823809
0.10411871 -1.3035722 0.026890559
0.14722489 -1.2643816 0.013886
0.0088310838 -1.3019649 0.0037040375
0.054095056 -1.2578081 -0.0085916482
0.10106924 -1.2718253 -0.020532424
0.1498339 -1.2909064 -0.033326901
0.0080321375 -1.2832389 -0.043467149
0.054223519 -1.2716522 -0.055104598
0.099851444 -1.2662958 -0.067147754
0.14744012 -1.2729985 -0.079952046
0.0071450132 -1.2768025 -0.090135135
0.053143058 -1.2618357 -0.1011712
0.099315204 -1.262025 -0.11344865
0.14856826 -1.2860775 -0.12858234
0.0068191537 -1.282577 -0.13802089
0.053023167 -1.2721925 -0.14912744
0.10061169 -1.2827935 -0.16287163
0.14727272 -1.2776011 -0.17564258
0 -0 -0
0.050632022 -1.2313502 -0.19032167
0.099120267 -1.2700337 -0.20945323
0.14048456 -1.2203984 -0.21424553
0.0042471183 -1.1391027 -0.20830563
0.046221256 -1.1371359 -0.21924108
0.09617015 -1.2420137 -0.25217921
0.13943239 -1.2146168 -0.2603164
0 -0 -0
0.046519235 -1.1574092 -0.26825532
0.083180927 -1.0757247 -0.26076296
0.13054471 -1.1337019 -0.28810939
0 -0 -0
0 -0 -0
0.076013811 -0.98639661 -0.27933434
0.10145036 -0.88076454 -0.26026464
0.00072063535 -1.1140467 0.34417343
0.046142064 -1.1849042 0.35219634
0.093921974 -1.2192167 0.35024792
0.13906026 -1.2124139 0.33685437
0.0016706238 -1.3101063 0.34979263
0.048151609 -1.2448901 0.31894553
0.095278397 -1.2490648 0.30799243
0.14346536 -1.2640706 0.29965374
0.0016865977 -1.3047746 0.29631805
0.048450056 -1.2480938 0.27055272
0.097158633 -1.2801955 0.26529399
0.14019226 -1.2431698 0.24596775
0.0018441685 -1.2136453 0.22866283
0.048286915 -1.2523497 0.2231981
0.094514258 -1.2537616 0.21159886
0.14140245 -1.2582399 0.20090258
0.0018312931 -1.2786021 0.192412
0.048120517 -1.26466 0.17777489
0.094817869 -1.2666365 0.16614
0.1394646 -1.2510293 0.15264109
0.0016334417 -1.2987235 0.14684598
0.048577908 -1.2772675 0.13211073
0.094253309 -1.2659211 0.11910191
0.139484 -1.2567809 0.10680515
0.0013784097 -1.2523612 0.095528528
0.048062935 -1.274268 0.08494287
0.093611389 -1.2614622 0.072381705
0.14259073 -1.2886708 0.061642017
0.0010019927 -1.2740071 0.050300863
0.04759844 -1.2785417 0.038285419
0.095677271 -1.2982039 0.026767207
0.14340802 -1.3010424 0.014278692
0.00084673974 -1.3089944 0.0037239518
0.046339434 -1.2571169 -0.0085848244
0.092898116 -1.2674356 -0.020451969
0.14223771 -1.2947825 -0.03340381
0.00016298465 -1.3222418 -0.044787414
0.046966329 -1.286937 -0.055753395
0.092224501 -1.2688766 -0.067253336
0.14082254 -1.2847925 -0.080636993
-0.00069643673 -1.2897902 -0.091050565
0.044611264 -1.2402225 -0.099414468
0.09437947 -1.3013532 -0.11692977
0.1409986 -1.2899325 -0.12887883
-0.0010433891 -1.2736464 -0.13705795
0.045251414 -1.2734865 -0.14924377
0.090879649 -1.2576596 -0.15960665
0.14233106 -1.3050747 -0.17929615
-0.002104481 -1.2835957 -0.18597552
0.043559253 -1.2454652 -0.19245839
0.089981556 -1.251918 -0.20637065
0.13715306 -1.2594316 -0.22094604
-0.0026050094 -1.0820535 -0.19787234
0.038498148 -1.1158081 -0.21507949
0.087502472 -1.2279158 -0.24920307
0.13081563 -1.2047536 -0.25802562
-0 -0 -0
0.035206445 -1.034019 -0.23960233
0.074992068 -1.0539149 -0.25535977
0.12768103 -1.1720728 -0.29765594
-0 -0 -0
0.03554989 -1.0676664 -0.29029936
0 -0 -0
0.098123059 -0.90044779 -0.26589808
-0 -0 0
0.040064849 -1.2215726 0.36301562
0.085555814 -1.2073038 0.34666836
0.13463336 -1.2410359 0.34457064
-0 -0 0
0.041331265 -1.2703364 0.32539389
0.086118311 -1.2283144 0.3027398
0.13726392 -1.2794442 0.30309275
-0.038771152 -8.0050669 1.8179932
0.041269749 -1.2630198 0.27372822
0.087939322 -1.2612287 0.26124677
0.13526489 -1.2693746 0.25098357
-0.0056570927 -1.2254262 0.23088469
0.040410366 -1.2467186 0.22214611
0.087432377 -1.2631719 0.21309249
0.13753751 -1.2954224 0.20670085
-0 -0 0
0.040801927 -1.2787882 0.17972234
0.086704403 -1.2622484 0.16549154
0.13552736 -1.2874033 0.15697475
-0.038681366 -7.929379 0.89658064
0 -0 0
0.085195206 -1.2476026 0.11732706
0.13457352 -1.2843707 0.1090776
-0 -0 0
0 -0 0
0 -0 0
0.13758621 -1.3173386 0.062971734
-0.029062092 -5.4326897 0.21449865
0 -0 0
0 -0 0
0.13914664 -1.3377025 0.014671383
-0.028745951 -5.2369003 0.014898653
0 -0 -0
0 -0 -0
0.13645472 -1.3165122 -0.03394217
-0.031277768 -5.2019229 -0.17620446
0 -0 -0
0.084702194 -1.2734042 -0.067464493
0.13437371 -1.2995311 -0.081508741
-0 -0 -0
0.03774355 -1.2653819 -0.10141075
0.08322721 -1.2542043 -0.11264532
0.13338724 -1.2937429 -0.12917534
-0.014342037 -2.0620451 -0.22190335
0.037494954 -1.2757257 -0.14947641
0.083488233 -1.2631432 -0.16023453
0.1343206 -1.3059235 -0.17929615
-0.00929558 -1.1954809 -0.1732139
0.037112668 -1.2871997 -0.19886859
0.079580843 -1.2110921 -0.19955651
0.12881893 -1.2543696 -0.21991521
-0 -0 -0
0.032235537 -1.136636 -0.21905193
0.075828083 -1.1648564 -0.23630641
0.12471591 -1.2181824 -0.26073292
-0 -0 -0
0.027611053 -0.98941904 -0.22922407
0 -0 -0
0.11592902 -1.1284671 -0.28639594
-0 -0 -0
0 -0 -0
0.062971041 -0.97284967 -0.27525845
0.097402535 -0.9478026 -0.27969998
-0 -0 0
0.03203224 -1.2016717 0.35703653
0.078767024 -1.2173994 0.34942186
0.12819295 -1.253346 0.34776357
-0.072372586 -6.5810556 1.7572179
0.033817019 -1.2812188 0.32812205
0.078332014 -1.2249433 0.30178481
0.1296066 -1.2821993 0.30355132
-0.087835051 -7.9998021 1.8168858
0.033415534 -1.2593412 0.27288142
0.078459509 -1.2343791 0.25558069
0.12884533 -1.283849 0.25368437
-0.10548244 -9.8098259 1.8483735
0.032372043 -1.2321806 0.21951613
0.080610894 -1.2784473 0.21558188
0.12899689 -1.2903455 0.2057606
-0 -0 0
0.032801621 -1.2730747 0.17888771
0.078462727 -1.2548397 0.16445397
0.12596163 -1.2714165 0.15492831
-0 -0 0
0.033079438 -1.2847279 0.1328304
0.079081818 -1.2729446 0.11966238
0.12551719 -1.2732725 0.10806762
-0 -0 0
0.032016177 -1.2588024 0.083879419
0.078802533 -1.2734771 0.073010117
0.12715666 -1.2942998 0.061831973
-0.061971284 -5.3954401 0.21303894
0.032054737 -1.2850249 0.038464881
0 -0 0
0.13005988 -1.3295745 0.014573211
-0.061099291 -5.2556238 0.014952704
0.031081179 -1.2645887 -0.0086325938
0.076668411 -1.257502 -0.020274965
0.12701674 -1.3033952 -0.033583265
-0.063474827 -5.224618 -0.17698306
0.031387731 -1.2964054 -0.056142677
0.077067621 -1.2768903 -0.067622855
0.12485245 -1.2844372 -0.080512457
-0 -0 -0
0.029884178 -1.2616036 -0.10109134
0.074153453 -1.2318246 -0.11059235
0.12496658 -1.2895846 -0.12868117
-0.022464829 -1.7159454 -0.18466981
0.029597281 -1.2729529 -0.14912744
0.075854875 -1.2656124 -0.1604857
0.12163416 -1.2583989 -0.17266558
-0.021091299 -1.5160223 -0.21967193
0.0261871 -1.1540192 -0.17826441
0.077075422 -1.2942982 -0.21318477
0.11809183 -1.223758 -0.21441732
-0.016504167 -1.1242341 -0.20560735
0.025544241 -1.1495744 -0.22151104
0.068736896 -1.1662781 -0.23650482
0.11939269 -1.2413172 -0.26552275
-0.014504287 -0.9273535 -0.2056824
0 -0 -0
0.060569018 -1.0295272 -0.24925181
0.10322648 -1.0693215 -0.27121937
-0 -0 -0
0 -0 -0
0 -0 -0
0.086512402 -0.89585364 -0.26420802
-0.018360078 -1.0336267 0.31937879
0.025031928 -1.2200555 0.36244616
0.07247556 -1.2380135 0.35520428
0.11607475 -1.2080514 0.33499184
-0.11763465 -6.8654618 1.8333158
0.025915736 -1.2794651 0.32762602
0.070758402 -1.2244314 0.30154604
0.12044949 -1.2694042 0.30034155
-0 -0 0
0.025926875 -1.2712482 0.27542183
0.073634081 -1.2827446 0.26549634
0.12004548 -1.2748464 0.25175521
-0.16243631 -9.6173925 1.8122687
0.024909999 -1.2372775 0.22039279
0.070748396 -1.2434744 0.20960732
0.12080041 -1.2881627 0.20529047
-0 -0 0
0.025047861 -1.2762223 0.17930502
0.071877815 -1.2750973 0.16704789
0.11723991 -1.2622808 0.15372452
-0 -0 0
0.024903351 -1.2699891 0.13128825
0.068599164 -1.2256905 0.11517855
0.11751883 -1.2720343 0.10789929
-0 -0 0
0.024176216 -1.2529894 0.083480626
0.070487231 -1.2649652 0.07249596
0.11875479 -1.2900823 0.061594523
-0.095251985 -5.4049492 0.21343346
0.024319721 -1.2931924 0.038704164
0.071489774 -1.2947538 0.026664415
0.12144312 -1.3253686 0.014518671
-0.09421628 -5.304142 0.015092105
0.023597758 -1.2797527 -0.0087349564
0.069279417 -1.2639389 -0.020371512
0.11747238 -1.287226 -0.033147451
-0.096353568 -5.2690969 -0.17850645
0.022999279 -1.2725999 -0.055104598
0.06820447 -1.2583935 -0.066619866
0.11805449 -1.2971065 -0.081259675
-0 -0 -0
0.022212524 -1.2657498 -0.10141075
0.067668676 -1.2521476 -0.11237754
0.11588276 -1.2774438 -0.12739633
-0.034350444 -1.7863547 -0.1922663
0.021837013 -1.2760898 -0.14947641
0.068727121 -1.2779418 -0.16199259
0.11391049 -1.2591215 -0.17266558
-0.02378672 -1.1863716 -0.1719234
0.019089319 -1.15317 -0.17811178
0.068658799 -1.2858787 -0.21172461
0.11190986 -1.2391766 -0.21699445
-0.022931119 -1.1014917 -0.20147002
0.017132163 -1.0652732 -0.20524295
0.060597904 -1.1480817 -0.23273504
0.10747824 -1.1942936 -0.25531834
-0 -0 -0
0.015315044 -0.97994238 -0.22696793
0 -0 -0
0.10102537 -1.1182171 -0.28345853
-0.023536481 -1.035866 -0.2710515
0 -0 -0
0 -0 -0
0 -0 -0
-0.026893618 -1.125191 0.34771556
0.016387593 -1.139671 0.33852986
0.064978473 -1.2403549 0.35575497
0.10909163 -1.2135413 0.33632225
-0.1585892 -6.8143845 1.8199019
0.01846117 -1.3076911 0.33481839
0.06399522 -1.2393894 0.30512738
0.11343229 -1.2788453 0.30240494
-0.1869732 -8.0400429 1.8264089
0.017861437 -1.2528158 0.27139953
0.063055255 -1.2303588 0.2545689
0.11075903 -1.2589426 0.24847566
-0.22160283 -9.6230917 1.8135648
0.017097304 -1.2216564 0.21758747
0.063666962 -1.2547187 0.21143289
0.11280794 -1.2878958 0.20513375
-0 -0 0
0.017189924 -1.2743716 0.17902681
0.064201802 -1.2784851 0.16743696
0.11052139 -1.2748445 0.15516907
-0 -0 0
0.017311359 -1.2850372 0.1328304
0.062959522 -1.2638752 0.11872825
0.10988273 -1.274717 0.10806762
-0 -0 0
0.016645085 -1.2650867 0.084278211
0.063416213 -1.2793339 0.073295757
0.1113495 -1.2967581 0.061879467
-0.12860423 -5.4122543 0.21374907
0.016169135 -1.2763263 0.038195688
0.063445985 -1.2931709 0.026623297
0.11228695 -1.314133 0.014387772
-0.12716632 -5.3204589 0.015140466
0.01559729 -1.2678746 -0.0086530661
0.061814308 -1.2703323 -0.02046806
0.10813127 -1.2709892 -0.032711636
-0.12812105 -5.2454267 -0.17772783
0.01529763 -1.2817081 -0.05549388
0.060817305 -1.2657704 -0.066989392
0.1089123 -1.2838836 -0.08038792
-0.13164872 -5.2472863 -0.37053987
0.014479733 -1.2688525 -0.1016503
0.060937259 -1.2724365 -0.11416272
0.10703651 -1.2662319 -0.12621033
-0.044226434 -1.7433709 -0.18766561
0.013875859 -1.2642819 -0.14808051
0.059846178 -1.2565383 -0.15922992
0.10651539 -1.263746 -0.17320687
-0.03122117 -1.1921393 -0.17278373
0.012425006 -1.1927946 -0.18421671
0.060674373 -1.2843044 -0.21140014
0.10479982 -1.2457299 -0.21802531
-0 -0 -0
0.01050756 -1.0565212 -0.20354047
0.049945593 -1.0710865 -0.21706064
0.10071997 -1.2017531 -0.25677609
-0 -0 -0
0 -0 -0
0.046304278 -0.99523818 -0.24079464
0 -0 -0
-0 -0 -0
0 -0 -0
0 -0 -0
0 -0 -0
-0.030440392 -1.0132684 0.31318015
0.009038846 -1.0966141 0.32571754
0.056300938 -1.2176826 0.34914652
0.099633075 -1.190173 0.32967031
-0 -0 0
0.0095865605 -1.2012199 0.3075369
0.055992156 -1.2310281 0.30297858
0.10398234 -1.260116 0.29781958
-0.23641707 -8.0426435 1.8272946
0.01012635 -1.247038 0.27012932
0.056298915 -1.2483323 0.25821137
0.10663194 -1.3036062 0.25715685
-0.28141844 -9.6480732 1.8185639
0.0097402968 -1.239459 0.22074345
0.056713764 -1.2718332 0.2142542
0.10570483 -1.2984076 0.20670085
-0 -0 0
0.0093629211 -1.2734628 0.17888771
0.056268651 -1.2768737 0.16717757
0.10213931 -1.2685721 0.15432641
-0 -0 0
0.0092875715 -1.2662203 0.130877
0.055985138 -1.282142 0.12040969
0.1038873 -1.2982125 0.11000341
-0 -0 0
0.0089453915 -1.2741449 0.084876403
0.055738408 -1.2836887 0.073524274
0.10124824 -1.2705325 0.060597233
-0.1630054 -5.4513144 0.21532713
0.008396199 -1.2853972 0.038464881
0.05486707 -1.2785529 0.02631492
0.10327328 -1.3028356 0.014256876
-0.16062041 -5.3465667 0.01521728
0.0079099433 -1.2829459 -0.0087554296
0.053126715 -1.2497094 -0.020130144
0.100881 -1.2786049 -0.032891091
-0.16167799 -5.289495 -0.17925121
0.0073981686 -1.2757835 -0.055234358
0.053969231 -1.2880698 -0.068150744
0.10118901 -1.2865177 -0.080512457
-0.16449688 -5.2673178 -0.37201869
0.0067517711 -1.2798822 -0.10252866
0.051550101 -1.234971 -0.11077087
0.099731445 -1.2728173 -0.12680334
-0.060997415 -1.9358574 -0.20842224
0.0061325282 -1.2673228 -0.14842948
0.052916281 -1.2757152 -0.16161586
0.09829624 -1.2584491 -0.17239495
-0.0380877 -1.1780772 -0.17077629
0.0049197921 -1.1493644 -0.17750129
0.051942043 -1.2639482 -0.20799306
0.098072909 -1.2581353 -0.22008701
-0.038268708 -1.1561837 -0.21154352
0.0041032177 -1.0771865 -0.2075129
0.042341795 -1.0459106 -0.21190198
0.094706945 -1.2199011 -0.26052466
-0 -0 -0
0 -0 -0
0 -0 -0
0.081189357 -1.0410744 -0.26363111
-0 -0 -0
0 -0 -0
0 -0 -0
0 -0 -0
-0 -0 0
0.0024089199 -1.1436208 0.33966875
0.049598482 -1.2372167 0.35465357
0.094787546 -1.2224772 0.33845085
-0.24323016 -6.8408918 1.8276408
0.0024088253 -1.3058816 0.33432239
0.049086545 -1.247844 0.30703738
0.096026182 -1.2578186 0.29713178
-0.28652328 -8.0624819 1.8321669
0.0026063481 -1.3135353 0.28452492
0.047913998 -1.2300614 0.25436655
0.097225308 -1.2856458 0.25349146
-0.34016177 -9.6333971 1.8161569
0.0022417677 -1.3015194 0.23178938
0.048037533 -1.249493 0.21043712
0.095957607 -1.2753952 0.20293982
-0 -0 0
0.001556151 -1.279438 0.17972234
0.048620712 -1.2821492 0.16782606
0.094500773 -1.2711549 0.15456717
-0 -0 0
0.0015478265 -1.2911211 0.13344726
0.045951929 -1.2247556 0.11499172
0.093130879 -1.2610632 0.10680515
-0 -0 0
0.0011281002 -1.2751737 0.08494287
0.04689391 -1.2580669 0.072038934
0.093816683 -1.2761108 0.060834683
-0 -0 0
0.00049949257 -1.2614354 0.037747029
0.047388338 -1.2888565 0.026520506
0.095641777 -1.3084311 0.014311416
-0.19454427 -5.3764596 0.01530547
3.7433168e-05 -1.2709705 -0.0086735385
0.045675669 -1.2560071 -0.020226691
0.090423271 -1.2433064 -0.031968191
-0.19336075 -5.2674294 -0.17854029
-0.00043205189 -1.2817993 -0.05549388
0.045172729 -1.2634275 -0.066831023
0.092715956 -1.2791507 -0.080014318
-0.19826633 -5.3050847 -0.37476495
-0.0011092869 -1.2888708 -0.10324732
0.044254951 -1.2432271 -0.11148494
0.091059968 -1.2614949 -0.12561734
-0.073697485 -1.957305 -0.21077609
-0.0016849559 -1.2991194 -0.15215187
0.04526281 -1.2809732 -0.16224374
0.091212533 -1.2679228 -0.17361282
-0.04527748 -1.1768324 -0.1706329
-0.0021271661 -1.146408 -0.17704341
0.045081746 -1.289883 -0.21221134
0.08315704 -1.1584879 -0.20256251
-0 -0 -0
-0.0025246288 -1.0850469 -0.20902622
0.037134312 -1.0814142 -0.21904474
0.087498881 -1.2243617 -0.26135769
-0 -0 -0
-0.0025219237 -0.90699232 -0.21004686
0.033854891 -0.9889313 -0.23915017
0.072646901 -1.0115733 -0.25604284
-0 -0 -0
-0 -0 -0
0 -0 -0
0.057005685 -0.79338926 -0.23350582
-0.049054824 -1.1588706 0.35834184
-0 -0 0
0.042593174 -1.254792 0.3596099
0.086392723 -1.2105362 0.33499184
-0.2842344 -6.816103 1.8214496
-0 -0 0
0.041622289 -1.253945 0.30846992
0.088647239 -1.2632391 0.29827815
-0.33468872 -8.0293932 1.8250799
-0.032667663 -7.8684545 1.7043974
0.04097572 -1.2489291 0.25821137
0.08736328 -1.2578315 0.24789691
-0.39995676 -9.6478205 1.8193046
-0.034839168 -7.8937192 1.405815
0.04078377 -1.2625772 0.2125946
0.088130124 -1.27596 0.20293982
-0.50456768 -12.145651 1.8293276
-0.03902797 -7.9330201 1.114362
0.040374756 -1.2705308 0.1662697
0.086294197 -1.2657683 0.15384491
-0 -0 0
-0.039478876 -7.9963045 0.82648879
0.038998127 -1.2429271 0.11667316
0.087073639 -1.2864653 0.10890927
-0 -0 0
-0 -0 0
0.039297938 -1.2623225 0.07226745
0.086253345 -1.2806489 0.061024647
-0.28894091 -6.848567 0.27063835
-0.030666148 -5.3425207 0.15987153
0.039846417 -1.3011149 0.026767207
0.087544821 -1.3079957 0.014300509
-0.22706474 -5.3641748 0.015274177
-0.031887051 -5.2217813 -0.035635892
0.037907682 -1.254265 -0.02019451
0.084519014 -1.2697718 -0.032634728
-0.23072673 -5.3839679 -0.18253495
-0.033880021 -5.2339878 -0.2266036
0.038129013 -1.287637 -0.068097964
0.085195705 -1.2846749 -0.080325656
-0.23558468 -5.4133916 -0.38251096
-0 -0 -0
0.037212301 -1.2633868 -0.11327013
0.081679046 -1.2372063 -0.1231465
-0.078788519 -1.79888 -0.19376421
-0.012158802 -1.6357739 -0.19158572
0.036909923 -1.2643687 -0.16010897
0.085056692 -1.2931752 -0.17699575
-0.053379845 -1.1963061 -0.17350067
-0.0090981713 -1.1384673 -0.17582242
0.033188276 -1.1520475 -0.18949759
0 -0 -0
-0.049911574 -1.0996146 -0.20129015
-0 -0 -0
0 -0 -0
0.077371642 -1.1848596 -0.2528193
-0.045972519 -0.99181288 -0.22018842
-0 -0 -0
0 -0 -0
0.065994017 -1.0052276 -0.25432935
-0.03784433 -0.8001498 -0.20955241
-0 -0 -0
0 -0 -0
0 -0 -0
-0 -0 0
-0.01147908 -1.1291858 0.33539796
0 -0 0
0.072440594 -1.1110049 0.30731976
-0.32845303 -6.8644133 1.8348635
-0.074941434 -7.1868143 1.8400131
0.034452636 -1.2735913 0.313245
0.079961792 -1.2491885 0.29483908
-0.38362372 -8.0203695 1.8235297
-0 -0 0
0.033416089 -1.253073 0.25902084
0.079395808 -1.2544267 0.24712522
-0.4611097 -9.6864119 1.8270808
-0 -0 0
0.033319656 -1.2736475 0.21442017
0.080113299 -1.2735195 0.20246968
-0.57394791 -12.034662 1.8131074
-0 -0 0
0.033137228 -1.2925615 0.16912301
0.079570517 -1.2831179 0.15589134
-0 -0 0
-0 -0 0
0.031848155 -1.2620538 0.11844801
0.078750081 -1.2800134 0.10832012
-0 -0 0
-0 -0 0
0.032000691 -1.2805049 0.073295757
0.076868638 -1.2562289 0.059837397
-0.33341795 -6.8975663 0.27265039
-0.063304216 -5.3302383 0.15951261
0.031470627 -1.2853431 0.02643827
0.078728959 -1.2955329 0.014158703
-0.26070076 -5.3776631 0.015316851
-0.06452655 -5.2704825 -0.035970278
0.030210946 -1.2544739 -0.02019451
0.077449515 -1.2822409 -0.032942362
-0.26106739 -5.3275485 -0.18067303
-0.066573985 -5.2796345 -0.22859325
0.030368093 -1.2938366 -0.068414696
0.075933062 -1.2622596 -0.07889349
-0.26434267 -5.3221788 -0.37617335
-0 -0 -0
0.029761396 -1.276536 -0.1144305
0.075037502 -1.2535775 -0.12472784
-0.094685502 -1.8956788 -0.2042495
-0.023718318 -1.7478911 -0.20473033
0.028899707 -1.2536613 -0.15872763
0.076766551 -1.2877384 -0.17618385
-0.059414525 -1.1702578 -0.16977257
-0.01665592 -1.1789057 -0.18207999
0.025984649 -1.1463104 -0.18852413
0 -0 -0
-0.057417225 -1.1140234 -0.2039884
-0.016226666 -1.111444 -0.21413366
0.023147669 -1.0494524 -0.2124972
0.058147218 -0.98320365 -0.20971091
-0 -0 -0
-0 -0 -0
0 -0 -0
0 -0 -0
-0.044095732 -0.82502019 -0.21613255
-0 -0 -0
0 -0 -0
0 -0 -0
-0.062646821 -1.146733 0.35479972
-0 -0 0
0 -0 0
0.072042413 -1.2201656 0.33738652
-0.37718242 -6.9847918 1.8676244
-0.11918189 -7.1949372 1.8422453
0.026820105 -1.2825166 0.31539378
0.072913803 -1.2603449 0.29736105
-0.43482608 -8.0548677 1.8319453
-0.13691147 -8.3355408 1.8058019
0.02528457 -1.231714 0.2545689
0.072984599 -1.2774215 0.2515623
-0.51842576 -9.6441488 1.8196748
-0.16959968 -10.163645 1.8103068
0.025780436 -1.2876312 0.21674362
0.071794003 -1.2651126 0.2010593
-0.65091723 -12.089173 1.8218871
-0 -0 0
0.02503163 -1.2838184 0.16795576
0.071308412 -1.2766438 0.1550487
-0 -0 0
-0 -0 0
0.024350859 -1.2751663 0.11966238
0.068856426 -1.2436601 0.10520601
-0 -0 0
-0 -0 0
0.024105418 -1.2786808 0.073181495
0.071299747 -1.2955739 0.061689503
-0.73662633 -13.518398 0.53453046
-0.09683688 -5.3757215 0.16088849
0.023344917 -1.2725168 0.026171008
0.070396535 -1.2890023 0.014082346
-0.30307502 -5.5477052 0.01580617
-0.097176805 -5.286984 -0.036086287
0.023087107 -1.2866263 -0.020709429
0.068768159 -1.2677189 -0.032557823
-0.30828243 -5.5892944 -0.1896102
-0.099005409 -5.2811241 -0.22867975
0.022099875 -1.275028 -0.067411706
0.069155268 -1.2806406 -0.080014318
-0 -0 -0
-0 -0 -0
0.021534752 -1.2537898 -0.11237754
0.067130826 -1.2500396 -0.1243325
-0.10520156 -1.8752081 -0.20210965
-0.032505326 -1.6494038 -0.19321425
0.021676613 -1.2815894 -0.16224374
0.066906735 -1.2515779 -0.17117709
-0 -0 -0
-0.022787888 -1.1244367 -0.17368568
0.019195158 -1.1612475 -0.19095775
0.061504379 -1.1539201 -0.20153168
-0.067084625 -1.1627529 -0.21298259
-0.022679595 -1.0936522 -0.2107287
0.017144723 -1.0770146 -0.2180527
0.060289964 -1.1378613 -0.2426149
-0 -0 -0
-0 -0 -0
0 -0 -0
0.053395163 -1.0011207 -0.25310546
-0 -0 -0
-0 -0 -0
0 -0 -0
0 -0 -0
-0 -0 0
-0 -0 0
0.018176122 -1.1707753 0.33537892
0.060379624 -1.1416512 0.31556818
-0.41208506 -6.8502212 1.832284
-0.16238147 -7.1524243 1.8315808
0.018605936 -1.2593535 0.30966368
0.064927831 -1.2559081 0.2962147
-0.48394895 -8.0471811 1.830838
-0.18787843 -8.3267269 1.8041081
0.017810985 -1.2377213 0.25578305
0.064745449 -1.2700057 0.25001895
-0.5750643 -9.5986061 1.8117135
-0.23234136 -10.179145 1.8132875
0.017755983 -1.2788906 0.21524997
0.065028191 -1.285257 0.2041935
-0 -0 0
-0 -0 0
0.017087568 -1.2789904 0.16730727
0.064952157 -1.3068024 0.15866007
-0 -0 0
-0 -0 0
