# .PCD v0.7 - Point Cloud Data file format
VERSION 0.7
FIELDS x y z
SIZE 4 4 4
TYPE F F F
COUNT 1 1 1
WIDTH 1554
HEIGHT 1
VIEWPOINT 0 0 0 1 0 0 0
POINTS 1554
DATA ascii
0.2283375 -1.2178842 0.14010477
0 -0 0
0.70879114 -2.681731 0.26024935
0.81130064 -2.6736703 0.23599814
0.22875129 -1.2211503 0.09476795
0 -0 0
0.71263307 -2.6989365 0.15973106
0.79876512 -2.635504 0.13092992
0.22775072 -1.217923 0.04892005
0.26897138 -1.1955693 0.036670253
0.7054016 -2.6770375 0.056926571
0.81096876 -2.6798131 0.030542659
0.22867543 -1.2238138 0.0035418791
0 -0 -0
0.70311272 -2.6727049 -0.044476192
0.80890083 -2.676518 -0.071704112
0.22460984 -1.2055515 -0.041537534
0 -0 -0
0 -0 -0
0 -0 -0
0.21628249 -1.1651471 -0.083656669
0 -0 -0
0 -0 -0
0 -0 -0
0.20655479 -1.1144767 -0.12197195
0 -0 -0
0 -0 -0
0.24643908 -0.81774449 -0.116644
0.21797739 -1.1815161 -0.17407425
0 -0 -0
0.21074274 -0.80571294 -0.13693146
0.22643362 -0.75178897 -0.13693158
0.19087709 -1.0390946 -0.19319536
0 -0 -0
0.21378615 -0.8193928 -0.17142631
0.24176593 -0.8036083 -0.17868118
0.19353829 -1.0593029 -0.23880808
0.19162472 -0.86458188 -0.20508336
0.21144265 -0.81075817 -0.20250241
0.23602848 -0.78354603 -0.20659672
0 -0 -0
0.18438311 -0.83487427 -0.23234439
0.20088661 -0.77110869 -0.22498915
0.22197999 -0.73681599 -0.22590068
0.20570761 -1.1395799 0.35775146
0.26710972 -1.2123244 0.36870998
0.69573319 -2.6708894 0.79053599
0.81259364 -2.7019393 0.77880943
0.22027718 -1.2159216 0.32992977
0.26024696 -1.18265 0.31001705
0 -0 0
0.79969782 -2.6705475 0.65662456
0.21696413 -1.1975147 0.27638632
0.26250783 -1.192131 0.26441342
0.51959008 -2.0040007 0.42778906
0.78372359 -2.6240339 0.53842819
0.22189781 -1.2231635 0.23421742
0.29753205 -1.3528734 0.24669264
0.51206023 -1.9790816 0.34403485
0.77090782 -2.5847437 0.42797577
0.21647617 -1.193871 0.18259051
0.30537745 -1.3919042 0.20017061
0.67023897 -2.5960371 0.3506968
0.78529263 -2.6415563 0.33417326
0.22245441 -1.228062 0.14111595
0.26557991 -1.2106087 0.12810114
0.69381404 -2.6918144 0.26080981
0.78269035 -2.637521 0.23237906
0.2228523 -1.2313614 0.095452473
0.26025826 -1.188134 0.081021406
0.69605929 -2.7032583 0.15973106
0.78172737 -2.6374824 0.13078745
0.21441127 -1.1868485 0.047618147
0.24434492 -1.1181002 0.034247506
0.69344097 -2.6987455 0.057296626
0.79138911 -2.6741912 0.030422667
0.21405634 -1.1858302 0.0034280838
0.26620454 -1.2202719 -0.0085234065
0.69589245 -2.7128036 -0.045071568
0.78764629 -2.6651332 -0.071268305
0.21897872 -1.2167432 -0.041876063
0.24340624 -1.1177325 -0.049524933
0.275511 -1.0767593 -0.058754288
0 -0 -0
0.21705076 -1.2106359 -0.086825483
0 -0 -0
0 -0 -0
0 -0 -0
0.21074933 -1.1773814 -0.12871251
0 -0 -0
0 -0 -0
0 -0 -0
0.21193868 -1.1896516 -0.17507796
0 -0 -0
0 -0 -0
0.21875501 -0.74276918 -0.13504167
0.19257167 -1.0857692 -0.2016499
0.19398703 -0.89940077 -0.17724667
0.21068735 -0.82828814 -0.1730136
0.23489833 -0.79850841 -0.1772234
0.17957383 -1.018167 -0.22928174
0 -0 -0
0 -0 -0
0.22683305 -0.77009845 -0.2026802
0.16813931 -0.95861542 -0.25460112
0.1675223 -0.78126371 -0.21713449
0.19070274 -0.75087327 -0.21873945
0.21799706 -0.74000496 -0.22646402
0.19297305 -1.1078762 0.34742036
0.25645778 -1.1989421 0.36415449
0.67767555 -2.6685855 0.78860855
0.79844713 -2.7151978 0.78120416
0.2124795 -1.2153469 0.32941386
0.25339025 -1.1861194 0.31051308
0 -0 0
0.78821957 -2.692219 0.6607514
0.21313937 -1.2189958 0.28103706
0.25457516 -1.190852 0.2637783
0 -0 0
0 -0 0
0.21557477 -1.2312778 0.23551348
0.25551325 -1.1967727 0.21793813
0.48037389 -1.9047347 0.3305921
0.62094671 -2.1295674 0.35197127
0.20965798 -1.1980989 0.18303692
0.26506466 -1.2445942 0.17874861
0.6075964 -2.4145167 0.32566556
0.76380581 -2.6282127 0.33188605
0.21320386 -1.2196157 0.13999242
0.25193134 -1.1830289 0.12501684
0.68456173 -2.7249897 0.26361221
0.76760256 -2.646102 0.23271571
0.21615034 -1.2376168 0.095832765
0.25130296 -1.1819007 0.08048968
0.68359047 -2.7239399 0.16070224
0.7755363 -2.6767683 0.13249709
0.2133026 -1.2235793 0.049038406
0.23955384 -1.1293563 0.03454661
0.68342608 -2.729135 0.057851706
0.77691078 -2.6857209 0.030499026
0.21449812 -1.2314535 0.0035561034
0.24690536 -1.1661199 -0.0081344284
0.68093139 -2.7238126 -0.045184206
0.77349794 -2.6775992 -0.07147339
0.21338964 -1.2288954 -0.042248443
0.24707937 -1.1690561 -0.051730849
0.67260975 -2.6975274 -0.14696491
0 -0 -0
0.21199846 -1.225706 -0.087811336
0.23542421 -1.1167996 -0.091429375
0 -0 -0
0 -0 -0
0.20521286 -1.18845 -0.12978244
0 -0 -0
0 -0 -0
0.23995052 -0.83308434 -0.11840313
0.19809887 -1.1528901 -0.16948579
0 -0 -0
0 -0 -0
0.21909854 -0.76113784 -0.13813424
0.1855742 -1.0849911 -0.20129015
0.18162613 -0.8678959 -0.1708151
0.2119672 -0.85525137 -0.17837067
0.22999436 -0.79993469 -0.1772234
0.16874044 -0.99230075 -0.22321951
0.19055831 -0.91264355 -0.21591283
0 -0 -0
0 -0 -0
0.17451195 -1.0321258 -0.27383539
0.17510667 -0.84179795 -0.23365559
0.18932825 -0.76510799 -0.22254361
0.21132848 -0.73395228 -0.22421066
0.19756021 -1.176882 0.36867294
0.229231 -1.104754 0.33511323
0.66867733 -2.7025561 0.79741979
0.77618027 -2.7005906 0.77561659
0.20228899 -1.2004316 0.32502857
0.25397044 -1.225596 0.32043362
0 -0 0
0.77489865 -2.7082343 0.66350257
0.20711429 -1.2289352 0.28303024
0.24686655 -1.1904777 0.26335493
0.39193991 -1.5918251 0.33875066
0 -0 0
0.20932402 -1.2403295 0.2369947
0.24257497 -1.1713245 0.21302882
0.47220683 -1.9220113 0.33308151
0 -0 0
0.20213817 -1.1983877 0.18288812
0.25521934 -1.2355294 0.17721847
0.56396931 -2.3007081 0.30984271
0.74495316 -2.6233003 0.33068228
0.20571643 -1.2209009 0.13999242
0.24647851 -1.1933197 0.12594213
0.66688198 -2.7252703 0.26323858
0.76330829 -2.692944 0.23641896
0.20805585 -1.23597 0.095604584
0.25089803 -1.2166461 0.082749501
0.66662675 -2.7271132 0.1606451
0.77406156 -2.7343371 0.13510904
0.2031419 -1.2090986 0.048407182
0.24268983 -1.1797575 0.036042131
0.66737831 -2.7361913 0.057913382
0.77673483 -2.748172 0.031153511
0.20544808 -1.2238708 0.0035304998
0.24316475 -1.1842653 -0.0082504395
0.66349596 -2.7250249 -0.045135934
0.76492864 -2.7101953 -0.072216839
0.20502055 -1.225253 -0.042079177
0.23207864 -1.1323799 -0.05004397
0.66193658 -2.7258637 -0.14828463
0 -0 -0
0.20004641 -1.200417 -0.085910045
0.22677061 -1.1094335 -0.090710714
0 -0 -0
0 -0 -0
0.19449039 -1.1690904 -0.12753558
0 -0 -0
0 -0 -0
0 -0 -0
0.19877833 -1.2009501 -0.17636846
0 -0 -0
0 -0 -0
0 -0 -0
0.17891334 -1.0861093 -0.20129015
0.19679709 -0.97003973 -0.19067731
0.20556578 -0.85177207 -0.17737862
0.22508173 -0.8013308 -0.1772234
0.16548826 -1.0106596 -0.22711666
0.18244241 -0.90138251 -0.21297985
0 -0 -0
0 -0 -0
0.1616476 -0.99307245 -0.26320592
0.17604148 -0.87312746 -0.24204727
0.18440464 -0.76531965 -0.22227187
0.20812018 -0.73985344 -0.22561902
0.19231634 -1.1903338 0.37251022
0.23945767 -1.1907214 0.36073789
0 -0 0
0.76324332 -2.7182951 0.77934164
0.19878691 -1.2254924 0.33147752
0.23805268 -1.1853403 0.30952102
0.3049632 -1.2700008 0.32112387
0.7621969 -2.7269995 0.66694164
0.20144369 -1.2417339 0.2856878
0.24090527 -1.1986773 0.26483682
0.38079554 -1.5884861 0.33753651
0.47710925 -1.7117325 0.34937066
0.19981851 -1.2299505 0.23477286
0.24526359 -1.2220192 0.22197077
0.40190783 -1.6803071 0.29076171
0.52035487 -1.869661 0.30793571
0.19430573 -1.1966773 0.1824417
0.24219099 -1.2098837 0.17332356
0.45731923 -1.9164072 0.25770509
0.7320267 -2.6393011 0.3321268
0.20044847 -1.2358721 0.14156537
0.23661387 -1.18213 0.1246056
0.63791978 -2.677979 0.25828767
0.73480719 -2.654362 0.23263155
0.20126557 -1.2421446 0.095984876
0.23971316 -1.1995723 0.081486665
1.813288 -7.6204195 0.44822955
0.74103278 -2.6803074 0.13221215
0.1960382 -1.2122951 0.048486084
0.23075704 -1.157698 0.035324283
0.64110798 -2.7003517 0.057070479
0.74655491 -2.7046914 0.030608106
0.20192209 -1.2497882 0.0036016218
0.23550341 -1.1837734 -0.008236791
1.2238923 -5.1642675 -0.085412309
0.73978454 -2.6839983 -0.071396478
0.19829312 -1.2314215 -0.042248443
0.2426381 -1.2219766 -0.053936761
0.70974135 -3.0029585 -0.16311838
0 -0 -0
0.19820465 -1.2360947 -0.088374682
0.2104713 -1.0628909 -0.086798012
0 -0 -0
0 -0 -0
0.19375615 -1.2105139 -0.13192229
0.19654487 -0.99483949 -0.11876686
0 -0 -0
0.21999581 -0.80061674 -0.11339637
0.18844904 -1.1835775 -0.17364407
0.2022752 -1.0268602 -0.16162841
0 -0 -0
0.21965489 -0.79986781 -0.14466298
0.1742468 -1.099817 -0.20362864
0.2054195 -1.0454202 -0.20524295
0.19966327 -0.85015488 -0.17678338
0.22300641 -0.8130725 -0.1795142
0.18023826 -1.1447432 -0.25699472
0.19208781 -0.97992283 -0.23125461
0 -0 -0
0 -0 -0
0.15300851 -0.97779667 -0.2589035
0.17604342 -0.90165764 -0.24965221
0.17750837 -0.75706708 -0.21955462
0.20459323 -0.7448175 -0.22674571
0.18662156 -1.2018769 0.3757571
0.21712252 -1.1150113 0.33739099
0 -0 0
0.72921777 -2.6597111 0.76124835
0.19260328 -1.2352806 0.33379915
0.23022033 -1.1839259 0.30877697
0.29429266 -1.2595551 0.31802005
0.74109364 -2.7156615 0.6630441
0.19652523 -1.26029 0.28967413
0.22999874 -1.1819055 0.26081452
0.36903957 -1.5822092 0.33571526
0.48205602 -1.7714349 0.36094561
0.19302607 -1.2360082 0.23569861
0.2377608 -1.2235011 0.22197077
0.38086161 -1.6366391 0.28279564
0.52208042 -1.9214259 0.31592792
0.18772188 -1.2027322 0.18318574
0.23269017 -1.2006528 0.1717934
0 -0 0
0.70959169 -2.6207457 0.3292377
0.19071861 -1.2233335 0.13999242
0.22632821 -1.1679351 0.12296065
0 -0 0
0.72812468 -2.6944127 0.23574565
0.19563484 -1.2561642 0.096973628
0.23613855 -1.220613 0.082815968
1.7626685 -7.6148677 0.44725838
0.72223037 -2.6761243 0.13178474
0.19089782 -1.2282857 0.049077861
0.23160283 -1.200313 0.036580522
1.6866275 -7.3031874 0.1541273
0.72005993 -2.6725318 0.030193599
0.18795885 -1.2104893 0.0034849816
0.23126097 -1.2009071 -0.0083459783
1.1928558 -5.174603 -0.085460588
0.72096449 -2.6797988 -0.071165755
0.1852316 -1.1970588 -0.041029736
0.23570129 -1.2263856 -0.054066516
0.24296252 -1.0569195 -0.057328984
0.26009542 -0.96770769 -0.062517025
0.1894013 -1.2294005 -0.087811336
0.22364593 -1.1669563 -0.095182367
0 -0 -0
0 -0 -0
0.18980058 -1.2342824 -0.13438313
0.22195883 -1.1608931 -0.13842562
0 -0 -0
0.22483218 -0.83831692 -0.11853844
0.18567163 -1.2140603 -0.17794573
0.21336564 -1.1193377 -0.17597504
0.19099526 -0.83392072 -0.14066301
0.22239402 -0.82974678 -0.14981723
0.17045444 -1.1203154 -0.20722632
0.19111438 -1.0051804 -0.19710889
0.20295404 -0.88862908 -0.18452138
0.21978369 -0.82103914 -0.18097197
0.17058425 -1.1284519 -0.25309759
0.18643457 -0.9829973 -0.23170583
0.19296308 -0.84529167 -0.20955005
0 -0 -0
0 -0 -0
0.16674645 -0.88280791 -0.24414518
0.1773524 -0.77784622 -0.22526087
0.20548561 -0.76644796 -0.23294248
0.18290438 -1.2275697 0.38343164
0.22127868 -1.1747293 0.35504353
0 -0 0
0.72085792 -2.6939337 0.76976281
0.17758499 -1.1867523 0.32038531
0.22653313 -1.2043575 0.31373727
0.27580196 -1.2139897 0.30608237
0 -0 0
0.18532452 -1.2383258 0.28435901
0.22093438 -1.1736897 0.25869751
0.35325983 -1.5577022 0.33004919
0.47722161 -1.7971197 0.36557558
0.18689515 -1.2468879 0.23755015
0.22533855 -1.1988127 0.2172368
0 -0 0
0.52040553 -1.9627795 0.32219633
0.18151051 -1.2116851 0.18437622
0.22185229 -1.1835649 0.16915044
0 -0 0
0.62351406 -2.3601458 0.296013
0.18894325 -1.2628071 0.14437421
0.22923595 -1.2230741 0.12861519
0 -0 0
0.70878392 -2.688231 0.23481984
0.18674435 -1.2494516 0.096365161
0.22515804 -1.2034044 0.081553131
1.7246783 -7.6645002 0.44954351
0.70808548 -2.6891992 0.13221215
0.18099931 -1.2136211 0.048446633
0.22276671 -1.1938506 0.036341235
1.6404703 -7.3075457 0.15400395
0.70415652 -2.678834 0.030215416
0.18259108 -1.225467 0.0035248101
0.2290138 -1.2298297 -0.008537055
0 -0 -0
0.70146263 -2.6725693 -0.070858121
0.17979109 -1.2110245 -0.041469827
0.2276243 -1.2248621 -0.053936761
0.25802973 -1.1548735 -0.062555104
0 -0 -0
0.18185428 -1.2305394 -0.087811336
0.22011365 -1.187909 -0.096779384
0.2211511 -0.99054551 -0.090955295
0 -0 -0
0.18062767 -1.2246039 -0.1332062
0.21392889 -1.1573498 -0.13784401
0 -0 -0
0 -0 -0
0.18338872 -1.2504276 -0.18310775
0.20416532 -1.107991 -0.17399095
0 -0 -0
0 -0 -0
0.16258316 -1.1145266 -0.20596713
0.18973529 -1.0324099 -0.20221631
0.19367516 -0.87263459 -0.18095
0.21400042 -0.81953329 -0.1803472
0.16127703 -1.1130521 -0.24941696
0.19691125 -1.0741982 -0.25291356
0.19156198 -0.86354083 -0.21377864
0 -0 -0
0 -0 -0
0.18160063 -0.99488461 -0.27482724
0.17902967 -0.80804706 -0.23368436
0.20442061 -0.78161877 -0.23716755
0.17361367 -1.2163726 0.37959439
0.21749982 -1.1949273 0.36073789
0.256372 -1.1572796 0.33950919
0.70163667 -2.6880465 0.76683599
0.17948674 -1.2518967 0.33766854
0.21706027 -1.1942871 0.31076109
0.26834786 -1.2156591 0.30608237
0.39717057 -1.5290272 0.37210253
0.17730756 -1.2365438 0.28369462
0.21915051 -1.2048316 0.26526022
0.26551569 -1.205027 0.25497362
0.48193023 -1.8608061 0.37792221
0.17979969 -1.2519021 0.23829076
0.21903411 -1.2059847 0.21828879
0.25214311 -1.1470991 0.19765823
0.51552272 -1.9936655 0.32674092
0.18011358 -1.2548658 0.19077508
0.21635057 -1.1946481 0.17054148
0.26757845 -1.2203677 0.16341642
0.61446953 -2.3850765 0.29866135
0.17597407 -1.227549 0.14021713
0.22332215 -1.2332667 0.12954049
0.25456369 -1.1632419 0.11172227
0.69153148 -2.6896343 0.23456734
0.18006369 -1.2574832 0.096897565
0.2218519 -1.2273464 0.083081827
0.26734427 -1.2230744 0.071639031
0.69902378 -2.722518 0.13363685
0.17510386 -1.2255899 0.048880603
0.21525989 -1.1942115 0.036311328
0.25773293 -1.1819708 0.024875822
0.68919581 -2.6889157 0.030280862
0.17634 -1.2354739 0.0035504138
0.22110935 -1.2292434 -0.0085234065
0.25898051 -1.1899871 -0.019599132
0.69446898 -2.7136245 -0.071832292
0.17446749 -1.2269471 -0.041977618
0.21992789 -1.2252524 -0.053893507
0.25178573 -1.1603385 -0.062766261
0 -0 -0
0.17527884 -1.2385459 -0.088304259
0.21422538 -1.1970869 -0.097418196
0 -0 -0
0 -0 -0
0.17213693 -1.2187978 -0.13245726
0.20804524 -1.1654849 -0.13865827
0 -0 -0
0 -0 -0
0.17130964 -1.2201675 -0.17851929
0.20342235 -1.1432779 -0.17933276
0.17616095 -0.81498325 -0.13709371
0.21122162 -0.82859504 -0.14913
0.15791777 -1.1310909 -0.20884526
0.19420522 -1.0944657 -0.21413366
0.19327284 -0.89680141 -0.18571185
0.21693081 -0.85210973 -0.18721956
0.15404223 -1.1111196 -0.24876744
0.17181104 -0.9708215 -0.22832163
0.19976874 -0.92741454 -0.22928348
0 -0 -0
0.13089411 -0.95073694 -0.25105795
0 -0 -0
0.16900811 -0.78560913 -0.22689122
0.19464217 -0.76333332 -0.23125245
0.16666368 -1.2212018 0.38077509
0.20601691 -1.1726356 0.35361993
0.26220462 -1.218981 0.35713172
0.68489218 -2.6913667 0.76656985
0.16891444 -1.2319162 0.33199346
0.21491697 -1.2251762 0.3184495
0.25477874 -1.1887972 0.29891977
0 -0 0
0.17249919 -1.2578971 0.28834537
0.21023272 -1.1974901 0.26335493
0.2544294 -1.1893959 0.25133115
0.41069981 -1.6268377 0.32988614
0.17318465 -1.2607703 0.23977198
0.21655974 -1.235428 0.22337344
0.26197496 -1.227707 0.21126692
0.47793508 -1.8962333 0.31028637
0.1694518 -1.2343944 0.18750125
0.20850483 -1.1930267 0.17012416
0.26029179 -1.2229562 0.1635461
0.598131 -2.3820622 0.29781869
0.16924846 -1.2345123 0.14089124
0.21403845 -1.2248151 0.12851237
0.23769827 -1.1190088 0.10733183
0.67792159 -2.7054255 0.23557732
0.16720396 -1.2210249 0.094007373
0.21225943 -1.2168891 0.082284249
0.25693372 -1.2110189 0.070839234
0.67818362 -2.7102828 0.13282952
0.17150286 -1.2553519 0.050024696
0.21409419 -1.2309613 0.037388101
0.25358072 -1.1982019 0.025184199
0.68358839 -2.7367501 0.030771727
0.16835028 -1.2335602 0.0035418791
0.21014294 -1.2108719 -0.008386923
0.2529138 -1.1974235 -0.019695681
0.68482059 -2.7459633 -0.072575741
0.17151308 -1.2616653 -0.043128621
0.21104197 -1.2187034 -0.053547479
0.2586537 -1.2283095 -0.066355921
0 -0 -0
0.16353086 -1.2089541 -0.086121298
0.20975888 -1.2150778 -0.09877567
0 -0 -0
0 -0 -0
0.16798031 -1.2444642 -0.13513207
0.20341802 -1.1814216 -0.14040312
0 -0 -0
0 -0 -0
0.16526702 -1.2319854 -0.18009657
0.1867087 -1.0880098 -0.17048059
0.20295776 -0.96766979 -0.16256557
0 -0 -0
0.15162475 -1.1369139 -0.20974468
0.18582982 -1.085958 -0.21224202
0.18676351 -0.89317364 -0.18471979
0.21216923 -0.85532331 -0.18763606
0.15042488 -1.1362398 -0.25418013
0.16601484 -0.97281772 -0.22854722
0.18771137 -0.89817613 -0.22176598
0 -0 -0
0.13476515 -1.0253803 -0.2705453
0.1654993 -0.97420526 -0.26853347
0.17971814 -0.86105514 -0.24835758
0.18949205 -0.76265091 -0.23068911
0.15645289 -1.2013576 0.37428123
0.20362024 -1.2022321 0.36216146
0.24922119 -1.194217 0.34942186
0.29903609 -1.206013 0.34297416
0.16561498 -1.265501 0.34076408
0.20481102 -1.2111887 0.31448129
0.2462936 -1.1846336 0.29748723
0.37324819 -1.5129954 0.36705863
0.16401829 -1.2531303 0.28701657
0.20614284 -1.2180301 0.26758891
0.24832045 -1.1966879 0.2525453
0.35290599 -1.4349512 0.29053131
0.16314581 -1.2442706 0.23643924
0.20536655 -1.2153771 0.21951613
0.23764771 -1.1481755 0.19732629
0.45333847 -1.8463765 0.30166727
0.16110367 -1.229528 0.18660839
0.20118062 -1.1942836 0.17012416
0.25639129 -1.2420098 0.16588062
0.56581461 -2.3133645 0.28879023
0.1619283 -1.2374982 0.14111595
0.20536259 -1.2192392 0.1277927
0.24770282 -1.2023586 0.11517855
0.66839665 -2.7385755 0.23810227
0.1629391 -1.2467451 0.095908813
0.20710461 -1.2319444 0.083214767
0.25311995 -1.2301745 0.07186754
0.66130435 -2.7134228 0.13278203
0.162376 -1.2454815 0.049590733
0.20339777 -1.2135216 0.036819804
0.24562091 -1.1967971 0.025122523
0.65756494 -2.7030005 0.030346312
0.16297351 -1.2514275 0.0035902425
0.20336896 -1.2160836 -0.0084142201
0.24094748 -1.1764234 -0.019325582
0.66843069 -2.7520566 -0.072627015
0.15772673 -1.2161111 -0.041537534
0.20191592 -1.210121 -0.053114951
0.25111207 -1.2298735 -0.066355921
0 -0 -0
0.16108793 -1.2485181 -0.088867605
0.2037712 -1.2251916 -0.099494323
0 -0 -0
0 -0 -0
0.16224557 -1.2602633 -0.13673697
0.20055325 -1.2091029 -0.14354388
0 -0 -0
0 -0 -0
0.16197366 -1.2663531 -0.18497181
0.18663734 -1.1291122 -0.17673817
0.18050008 -0.88767195 -0.14893731
0 -0 -0
0.15593477 -1.2266238 -0.22611414
0.18203728 -1.1045176 -0.21564698
0 -0 -0
0.20530951 -0.84995395 -0.1861783
0.1471159 -1.1661996 -0.26067537
0.17568351 -1.0689889 -0.25088304
0.18817988 -0.92884344 -0.22904854
0.20587187 -0.8509804 -0.22103891
0.13255708 -1.0588262 -0.27915013
0.16372462 -1.0009156 -0.27561393
0.18111096 -0.89515585 -0.25786799
0.18548588 -0.76659703 -0.23153411
0.15166509 -1.223155 0.38077509
0.19886234 -1.2195427 0.36700165
0.23293006 -1.1514376 0.33648032
0 -0 0
0.15593505 -1.2511536 0.33663672
0.19581887 -1.2028608 0.31200114
0.24765255 -1.22896 0.30823115
0.31076208 -1.2937891 0.31340986
0.156688 -1.2570162 0.28768095
0.20086569 -1.2327768 0.27055272
0.23807673 -1.1837877 0.2495099
0.40509948 -1.6918725 0.34203985
0.15843068 -1.2686515 0.2408829
0.19869563 -1.221473 0.22039279
0.24650149 -1.2288957 0.210935
0 -0 0
0.15612791 -1.2510997 0.18973342
0.19210531 -1.1847428 0.168594
0.24137464 -1.2066126 0.1609522
0 -0 0
0.1543321 -1.2384684 0.14111595
0.20137988 -1.2420778 0.13005453
0.2475322 -1.2399814 0.11863484
0 -0 0
0.15356211 -1.233869 0.094844013
0.19731034 -1.2194023 0.082284249
0.23971087 -1.2023315 0.070153691
0.64279819 -2.7096541 0.13240211
0.15386914 -1.2395129 0.049314566
0.19865392 -1.2315223 0.037328281
0.23924781 -1.2031847 0.025225319
1.7275243 -7.2958193 0.081788875
0.15615319 -1.2593508 0.0036101565
0.19828664 -1.2321177 -0.0085165827
0.23800592 -1.1994561 -0.019679589
1.23085 -5.2067351 -0.13720429
0.15614006 -1.2646669 -0.043162473
0.1989215 -1.2389573 -0.054326039
0.23716679 -1.1990634 -0.064613879
0.24175733 -1.0237979 -0.065630414
0.15403201 -1.2544334 -0.089219697
0.19561973 -1.2224817 -0.099174924
0.22651367 -1.1461494 -0.10470124
0 -0 -0
0.15378428 -1.2553138 -0.13609502
0.19438262 -1.2181572 -0.14447448
0.21437311 -1.0862138 -0.14014243
0 -0 -0
0.15443948 -1.2692879 -0.18525858
0.18187833 -1.1439004 -0.17887489
0.19526277 -0.99138677 -0.16613486
0.19254816 -0.81795877 -0.14655286
0.14958604 -1.2373233 -0.22791298
0.17541039 -1.1065835 -0.21583612
0.19769162 -1.0069623 -0.20773536
0.20143332 -0.85691047 -0.18742782
0.13937624 -1.1622336 -0.25959283
0.17550866 -1.1104621 -0.26035884
0.18509725 -0.94333416 -0.23233745
0 -0 -0
0.1339435 -1.1259059 -0.29661283
0.14978351 -0.95233077 -0.26197749
0.18024129 -0.91986066 -0.26466113
0.18187827 -0.77239054 -0.23294248
0.14382185 -1.221216 0.37988958
0.18736698 -1.1951699 0.35931429
0.24083173 -1.2292614 0.35878384
0.26789755 -1.1401505 0.32328442
0.14859599 -1.2549652 0.3374106
0.19053163 -1.2174393 0.31547335
0.22931997 -1.1751765 0.29438344
0.31433669 -1.3449583 0.32533178
0.14782532 -1.2482699 0.28546634
0.19178522 -1.2243303 0.26843572
0.23099586 -1.1861875 0.24971227
0.39426547 -1.692415 0.341654
0.15110655 -1.2735031 0.24162349
0.19195761 -1.2275326 0.22126946
0.2340683 -1.2052158 0.20662004
0 -0 0
0.14786622 -1.2471242 0.18898936
0.19489738 -1.250478 0.17777489
0.23886825 -1.233381 0.16432428
0 -0 0
0.14836563 -1.253207 0.1426889
0.19038519 -1.2216675 0.1277927
0.23406287 -1.2111731 0.11573903
0.27664691 -1.1970741 0.10377522
0.15008585 -1.2694452 0.097506031
0.19043785 -1.2245338 0.082550116
0.23422091 -1.2135825 0.070724979
0.2874766 -1.2458179 0.060787197
0.14649476 -1.2424185 0.049393475
0.18971564 -1.2238283 0.037059091
0.23526207 -1.2223018 0.025595371
1.6753196 -7.2741256 0.081428908
0.14900781 -1.2652508 0.0036243808
0.18445705 -1.1927937 -0.008236791
0.22969878 -1.1959844 -0.019599132
1.1887987 -5.1703482 -0.13605067
0.14709714 -1.2546823 -0.042790089
0.19024941 -1.2332428 -0.054023266
0.23093149 -1.2063808 -0.06493061
0 -0 -0
0.14817996 -1.2712079 -0.090346389
0.18917526 -1.2305555 -0.099733874
0.21928965 -1.1465393 -0.10461197
0 -0 -0
0.14814608 -1.2740107 -0.13802089
0.18660352 -1.2173634 -0.14424182
0.21477656 -1.1245385 -0.1449143
0.19824889 -0.86533988 -0.1212448
0.14460528 -1.2525152 -0.18267757
0.17336412 -1.1352253 -0.17734866
0.19656575 -1.0313383 -0.1726245
0.19631934 -0.85753632 -0.15342522
0.14031012 -1.2235585 -0.22521472
0.17172059 -1.1280249 -0.21980858
0.19699666 -1.0370433 -0.21368766
0.20445442 -0.89436245 -0.19534142
0.13455845 -1.1834376 -0.26413947
0.15597403 -1.0277208 -0.24073039
0.19217788 -1.0122541 -0.24901688
0 -0 -0
0.12150469 -1.0776775 -0.28370562
0.14508994 -0.96086538 -0.2640754
0.17405598 -0.9181127 -0.26384598
0.17734975 -0.77442729 -0.23322415
0.13494888 -1.2097312 0.37605229
0.1810286 -1.2029326 0.36130732
0.23310554 -1.2297714 0.3585085
0.29289141 -1.2817928 0.36293
0.14358577 -1.2798566 0.34385958
0.1855045 -1.2348715 0.31968957
0.22372612 -1.1851496 0.29653224
0.28580248 -1.2576405 0.30378056
0.14168563 -1.2627207 0.28856683
0.18906492 -1.2573776 0.27542183
0.22335063 -1.1856579 0.24930756
0.29110232 -1.2852172 0.25908601
0.14427784 -1.2831953 0.24328986
0.18792921 -1.2520537 0.22547741
0.22284552 -1.1862767 0.20313489
0.34979591 -1.5471063 0.25167671
0.14363371 -1.2784712 0.19360249
0.18224008 -1.2183514 0.17304535
0.21796942 -1.1636773 0.15485649
0 -0 0
0.14078407 -1.2550812 0.14280125
0.18303274 -1.2237965 0.12789552
0.22827303 -1.2213945 0.11657975
0.28655079 -1.2755544 0.11042424
0.14018497 -1.2515149 0.096060924
0.18778087 -1.2582457 0.08474347
0.2282355 -1.2228482 0.071182005
0.27020794 -1.2046735 0.058697633
0.14153068 -1.267127 0.05034031
0.18161456 -1.2210146 0.036939446
0.22062318 -1.1853889 0.024793589
0.26496777 -1.1836326 0.013231516
0.14290455 -1.2810488 0.003667054
0.1812439 -1.2215992 -0.0084278677
0.22326882 -1.2022865 -0.019679589
0.27667204 -1.238045 -0.032532185
0.14259395 -1.2843677 -0.043771826
0.18238628 -1.2324103 -0.053936761
0.22806814 -1.2323234 -0.066250347
0.24939694 -1.1172776 -0.07142134
0.13972071 -1.2661442 -0.089923881
0.18234822 -1.2366239 -0.10013313
0.21877012 -1.1831219 -0.10782531
0 -0 -0
0.14032611 -1.2748957 -0.13802089
0.18216406 -1.2391211 -0.14668463
0.22048174 -1.1941268 -0.15370461
0 -0 -0
0.13981898 -1.2799419 -0.18654908
0.16839999 -1.1499575 -0.17948538
0.1998886 -1.0849276 -0.18138552
0.18591918 -0.83564591 -0.1493018
0.13269378 -1.2234185 -0.22503482
0.16848329 -1.1543204 -0.22472684
0.20337383 -1.107641 -0.22797319
0.19811441 -0.89178091 -0.19450842
0.12854657 -1.1958892 -0.26673761
0.16747905 -1.1510949 -0.2693834
0.18561231 -1.0115021 -0.24854705
0 -0 -0
0.12431886 -1.1669068 -0.30698922
0.1418177 -0.97988349 -0.26905796
0.1706741 -0.93146938 -0.26737839
0.18093251 -0.81296474 -0.24449101
0.12862463 -1.2209885 0.37929922
0.1765177 -1.2239454 0.36728638
0.21758649 -1.1876806 0.3458423
0.26119956 -1.1762882 0.33259714
0.13379538 -1.2624587 0.33895832
0.17847611 -1.2398221 0.32068163
0.2155786 -1.1817235 0.29533848
0 -0 0
0.13455179 -1.2693846 0.28989559
0.17800088 -1.2352978 0.27034101
0.21642213 -1.1889329 0.24971227
0 -0 0
0.13567494 -1.2772158 0.2419938
0.17673928 -1.2288213 0.22109412
0.21661913 -1.1934433 0.20413065
0.2621088 -1.1932687 0.19385062
0.13526459 -1.2744117 0.19285841
0.17391808 -1.213565 0.17221072
0.2164754 -1.1962155 0.15900676
0 -0 0
0.13486038 -1.2727197 0.14471127
0 -0 0
0 -0 0
0 -0 0
0.13607018 -1.2860649 0.098646894
0 -0 0
0 -0 0
0 -0 0
0.13742185 -1.3027515 0.051721122
0 -0 0
0 -0 0
0 -0 0
0.14080355 -1.3365986 0.0038235229
0 -0 -0
0 -0 -0
0 -0 -0
0.13773188 -1.3140438 -0.044753559
0 -0 -0
0 -0 -0
0 -0 -0
0.13566895 -1.302695 -0.092458926
0 -0 -0
0 -0 -0
0 -0 -0
0.1343497 -1.2935337 -0.13994676
0 -0 -0
0 -0 -0
0 -0 -0
0.13317995 -1.2925892 -0.18826975
0.16408472 -1.1705437 -0.18253787
0.19547468 -1.0987631 -0.18349466
0 -0 -0
0.12798643 -1.25161 -0.23007157
0.16655988 -1.1922874 -0.23191507
0.19452067 -1.0972872 -0.22559227
0.19181381 -0.88915545 -0.19367541
0.12268203 -1.2112252 -0.2699852
0.16229381 -1.1656096 -0.272542
0.17736754 -1.0011367 -0.24572797
0.20683831 -0.95718068 -0.24723065
0.11773603 -1.1734234 -0.30850771
0.13434662 -0.97022057 -0.26617333
0.16260858 -0.91923183 -0.26357424
0.16823837 -0.77842104 -0.23378749
0.12094184 -1.2198533 0.3787089
0.16717023 -1.2117108 0.36330032
0.21849911 -1.2353793 0.35933456
0.25418025 -1.1788111 0.33286321
0.1269099 -1.2719084 0.34127998
0.17231894 -1.2514505 0.32340977
0.21219707 -1.2050204 0.3008298
0.25932983 -1.2096591 0.29140007
0.12685731 -1.2711568 0.29011706
0.17282002 -1.253794 0.27415162
0.21420692 -1.2191745 0.25578305
0.25460431 -1.1917769 0.23960152
0.12822677 -1.2819357 0.24273442
0.17268461 -1.255241 0.22565275
0.21694927 -1.2384604 0.21159886
0.25292838 -1.186161 0.19244023
0.12704906 -1.2712818 0.19226319
0.17009909 -1.2410992 0.17596653
0.21629584 -1.2385455 0.16445397
0.2595599 -1.2225957 0.15155768
0.12714721 -1.2745119 0.14482361
0.16975673 -1.2387619 0.12923205
0.21429278 -1.2299891 0.11714023
0.25621751 -1.2097621 0.10444853
0.1266941 -1.2719927 0.097506031
0.17300192 -1.2653983 0.085075796
0.21235649 -1.220639 0.070896365
0.25953713 -1.2274441 0.059647433
0.12794487 -1.288655 0.051129341
0.16715682 -1.227113 0.037059091
0.21323623 -1.2293804 0.025657047
0.26095173 -1.2366933 0.013787828
0.13102111 -1.3215156 0.0037780046
0.16879688 -1.2425581 -0.0085575273
0.21122581 -1.2206995 -0.01993705
0.25939813 -1.2315649 -0.032275822
0.12750864 -1.2929829 -0.044008795
0.16939491 -1.250396 -0.054628812
0.21055315 -1.2212521 -0.065511294
0.25744665 -1.2237822 -0.078021735
0.12660359 -1.2925825 -0.091684327
0.16742581 -1.2407441 -0.10029283
0.20727816 -1.2033855 -0.10943198
0 -0 -0
0.12525047 -1.2824589 -0.13866284
0.16562052 -1.2314197 -0.14552139
0.20547506 -1.194787 -0.15345344
0 -0 -0
0.12372003 -1.277621 -0.18597552
0.16083491 -1.2009145 -0.18711656
0.19223338 -1.1203653 -0.18690172
0 -0 -0
0.11842306 -1.2327882 -0.2264739
0.14885007 -1.1154215 -0.21678194
0.1915828 -1.1206805 -0.23015571
0.19216549 -0.91807818 -0.19971475
0.11450843 -1.2041799 -0.26825315
0.15244175 -1.1463034 -0.26780412
0.16925704 -0.99070853 -0.24290892
0 -0 -0
0.10382381 -1.1028479 -0.2897796
0.12156027 -0.91936606 -0.25201237
0.16505621 -0.96764594 -0.27716056
0.16936705 -0.80761117 -0.24223763
0.11327782 -1.2186695 0.37811852
0.16160989 -1.2269697 0.36757109
0.20946026 -1.2281678 0.35685638
0.25207472 -1.2048801 0.33978125
0.11766282 -1.2572719 0.33715263
0.16488947 -1.2544054 0.32390583
0.20447411 -1.2043848 0.30035228
0.24932611 -1.1988388 0.28841957
0.11850995 -1.2660856 0.28878829
0.16295598 -1.2383581 0.27055272
0.20165224 -1.1905336 0.2495099
0.24111468 -1.1635318 0.23362114
0.1197159 -1.2758493 0.24143833
0.1633129 -1.2435873 0.22337344
0.20589808 -1.2193485 0.20811369
0.24284497 -1.1741503 0.19024628
0.11776949 -1.2562847 0.1898822
0.16248065 -1.2421196 0.17596653
0.1976651 -1.1743369 0.15576437
0.24724847 -1.2008293 0.14866857
0.11960228 -1.2782363 0.14516068
0.16189463 -1.2378076 0.12902643
0.20426869 -1.2165525 0.11573903
0.24357738 -1.1859334 0.10226025
0.11851597 -1.268775 0.097201802
0.16665429 -1.2773193 0.085806914
0.2096501 -1.2504731 0.072553091
0.24939251 -1.2162927 0.059030063
0.11994281 -1.288421 0.051089894
0.16026841 -1.2330717 0.037208643
0.20288703 -1.2139018 0.025307551
0.24373738 -1.1912482 0.01326424
0.12374295 -1.3312559 0.0038036085
0.15962723 -1.2316703 -0.008475638
0.20225185 -1.2130963 -0.019792227
0.24743588 -1.2115854 -0.031711832
0.11948065 -1.2927458 -0.04397494
0.1615914 -1.250421 -0.054585561
0.2043647 -1.230402 -0.065933608
0.23995943 -1.1764426 -0.074908346
0.11766748 -1.2824082 -0.090909727
0.1646446 -1.2793169 -0.10332717
0.20249911 -1.2203559 -0.11086013
0 -0 -0
0.11746966 -1.2841935 -0.13876984
0.16235739 -1.2659076 -0.14947641
0.19943726 -1.2038553 -0.15445805
0.21447615 -1.0544194 -0.14695519
0.11650377 -1.2852556 -0.18697923
0.15796947 -1.2371705 -0.19261102
0.18583803 -1.1244444 -0.18738845
0 -0 -0
0.11147294 -1.2403498 -0.22773308
0.15550959 -1.2224904 -0.23740083
0.18740967 -1.1382755 -0.23352867
0.19119674 -0.94224495 -0.20471282
0.10772274 -1.2116669 -0.26976869
0.14944774 -1.1791112 -0.27524936
0.16364841 -0.99460578 -0.24361369
0.19140692 -0.94159412 -0.2425798
0.1036665 -1.1786346 -0.30952004
0.12339535 -0.97945553 -0.26827121
0.15599582 -0.94964743 -0.27172601
0.16937895 -0.83308226 -0.2495611
0.10513735 -1.2117268 0.3757571
0.15264612 -1.2165245 0.36415449
0.20067401 -1.2218409 0.35465357
0.24371897 -1.2016807 0.33845085
0.11120795 -1.2724075 0.34102201
0.15935594 -1.272696 0.32837006
0.19739363 -1.2075336 0.3008298
0.23888803 -1.1850796 0.2847513
0.11082409 -1.2677604 0.28900975
0.15790726 -1.2596992 0.2749984
0.20285486 -1.2439419 0.26043734
0.24247186 -1.2073176 0.24210943
0.1124 -1.2824337 0.24254926
0.15360196 -1.2279588 0.22039279
0.1969884 -1.2118287 0.20662004
0.23699462 -1.1823969 0.19134326
0.10971385 -1.2530433 0.18928698
0.15216294 -1.2214741 0.17290623
0.19917773 -1.2293611 0.16289762
0.24278913 -1.2169268 0.15047427
0.11158392 -1.2769662 0.14493597
0.15491126 -1.243713 0.12954049
0.20061232 -1.2413719 0.11798094
0.24446431 -1.2284518 0.10579517
0.11029546 -1.2645116 0.096821502
0.15746051 -1.2674259 0.085075796
0.1992698 -1.2349805 0.0715819
0.23803219 -1.1982055 0.058080263
0.11047771 -1.2712142 0.050379764
0.15245391 -1.2320479 0.037148822
0.20003892 -1.2437499 0.02590375
0.24750577 -1.24863 0.013886
0.11410268 -1.3150538 0.0037552456
0.15647458 -1.2683548 -0.0087213088
0.19654679 -1.2251742 -0.019969231
0.23844495 -1.2052355 -0.031506743
0.11128865 -1.2904674 -0.043873381
0.15464768 -1.2573385 -0.054845076
0.19759913 -1.2365632 -0.066197552
0.23912069 -1.2102041 -0.076963186
0.10988161 -1.2840999 -0.09098015
0.15461074 -1.2624936 -0.10188985
0.19500734 -1.2215754 -0.11086013
0.21359429 -1.0827028 -0.10960632
0.1093343 -1.281918 -0.13844885
0.15518838 -1.2718095 -0.15005803
0.19204679 -1.2050563 -0.15445805
0.19957496 -1.0129426 -0.14100121
0.10903186 -1.290877 -0.18769619
0.15073283 -1.2410598 -0.19306889
0.18001953 -1.132385 -0.18852413
0.20207992 -1.0265067 -0.18246089
0.10139906 -1.2116026 -0.22233656
0.14942078 -1.2351197 -0.2396708
0 -0 -0
0.19691734 -1.001943 -0.21741626
0.10286164 -1.2434398 -0.27669695
0.14255974 -1.1829077 -0.27592623
0.15495989 -0.9792701 -0.23962003
0.19611526 -0.99602437 -0.25628763
0.095801786 -1.1715348 -0.30749539
0.12403838 -1.0357674 -0.28348115
0.15226828 -0.96389502 -0.27553019
0.16926984 -0.85952449 -0.25716624
0.098544583 -1.2228251 0.37900403
0.14688143 -1.2317162 0.36842525
0.19077349 -1.2078559 0.35024792
0.23819903 -1.2126122 0.34111163
0.10245994 -1.2615101 0.33792651
0.15097152 -1.2688398 0.32712999
0.18967906 -1.2068034 0.30035228
0.23179848 -1.1874783 0.28498057
0.10280629 -1.2655007 0.28834537
0.15086856 -1.2664673 0.27626863
0.19203298 -1.2248458 0.25618777
0.23468472 -1.2068561 0.24172358
0.10285335 -1.2625304 0.23866105
0.14699407 -1.2366991 0.22179545
0.19046254 -1.2188605 0.20761581
0.23406264 -1.2061286 0.19494759
0.10330658 -1.2694627 0.19166794
0.14850591 -1.2548374 0.17749667
0.19010504 -1.2207626 0.16160066
0.23757671 -1.2300903 0.15191883
0.10157506 -1.2508857 0.14190242
0.14821215 -1.2525425 0.13036296
0.19207482 -1.2366766 0.11742047
0.23597966 -1.2250364 0.10537435
0.10205122 -1.2592015 0.096365161
0.14897913 -1.2624227 0.084677003
0.19031151 -1.2273008 0.07106775
0.23652272 -1.2300515 0.059552453
0.10227358 -1.2668884 0.050182506
0.1493244 -1.2706835 0.038285419
0.19118205 -1.2370493 0.025739282
0.23286869 -1.2137902 0.013482402
0.10522825 -1.3057616 0.0037267967
0.14834011 -1.2663115 -0.0087008355
0.18887325 -1.2253689 -0.019953139
0.2331132 -1.217476 -0.031788737
0.10432552 -1.3030809 -0.04427962
0.14774102 -1.26521 -0.055147853
0.18834126 -1.2268949 -0.065616868
0.22962853 -1.2008653 -0.076278232
0.10097413 -1.2718229 -0.090064712
0.14743678 -1.2683692 -0.1022891
0.18871599 -1.2306248 -0.1115742
0.21758349 -1.1397076 -0.11523981
0.10154496 -1.283556 -0.13855585
0.14498253 -1.2520187 -0.14761522
0.18554983 -1.2120961 -0.15521151
0.21989131 -1.1533258 -0.16035166
0.10002776 -1.2777086 -0.18568875
0.144812 -1.256688 -0.19535825
0.17455734 -1.1432227 -0.19014655
0.19946454 -1.0470817 -0.18589707
0.095179245 -1.2278939 -0.22521472
0.13993628 -1.2194289 -0.23645499
0.17593206 -1.1569622 -0.23690163
0.19880576 -1.04541 -0.2265794
0.096571356 -1.2615693 -0.28059408
0.13352881 -1.1682734 -0.2723164
0.15917021 -1.0474712 -0.25606453
0.19344802 -1.0153054 -0.26093853
0.083943978 -1.1103603 -0.29129809
0.12693402 -1.1180105 -0.3057715
0.14995933 -0.98859841 -0.28232333
0.16866283 -0.88505322 -0.26448971
0.089976072 -1.2091146 0.37457642
0.138998 -1.2297366 0.36757109
0.18307033 -1.2071029 0.34969723
0.22391427 -1.1780649 0.33100069
0.095440567 -1.2717495 0.34050611
0.1435089 -1.2726303 0.32787403
0.18198091 -1.2060242 0.29987478
0.22739778 -1.2041816 0.28864887
0.094309442 -1.2563833 0.28613073
0.14232728 -1.2605711 0.27478674
0.18567981 -1.2337483 0.25780666
0.22727516 -1.2082734 0.24172358
0.095326021 -1.2660776 0.23921652
0.14061524 -1.2483393 0.2237241
0.18473537 -1.2317089 0.20960732
0.22501776 -1.1988058 0.19353719
0.094402976 -1.2552813 0.18943578
0.14256915 -1.2714708 0.17972234
0.18510248 -1.2385774 0.16380548
0.22966 -1.2295732 0.15167807
0.094790004 -1.2633761 0.14325067
0.14152132 -1.2623249 0.13128825
0.18477662 -1.2398013 0.1176073
0.22608636 -1.2137264 0.10428021
0.09328074 -1.2458835 0.095300354
0.14278223 -1.2771957 0.085607521
0.18395276 -1.2363453 0.071524777
0.22020638 -1.1843417 0.057272937
0.0943496 -1.2654991 0.050103605
0.13986634 -1.2566746 0.037836764
0.18344142 -1.2372102 0.025718722
0.23380592 -1.2604219 0.013984174
0.09550745 -1.2834462 0.0036613643
0.14122885 -1.2731611 -0.0087417802
0.18354474 -1.2413415 -0.02019451
0.22527459 -1.2169175 -0.031737465
0.09448687 -1.2787788 -0.043433297
0.14118268 -1.2770158 -0.055623636
0.18284611 -1.2418588 -0.066355921
0.22751743 -1.2307131 -0.078084007
0.093824074 -1.2813723 -0.090698481
0.14030555 -1.275195 -0.10276821
0.18203105 -1.2376721 -0.11210976
0.2169075 -1.1752714 -0.118699
0.092654675 -1.2702721 -0.13705795
0.13989422 -1.2765801 -0.150407
0.18113518 -1.2338246 -0.1578486
0.216941 -1.1770643 -0.16346397
0.091260582 -1.265466 -0.18382469
0.13624153 -1.2496933 -0.19413726
0.16911185 -1.155012 -0.1919312
0.20177795 -1.0957592 -0.1943157
0.087363228 -1.22453 -0.22449517
0.13245137 -1.2202646 -0.23645499
0.17038515 -1.1686885 -0.23908415
0.18584491 -1.0110177 -0.21887402
0.088348918 -1.255321 -0.27907851
0.12740478 -1.1787566 -0.27457252
0.16969562 -1.1648133 -0.28449005
0.18352649 -0.99644893 -0.25579807
0.082557231 -1.1890293 -0.3117978
0.11780614 -1.0976596 -0.30000225
0.13835101 -0.95140564 -0.2714543
0.16427207 -0.89173323 -0.26617974
0.0826855 -1.2115502 0.37516677
0.13226442 -1.2381918 0.36984885
0.17787327 -1.2234248 0.35410285
0.22486809 -1.2239766 0.34350631
0.086639605 -1.2578532 0.33663672
0.13610807 -1.2773402 0.32886609
0.17680137 -1.2224953 0.30369484
0.22105327 -1.2112995 0.29002449
0.087067828 -1.2637484 0.28768095
0.13458988 -1.2614206 0.27478674
0.17964399 -1.2455266 0.26003262
0.21985707 -1.2096453 0.24172358
0.087352417 -1.2636976 0.23866105
0.13462006 -1.2648423 0.22652942
0.17436866 -1.2132971 0.20628813
0.21924396 -1.2089101 0.19494759
0.087448105 -1.2666887 0.1910727
0.13580793 -1.2821693 0.18111338
0.17623439 -1.2308559 0.16263823
0.21752791 -1.2055585 0.1485482
0.087036289 -1.263934 0.14325067
0.13555402 -1.2799854 0.13303602
0 -0 0
0 -0 0
0 -0 0
0.13630483 -1.2909473 0.086471573
0 -0 0
0 -0 0
0 -0 0
0.1381076 -1.3141716 0.039541658
0 -0 0
0 -0 0
0 -0 0
0.13820507 -1.3197525 -0.0090556927
0 -0 -0
0 -0 -0
0 -0 -0
0.13707721 -1.3136302 -0.057180751
0 -0 -0
0 -0 -0
0 -0 -0
0.13505186 -1.3008188 -0.10476448
0 -0 -0
0 -0 -0
0.085521132 -1.2807373 -0.13812788
0.13338637 -1.2902577 -0.15191922
0.17521808 -1.2467018 -0.15935551
0.21353388 -1.1998336 -0.16644096
0.085317701 -1.2936528 -0.18783958
0.13059254 -1.2701677 -0.19718973
0.16407602 -1.1706859 -0.19436482
0.19660284 -1.105706 -0.19586198
0.080551796 -1.2358407 -0.2264739
0.12636106 -1.2347302 -0.2391033
0.16280466 -1.1667998 -0.23848891
0.19826832 -1.1171088 -0.24157363
0.076953478 -1.1983572 -0.26630455
0.12105835 -1.188239 -0.27660307
0.16335058 -1.1716087 -0.28589955
0.18419971 -1.0357403 -0.26558939
0.0748934 -1.1837204 -0.31027928
0.11514653 -1.1386863 -0.31101632
0.1310516 -0.94175154 -0.26846531
0.15980564 -0.89839244 -0.26786977
0.074894778 -1.2063133 0.37339574
0.12418469 -1.2342111 0.36842525
0.17208531 -1.2368715 0.35768244
0.21499664 -1.2120456 0.33978125
0.07916183 -1.262218 0.33766854
0.12817115 -1.2771873 0.32861808
0.17182575 -1.2418336 0.30823115
0.21564311 -1.2241362 0.29277569
0.078945644 -1.2584194 0.28635219
0.12714058 -1.2651401 0.27542183
0.17333671 -1.2563065 0.26205623
0.21276978 -1.2129045 0.24210943
0.079288118 -1.259306 0.2377353
0.12636566 -1.2607465 0.22565275
0.16598071 -1.2075056 0.20512642
0.21114099 -1.2063411 0.19432074
0.079177789 -1.2593061 0.1898822
0.12695551 -1.2731246 0.17972234
0.16840968 -1.2299494 0.16237885
0.21370256 -1.2274089 0.15107618
0.078968398 -1.2594856 0.1426889
0.12700684 -1.2738645 0.13231635
0.16995245 -1.2449349 0.11788754
0.21731088 -1.2517531 0.10731015
0.079229578 -1.2668375 0.096821502
0.12749304 -1.2828232 0.08587338
0.16809307 -1.2335635 0.071239136
0.21145402 -1.2204177 0.058887593
0.07825435 -1.257586 0.049748536
0.12738548 -1.2881373 0.038734075
0.16837962 -1.2403588 0.025739282
0.21661803 -1.2533429 0.013875093
0.07968843 -1.2835234 0.0036585194
0.12784959 -1.2976869 -0.0088987369
0.16762723 -1.2385461 -0.020114051
0.20998441 -1.2176201 -0.031686194
0.079401262 -1.2898173 -0.043771826
0.12735532 -1.2975438 -0.056445446
0.16932608 -1.2568748 -0.067042179
0.20934878 -1.215708 -0.076963186
0.078213863 -1.2844186 -0.090839311
0.12387158 -1.2688839 -0.10212941
0.16935289 -1.2585679 -0.11380569
0.20651478 -1.2013819 -0.121071
0.077360287 -1.2762756 -0.13759291
0.12373774 -1.2732579 -0.14982538
0.16835743 -1.2536532 -0.16010897
0.21371056 -1.2450649 -0.17253028
0.076315172 -1.2763696 -0.18525858
0.12213118 -1.2640592 -0.19612136
0.15846126 -1.1834068 -0.1963117
0.19114667 -1.1146591 -0.19723643
0.070764959 -1.1989964 -0.2196383
0.11737291 -1.2208207 -0.23626584
0.15771404 -1.1833212 -0.24166349
0.19240017 -1.1240885 -0.24282314
0.072258532 -1.244615 -0.27648044
0.11413635 -1.1928384 -0.27750552
0.15269418 -1.1465744 -0.27955669
0.17423506 -1.0158273 -0.26020417
0.065146521 -1.1406934 -0.29889059
0.10295938 -1.0846124 -0.29606864
0 -0 -0
0.15283003 -0.89084482 -0.26533473
0.067704983 -1.2105658 0.37457642
0.1161588 -1.230178 0.36700165
0.16196017 -1.2188448 0.35217538
0.20771816 -1.214292 0.34004733
0.070979066 -1.2549632 0.33560488
0.11978716 -1.2721628 0.32712999
0.16496591 -1.2486408 0.30966368
0.20405334 -1.2014459 0.28704399
0.070176058 -1.2403814 0.28214437
0.1188249 -1.2600583 0.27415162
0.16357855 -1.2418116 0.25881845
0.20728678 -1.2257969 0.24442442
0.070389301 -1.2391649 0.2338471
0.11918054 -1.2673793 0.22670476
0.16177577 -1.2329451 0.20927541
0.20488518 -1.2144313 0.19541773
0.071897306 -1.2676665 0.1910727
0.11969467 -1.2797955 0.18055697
0.15983181 -1.223094 0.16134128
0.20370312 -1.2140113 0.14927047
0.071575411 -1.2658989 0.14336301
0.11881773 -1.2706584 0.13190511
0.16153879 -1.2400305 0.11732706
0.20913294 -1.2501144 0.10705765
0.070612952 -1.252367 0.095680639
0.1183232 -1.2696726 0.08494287
0.16657099 -1.2811033 0.073924169
0.20461966 -1.2256333 0.059077557
0.071039915 -1.2670214 0.050103605
0.1200328 -1.2948664 0.038913541
0.16102256 -1.2433516 0.025780398
0.20613137 -1.2378803 0.013689656
0.071308814 -1.2750024 0.0036329157
0.12089603 -1.3094002 -0.0089738024
0.16373707 -1.268309 -0.020580698
0.20169006 -1.2139548 -0.031558014
0.071430303 -1.2892823 -0.04373797
0.11856794 -1.2893468 -0.056056164
0.1614836 -1.2568996 -0.066989392
0.20482548 -1.2346925 -0.078084007
0.069568053 -1.2709298 -0.089853458
0.11635581 -1.2725981 -0.10236896
0.16352877 -1.2744019 -0.11514458
0.2023906 -1.2222612 -0.12304766
0.069798075 -1.2816902 -0.13812788
0.11709287 -1.2868518 -0.15133759
0.15940189 -1.244822 -0.1588532
0.20396589 -1.2336447 -0.17077114
0.068429075 -1.2758255 -0.18511519
0.11419474 -1.2628163 -0.19581613
0.15644519 -1.2254668 -0.20312583
0.18141387 -1.0983156 -0.19414388
0.06402988 -1.2111958 -0.22179691
0.1097919 -1.2205399 -0.23607667
0.15316783 -1.2056574 -0.2460285
0.1770675 -1.0741004 -0.23178573
0.061988983 -1.1943365 -0.26522201
0.10698877 -1.1954571 -0.27795675
0.14773685 -1.1638824 -0.28355035
0.16641837 -1.0073112 -0.25775635
0.059918575 -1.1758546 -0.30800152
0.09553469 -1.0765725 -0.29370847
0.10932635 -0.86309016 -0.24564032
0.15142834 -0.91637933 -0.27265817
0.059230845 -1.1899648 0.36808261
0.1077658 -1.2213186 0.36415449
0.15773951 -1.2455662 0.3596099
0.20230059 -1.2279084 0.34350631
0.06356924 -1.2611647 0.33715263
0.11248845 -1.278664 0.32861808
0.15778643 -1.2534834 0.31061873
0.20248991 -1.2382176 0.29552689
0.063938931 -1.2680587 0.28834537
0.11074795 -1.2568693 0.27330482
0.15851653 -1.2631975 0.26306802
0.20275715 -1.2454466 0.24808981
0.064325631 -1.2699986 0.23958682
0.11166026 -1.2710288 0.22723074
0.15286233 -1.2231507 0.20744984
0.19964623 -1.2293137 0.19761166
0.06441731 -1.2740093 0.19196557
0.1102888 -1.2627485 0.1780531
0.15514033 -1.2466829 0.16432428
0.20099826 -1.2446394 0.15288186
0.064156696 -1.2732612 0.1441495
0.1099805 -1.2594723 0.13067138
0.15503006 -1.2498909 0.11816778
0.20240873 -1.2572769 0.10756264
0.065178223 -1.2975899 0.099103242
0.10897364 -1.2524822 0.083746493
0.15993364 -1.2920092 0.07449545
0.19899669 -1.2387004 0.059647433
0.063314088 -1.2684313 0.050143052
0.1109654 -1.2826327 0.038524702
0.15412439 -1.2502699 0.02590375
0.20027211 -1.2499826 0.013809645
0.063533917 -1.2764148 0.0036357606
0.11182953 -1.2981619 -0.0088919131
0.15582986 -1.2682974 -0.020564608
0.19786671 -1.2378738 -0.032147642
0.06371472 -1.2936891 -0.043873381
0.11125211 -1.2970181 -0.056358941
0.15461658 -1.2648053 -0.067358911
0.19818945 -1.2418396 -0.078457616
0.062397771 -1.2842853 -0.090768889
0.1085451 -1.2732881 -0.10236896
0.15558541 -1.2743926 -0.11505532
0.19473061 -1.2224973 -0.12294883
0.063899331 -1.3228116 -0.14251459
0.10835537 -1.2776493 -0.15017435
0.15272056 -1.2536551 -0.15985779
0.19374698 -1.2182384 -0.16847073
0.062101547 -1.3078551 -0.18970364
0.10445294 -1.239858 -0.19215316
0.15035029 -1.2381583 -0.20507272
0.18023607 -1.1344335 -0.20032901
0.056413312 -1.2076355 -0.22107738
0.10353032 -1.2358683 -0.23891413
0.14635494 -1.2114397 -0.24702054
0.18211421 -1.1485832 -0.24761295
0.053990208 -1.1800655 -0.26197442
0.10102663 -1.2125956 -0.28179219
0.14257281 -1.1811721 -0.28754404
0.15825628 -0.99586499 -0.25457415
0.052356102 -1.1684684 -0.3059769
0.093214728 -1.129072 -0.30786943
0.11081794 -0.9201175 -0.26167217
0.14399521 -0.90591985 -0.26927811
0.052344669 -1.1998512 0.37103435
0.098858751 -1.2047596 0.35902956
0.151473 -1.257964 0.36291414
0.19762886 -1.247216 0.34856182
0.05629956 -1.2721483 0.3399902
0.10416675 -1.2735369 0.32712999
0.14997685 -1.2534637 0.31037995
0.19564451 -1.2442445 0.29667324
0.056027666 -1.2655045 0.28768095
0.1033531 -1.2614216 0.27415162
0.14890715 -1.2485876 0.25983027
0.19647689 -1.255392 0.24982606
0.056313418 -1.2654607 0.23866105
0.10289762 -1.2599151 0.22512676
0.14407521 -1.2132939 0.2056243
0.19027148 -1.2188057 0.19573115
0.056598928 -1.2743807 0.19196557
0.10301929 -1.2693236 0.17888771
0.14632383 -1.2377644 0.16302733
0.19488001 -1.255659 0.15408565
0.055947665 -1.2646966 0.1431383
0.10305495 -1.2700378 0.13169949
0.1478239 -1.2547737 0.11854143
0.19621381 -1.2683426 0.10840429
0.056688204 -1.2860117 0.098190546
0.10345693 -1.2799799 0.085541055
0.15002137 -1.2761101 0.073524274
0.19093527 -1.2369366 0.059504963
0.056010541 -1.2797769 0.050577022
0.10149239 -1.2633625 0.037926491
0.14830966 -1.2670802 0.026232684
0.19320713 -1.2551411 0.013853277
0.055962291 -1.2827747 0.0036528297
0.10322438 -1.2908492 -0.008837319
0.14630719 -1.2543325 -0.020323237
0.18692952 -1.2173266 -0.031583652
0.05603382 -1.3000468 -0.044076502
0.10130986 -1.2727785 -0.055277612
0.1495 -1.2885451 -0.068573058
0.1901122 -1.2400727 -0.078270815
0.053881966 -1.2696947 -0.08971262
0.10025886 -1.2679679 -0.10188985
0.14799221 -1.277302 -0.11523383
0.18767735 -1.2266202 -0.12324534
0.054064509 -1.2824503 -0.13812788
0.10012454 -1.2733394 -0.14959273
0.14764565 -1.2772355 -0.16274604
0.18821335 -1.232137 -0.17022985
0.053053696 -1.283491 -0.18611892
0.098843284 -1.266093 -0.19612136
0.14308907 -1.2419984 -0.20555945
0.17356914 -1.1374658 -0.20067263
0.048484005 -1.1951815 -0.2187389
0.094349943 -1.2159214 -0.23494171
0.13657573 -1.1918663 -0.24285395
0.1712351 -1.1245389 -0.24219839
0.046053015 -1.1628152 -0.25807726
0.095008001 -1.2316478 -0.28607884
0.13521202 -1.181059 -0.28730911
0.15067989 -0.98723251 -0.25212634
0.043615807 -1.1281652 -0.29534742
0.073937677 -0.96797311 -0.26381317
0.11095829 -0.97145647 -0.27607363
0.1335105 -0.87453663 -0.25970128
0.044194266 -1.1791446 0.36454049
0.090376623 -1.1910056 0.3547588
0.1411338 -1.2359464 0.35630566
0.18765208 -1.2331574 0.34430456
0.048492745 -1.2724698 0.3399902
0.095693082 -1.2654582 0.32489786
0.14293961 -1.2601498 0.31181249
0.18931392 -1.2540836 0.29873666
0.047704328 -1.2512076 0.28435901
0.094799072 -1.2513119 0.2718229
0.14333323 -1.267967 0.26367512
0.18600065 -1.2381376 0.24616066
0.048359323 -1.2608725 0.2377353
0.095535569 -1.2654314 0.22600342
0.13850251 -1.2308142 0.20844561
0.18220405 -1.2160432 0.19510429
0.048778407 -1.274704 0.19196557
0.094340324 -1.2580817 0.17721847
0.14137499 -1.2622882 0.16614
0.18541701 -1.2450483 0.15264109
0.048148755 -1.2640231 0.14302595
0.094219111 -1.2567594 0.13026015
0.14210951 -1.2734679 0.12022287
0.18652588 -1.2567091 0.10731015
0.049401075 -1.3022776 0.099407472
0.0941898 -1.2616851 0.084278211
0.14406666 -1.2938745 0.07449545
0.18304934 -1.2361087 0.059409983
0.047255386 -1.2561321 0.04963018
0.09322115 -1.2569839 0.037717119
0.14339572 -1.2938026 0.026767207
0.18550208 -1.2563031 0.013853277
0.047903012 -1.2780975 0.0036386054
0.094492413 -1.2804884 -0.0087622534
0.1417906 -1.2840278 -0.020789884
0.18397215 -1.2491096 -0.032378368
0.048535645 -1.3133498 -0.044516589
0.093425162 -1.2723796 -0.055234358
