# .PCD v0.7 - Point Cloud Data file format
VERSION 0.7
FIELDS x y z
SIZE 4 4 4
TYPE F F F
COUNT 1 1 1
WIDTH 1532
HEIGHT 1
VIEWPOINT 0 0 0 1 0 0 0
POINTS 1532
DATA ascii
-0.27374429 2.4508383 0.097366691
-0.35543513 2.3896294 0.072293639
-0.44124636 2.3707778 0.049587179
-0.52840644 2.3604348 0.026386674
-0.27150756 2.4338932 0.0069671185
-0.35265514 2.3769255 -0.016398516
-0.43375859 2.3357587 -0.038232792
-0.52064049 2.3297489 -0.061218955
-0.27029991 2.4346366 -0.08297351
-0.34780639 2.3501778 -0.10285614
-0.43578273 2.3546705 -0.1265883
-0.53771454 2.4089167 -0.15398863
-0.26478004 2.3994274 -0.17041174
-0.3508822 2.379564 -0.19268042
-0.42975292 2.3241293 -0.21181247
-0.48886168 2.19312 -0.22316597
-0.26748985 2.4302082 -0.26309562
-0.31362265 2.133332 -0.25253952
-0.40367612 2.1863058 -0.28141505
-0.42032388 1.8878194 -0.26414046
-0.14358044 1.3143754 -0.19156769
-0.16639523 1.1362677 -0.17734866
-0.2023917 1.0985135 -0.1836569
-0.23362917 1.0500866 -0.18761516
-0 0 -0
-0 0 -0
-0.16779669 0.91387612 -0.18809277
-0.1932358 0.86982059 -0.1897186
-0.096931621 0.90177035 -0.20113572
-0.13171093 0.90525806 -0.21185178
-0.15841958 0.86331421 -0.2121342
-0.19248983 0.86503637 -0.22373152
-0 0 -0
-0.12246636 0.84617621 -0.23234439
-0.14465672 0.78947711 -0.2266195
-0.17009324 0.76426178 -0.22984409
-0 0 0
-0.35194069 2.4403005 0.73229504
-0.42200693 2.3034954 0.67075783
-0.52010059 2.3422251 0.66226745
-0 0 0
-0.37379217 2.5966265 0.67162097
-0.42279196 2.3175917 0.57921672
-0.53391427 2.4179912 0.58325869
-0.29120341 2.7472627 0.62740582
-0.36701354 2.5470157 0.55740637
-0.43512422 2.3903911 0.50205523
-0.52213717 2.3727179 0.4776597
-0.27570975 2.5954747 0.49176398
-0.35838407 2.4917495 0.44832486
-0.43112493 2.3752434 0.40626979
-0.52336997 2.3826785 0.38707438
-0.25883964 2.438689 0.36905006
-0.37228024 2.5976958 0.36862552
-0.43136165 2.3836496 0.31684625
-0.51523495 2.3556476 0.29240161
-0.25589964 2.4150052 0.27459186
-0.35936493 2.5078871 0.26185682
-0.43234986 2.3945956 0.228302
-0.51431257 2.3569481 0.20376301
-0.26133448 2.4699981 0.18945985
-0.35319394 2.4703488 0.16623014
-0.41842651 2.3207233 0.13493733
-0.51180124 2.349179 0.11430842
-0.25608051 2.427629 0.09638039
-0.34288079 2.4066088 0.072742298
-0.42934474 2.3882008 0.049895555
-0.51688743 2.3773119 0.026539387
-0.25415877 2.4126401 0.0069016861
-0.34129971 2.4018154 -0.016555471
-0.42577329 2.3738062 -0.038812079
-0.52181411 2.4042153 -0.063090391
-0.25410596 2.4243214 -0.082567275
-0.34361354 2.4244778 -0.10601364
-0.42361066 2.3700793 -0.12727456
-0.55125833 2.5428748 -0.16233253
-0.24550603 2.3573523 -0.16731334
-0.33237281 2.3540359 -0.1904446
-0.41250774 2.3100541 -0.21029507
-0.45286813 2.0920126 -0.21259078
-0.2472322 2.3803787 -0.257532
-0.31783035 2.2581558 -0.26708001
-0.38920873 2.1828814 -0.28066158
-0.27158096 1.2560455 -0.17550726
-0.11725515 1.1380297 -0.16575767
-0.16010608 1.1421609 -0.17811178
-0.18717869 1.0521313 -0.17570709
-0.22218858 1.0283905 -0.18349175
-0 0 -0
-0 0 -0
-0.16030419 0.90427262 -0.18591025
-0.18892629 0.87577033 -0.19075987
-0.09031444 0.89166373 -0.19875415
-0.12548213 0.90122461 -0.2107237
-0.15600204 0.88054085 -0.21612786
-0.1882024 0.87093973 -0.22495542
-0 0 -0
-0.11687493 0.84404403 -0.23155767
-0.13863638 0.7837162 -0.22471741
-0.16479252 0.76247746 -0.22899906
-0 0 0
-0.34167707 2.4766002 0.74254489
-0.40150255 2.2700684 0.66029441
-0.49657595 2.302969 0.65029389
-0.28259754 2.8322313 0.75994772
-0.31384775 2.2792907 0.58903235
-0.40738466 2.3134477 0.57754546
-0.50866187 2.372683 0.57156599
-0.2444182 2.4491601 0.55897367
-0.35858482 2.6015015 0.56883812
-0.40994188 2.3332145 0.4895089
-0.5116685 2.3950682 0.481518
-0.25938779 2.5932064 0.49102339
-0.3528831 2.5651002 0.46112412
-0.4122887 2.3535604 0.4021208
-0.5070926 2.3781178 0.38582072
-0.24288791 2.4303918 0.36756197
-0.34772828 2.5371404 0.35972288
-0.41468078 2.3745303 0.31528991
-0.4991219 2.350996 0.29143855
-0.24186577 2.4244401 0.2754907
-0.34261957 2.50019 0.26082873
-0.4130348 2.3707204 0.22577985
-0.49756986 2.3493364 0.2028372
-0.24706335 2.4804847 0.19014435
-0.34140846 2.4971843 0.16789176
-0.4069168 2.3389843 0.13585137
-0.50646943 2.3952749 0.11639798
-0.24246344 2.442081 0.096893266
-0.33620241 2.4680917 0.074536927
-0.4117783 2.3740439 0.049546059
-0.5049746 2.393158 0.026681192
-0.23856103 2.4061933 0.0068789274
-0.33059421 2.4335907 -0.016760198
-0.40898362 2.3635659 -0.038602889
-0.50313759 2.3887858 -0.062603302
-0.23912774 2.4248405 -0.082533419
-0.32698718 2.4136703 -0.10545135
-0.40549719 2.3519683 -0.12616599
-0.52516651 2.4963987 -0.15915689
-0.23541266 2.4034886 -0.17048214
-0.32472077 2.4064114 -0.19451699
-0.39359179 2.2850583 -0.2077958
-0.45413837 2.1619477 -0.21941029
-0.23919362 2.4491405 -0.26480752
-0.2802707 2.0838654 -0.24625802
-0.38438296 2.2350926 -0.28706592
-0.28990996 1.3818085 -0.19282794
-0.10740844 1.109176 -0.161456
-0.14404301 1.0755335 -0.16758074
-0.1763808 1.027974 -0.17148882
-0.2158743 1.0297345 -0.18349175
-0.095566183 0.9948473 -0.1827621
-0.12962686 0.97137064 -0.18878567
-0.15739518 0.92069691 -0.18908481
-0.17773806 0.84915048 -0.18472052
-0.085858211 0.90289193 -0.20113572
-0.11930783 0.89714903 -0.20959564
-0.15010513 0.87860709 -0.21542309
-0.18345179 0.87492496 -0.22568978
-0 0 -0
-0.1053691 0.79691148 -0.21844569
-0.13544318 0.79403883 -0.22743466
-0.15952013 0.76065707 -0.22815406
-0 0 0
-0.3328588 2.5271206 0.75706553
-0.3983947 2.3359828 0.67874306
-0.47710618 2.2804976 0.6431098
-0 0 0
-0.31740591 2.4146821 0.62350631
-0.40195903 2.3676023 0.59043813
-0.49449018 2.3776655 0.57202452
-0.22638674 2.4185731 0.55166537
-0.31736887 2.4117944 0.52692151
-0.39414591 2.3269958 0.48768765
-0.48919797 2.3606913 0.47399428
-0.23346438 2.4881022 0.47084183
-0.37905514 2.8864112 0.51845783
-0.39603364 2.3453498 0.40029526
-0.49529168 2.3947248 0.38801464
-0.22870912 2.4397128 0.36875245
-0.32586041 2.4911125 0.35290679
-0.39911562 2.3711631 0.31451175
-0.4898923 2.3792949 0.29456842
-0.22578171 2.413017 0.27403009
-0.32469225 2.4825191 0.25877252
-0.39304 2.3408079 0.22269721
-0.48454857 2.3591778 0.20342636
-0.23258063 2.4898965 0.19075282
-0.31988332 2.4517407 0.16470143
-0.38991615 2.3256831 0.13493733
-0.48634547 2.3719175 0.11511575
-0.22654834 2.4335735 0.09649875
-0.31796017 2.4463191 0.073819071
-0.39687407 2.3745537 0.049504947
-0.48547035 2.3727 0.026419399
-0.22407006 2.4105988 0.0068874615
-0.31527019 2.4325981 -0.016739724
-0.39365119 2.3610995 -0.038522433
-0.48627052 2.3810542 -0.062321313
-0.2241527 2.4252667 -0.082499564
-0.31729278 2.4552641 -0.10718147
-0.39171264 2.3583524 -0.12637715
-0.47991887 2.3528852 -0.14981669
-0.21254885 2.3164802 -0.16421494
-0.30651382 2.381665 -0.19236101
-0.38608524 2.3267331 -0.21136616
-0.45099235 2.2144229 -0.22445081
-0.22307462 2.4386804 -0.26352361
-0.25623408 1.9978682 -0.23590519
-0.35736564 2.1571519 -0.27676874
-0.25614691 1.2592835 -0.17550726
-0.1019408 1.1245986 -0.16360684
-0.14094581 1.1038462 -0.1718542
-0.18825151 1.1390475 -0.18982206
-0.22112827 1.0879979 -0.19362848
-0.089019865 0.9905163 -0.18186268
-0.11994683 0.94292486 -0.18311076
-0.15158369 0.9206782 -0.1888864
-0.17232992 0.84926653 -0.18451227
-0.078501008 0.88298041 -0.19658907
-0.11343329 0.89496475 -0.20891879
-0.14313319 0.86992043 -0.21307388
-0.17614844 0.86653268 -0.22324196
-0 0 -0
-0.10457847 0.83009577 -0.22736184
-0.13244045 0.80625075 -0.23069538
-0.15618804 0.76820344 -0.23012576
-0 0 0
-0.31233379 2.489167 0.74510735
-0.38140526 2.3222566 0.67406207
-0.4728761 2.3315628 0.65667981
-0 0 0
-0.30390766 2.4271581 0.62623441
-0.38648415 2.364274 0.58900559
-0.49335569 2.4474466 0.58807331
-0.21171223 2.4218595 0.55210829
-0.32432377 2.587281 0.56481588
-0.37733841 2.313906 0.48444986
-0.47412425 2.3607628 0.47341558
-0.21321678 2.4327083 0.46010298
-0.3442297 2.7519171 0.4939113
-0.38131893 2.345789 0.39996332
-0.48214141 2.4054661 0.38926834
-0.2135625 2.4391 0.36845481
-0.31032425 2.4910996 0.35262856
-0.38376603 2.3686733 0.31386325
-0.47353595 2.3734944 0.29348502
-0.21071196 2.4113874 0.27369303
-0.30711773 2.4657104 0.25681913
-0.37882853 2.3441586 0.22279064
-0.47434244 2.3836069 0.20527798
-0.21608555 2.47737 0.18968803
-0.30311149 2.439795 0.16377091
-0.37722903 2.337888 0.13550861
-0.47295031 2.3807354 0.11540069
-0.21143892 2.4329269 0.096419841
-0.31153625 2.517663 0.075912803
-0.38213784 2.375957 0.049484383
-0.46623632 2.3520935 0.026157603
-0.20918825 2.4109321 0.0068846168
-0.29923615 2.4255548 -0.016678307
-0.37820607 2.357547 -0.038425885
-0.46699509 2.3604569 -0.06170604
-0.21304566 2.4704087 -0.083989099
-0.29966035 2.4363413 -0.10627314
-0.37613168 2.3538089 -0.12600762
-0.4701159 2.3792849 -0.15131111
-0.20811167 2.4320376 -0.17231302
-0.29237908 2.3874586 -0.19268042
-0.3685042 2.3084037 -0.20949173
-0.44510043 2.2562001 -0.22840413
-0.20574115 2.4122648 -0.26052782
-0.26514354 2.1729209 -0.2563782
-0.35848734 2.2494385 -0.2883217
-0.3809545 1.9335343 -0.26914722
-0.098370239 1.1646491 -0.16934241
-0.13953212 1.1488386 -0.17872226
-0.1721185 1.0826848 -0.18024984
-0.19865483 1.0091082 -0.17936833
-0 0 -0
-0.11498442 0.95046693 -0.18443491
-0.14807771 0.93514377 -0.19166414
-0.17616934 0.89637429 -0.19450842
-0.072115824 0.87176996 -0.19399098
-0.10735693 0.89080787 -0.20779072
-0.13900812 0.87846279 -0.21495324
-0.17045355 0.86569452 -0.22275238
-0 0 -0
-0.10143378 0.84701049 -0.23181991
-0.12478791 0.78993762 -0.22580431
-0.15276928 0.77573735 -0.23209746
-0.19071908 2.3666046 0.73350859
-0.28854144 2.4196465 0.72375345
-0.38049713 2.409065 0.6985684
-0.4607906 2.3457706 0.65987271
-0.19788067 2.4363518 0.65263671
-0.29850927 2.5088205 0.64681953
-0.37377933 2.3781126 0.59187067
-0.46695369 2.3921525 0.57408798
-0.19826928 2.4406085 0.55609465
-0.30959851 2.5989268 0.56693286
-0.3678357 2.3461699 0.49072307
-0.46880752 2.4108229 0.48286843
-0.19748802 2.4241762 0.45825148
-0.31211546 2.6259081 0.47094274
-0.36600477 2.3422387 0.39896753
-0.45947024 2.3676577 0.38268653
-0.19995596 2.4571197 0.37098458
-0.29887399 2.5254095 0.35721901
-0.36968261 2.3739228 0.31425235
-0.46799973 2.4231415 0.29926324
-0.19784217 2.4364047 0.27638951
-0.30437261 2.5722561 0.26771697
-0.36336824 2.3395519 0.22213672
-0.45329958 2.353205 0.20241639
-0.2020888 2.4935567 0.19082887
-0.28813547 2.4416089 0.16377091
-0.36700746 2.3667963 0.13705108
-0.45399535 2.3610318 0.11430842
-0.1966676 2.4361703 0.09649875
-0.28674954 2.4401095 0.073519967
-0.36556691 2.3654122 0.049217124
-0.45556352 2.3745508 0.026375767
-0.19623862 2.4350958 0.0069500492
-0.27899572 2.3816586 -0.016364394
-0.36479956 2.3667407 -0.038538527
-0.45193881 2.3603325 -0.061629131
-0.19501215 2.4358048 -0.082770392
-0.28261986 2.4202724 -0.1054946
-0.36243951 2.3610079 -0.12627158
-0.46713006 2.442903 -0.15517172
-0.19184294 2.4163642 -0.17111591
-0.27864516 2.3971286 -0.19331922
-0.36112696 2.354924 -0.2135084
-0.42247775 2.2129486 -0.22375898
-0.19305305 2.4402432 -0.26341662
-0.25900349 2.2366641 -0.26370665
-0.34497857 2.2535572 -0.28857285
-0.37056789 1.9436215 -0.27022976
-0.10999191 1.4049861 -0.20418592
-0.12467408 1.0819298 -0.16819122
-0.16859977 1.1042049 -0.1836569
-0.19448715 1.0209532 -0.18125823
-0 0 -0
-0 0 -0
-0.14336842 0.94281763 -0.19305301
-0.17030053 0.89551669 -0.19409192
-0.068553746 0.89555842 -0.19918716
-0.10277404 0.89919311 -0.20959564
-0.13259317 0.87257236 -0.2133088
-0.16622737 0.87243879 -0.2242211
-0 0 -0
-0.094710641 0.83419317 -0.22814856
-0.12123757 0.79925185 -0.22824985
-0.14818619 0.77760261 -0.23237914
-0 0 0
-0 0 0
-0.40491694 2.6698833 0.77346414
-0.44476864 2.3400311 0.65747803
-0.18039714 2.4037993 0.64360815
-0.27507681 2.4393687 0.62846655
-0.37787116 2.5042284 0.62266994
-0.44522282 2.3576708 0.56514651
-0.18234132 2.4291375 0.55321562
-0.27138674 2.4036312 0.52395773
-0.3792299 2.5197906 0.52654082
-0.44511837 2.3664033 0.47341558
-0.18445437 2.4498405 0.46288022
-0.2905975 2.5798359 0.46235144
-0.36054847 2.403929 0.40909111
-0.44821349 2.3879046 0.38550729
-0.18279918 2.4306903 0.36681792
-0.27575874 2.4592922 0.34762082
-0.36126494 2.4173343 0.31969956
-0.44820154 2.3996193 0.296013
-0.18162507 2.4207277 0.27447951
-0.27085206 2.4159138 0.2512674
-0.36867267 2.4736941 0.23465411
-0.4441438 2.3843503 0.20485716
-0.18700816 2.4977329 0.19105706
-0.27281606 2.440356 0.16357152
-0.35659212 2.3966534 0.13865066
-0.44004756 2.3667192 0.11445089
-0.18297878 2.4542711 0.097169422
-0.26889718 2.4159942 0.072742298
-0.35251251 2.3775005 0.049422707
-0.43788454 2.3605874 0.026190327
-0.18203557 2.4462264 0.0069784978
-0.26547942 2.3932648 -0.016432637
-0.35144064 2.3768475 -0.038667254
-0.43690169 2.3601122 -0.061552223
-0.17888434 2.4210081 -0.082228743
-0.26754445 2.4199748 -0.10540809
-0.34896407 2.3701029 -0.12664109
-0.44306025 2.396652 -0.15205833
-0.18437013 2.5179763 -0.17822814
-0.25651824 2.3314171 -0.18788937
-0.35188806 2.39257 -0.21672174
-0.40726596 2.206692 -0.22286947
-0.1738089 2.3828759 -0.25710404
-0.25490391 2.3260808 -0.27405947
-0.33589983 2.288023 -0.29271686
-0.40873981 2.2177136 -0.30798343
-0.080297925 1.1134521 -0.16174278
-0.12424541 1.1396574 -0.17704341
-0.16139247 1.1022896 -0.18317018
-0.19446327 1.0560367 -0.18727154
-0.070702605 0.99100578 -0.18168278
-0 0 -0
-0.1378635 0.94561929 -0.19344983
-0.16285744 0.88596326 -0.19180113
-0.0638799 0.90764868 -0.20178525
-0.095684446 0.88527817 -0.20621142
-0.12667616 0.86952204 -0.21236911
-0.16297854 0.88488477 -0.22715847
-0 0 -0
-0.088766523 0.82708263 -0.22605065
-0.11480778 0.78950477 -0.22526087
-0.14236914 0.77283549 -0.23068911
-0 0 0
-0.29395488 2.7518551 0.82198125
-0.36722672 2.5258112 0.73105997
-0.42987955 2.3398719 0.65667981
-0 0 0
-0.27272934 2.5594966 0.6589722
-0.34957188 2.4171193 0.60046583
-0.42969957 2.3546131 0.56377089
-0.16830432 2.4428577 0.55609465
-0.26534319 2.4868839 0.54174054
-0.36851484 2.5550256 0.53342104
-0.4298881 2.3652282 0.47264388
-0.16928343 2.4489655 0.46250996
-0.26705202 2.5091262 0.44937688
-0.34298584 2.386574 0.40577191
-0.43231946 2.3838074 0.38441032
-0.16876668 2.4445908 0.36875245
-0.25743011 2.4304101 0.34330863
-0.34544191 2.4126348 0.31879169
-0.43117768 2.3896239 0.29444805
-0.16949889 2.4614494 0.27897364
-0.25811833 2.437314 0.25332361
-0.35067302 2.456197 0.23278585
-0.42297632 2.3507445 0.20174307
-0.17154215 2.4968441 0.19090495
-0.25857055 2.44893 0.16403678
-0.34878221 2.4472268 0.14144996
-0.42516425 2.3674085 0.11435591
-0.1679844 2.4563446 0.09720888
-0.25584382 2.4344978 0.073250771
-0.34016684 2.3954566 0.049751643
-0.42480275 2.371104 0.026277594
-0.16552442 2.4253485 0.0069159106
-0.2516228 2.4028049 -0.01648723
-0.34035444 2.4037092 -0.039069537
-0.42030093 2.3509398 -0.061244596
-0.16267538 2.4021173 -0.081551686
-0.25227597 2.4175963 -0.10523508
-0.33831793 2.3998866 -0.12811919
-0.93246895 5.2231016 -0.33101642
-0.17278752 2.5767865 -0.1823124
-0.25528094 2.4588647 -0.19803043
-0.45455459 3.2280893 -0.29214591
-0.39686102 2.2267833 -0.22464846
-0.16097316 2.4106829 -0.25999284
-0.24021801 2.3236492 -0.27359417
-0.27546105 1.9599451 -0.25052345
-0.41387379 2.3255312 -0.32259777
-0.0730085 1.1070112 -0.16073906
-0.11714919 1.1394151 -0.17689079
-0.15051715 1.0739431 -0.17830296
-0.19332612 1.0872774 -0.19259761
-0 0 -0
-0.094270937 0.92116338 -0.17838165
-0.12799536 0.91732597 -0.18749753
-0.15741821 0.88694584 -0.19180113
-0.057996649 0.90315223 -0.20070271
-0.092324279 0.90620184 -0.21094932
-0.12039892 0.86354399 -0.21072465
-0.15482962 0.87059456 -0.22324196
-0 0 -0
-0.08466085 0.8372128 -0.22867304
-0.11075717 0.79591352 -0.22689122
-0 0 -0
-0.14996718 2.4154873 0.74767703
-0.23493364 2.3348911 0.69699001
-0.331453 2.3823345 0.68893105
-0.4123154 2.3244319 0.65162432
-0 0 0
-0.25789005 2.5697973 0.66120434
-0.38238218 2.7635846 0.68593967
-0.40882689 2.3207781 0.55505866
-0.1496487 2.3854492 0.54280686
-0.2567243 2.5545909 0.55613613
-0.33302066 2.4136608 0.50347173
-0.4082467 2.3272302 0.46454147
-0.1518454 2.4117081 0.45528904
-0.25292772 2.5234523 0.45165619
-0.35035899 2.5488529 0.43298936
-0.41274658 2.3582025 0.37986571
-0.15134376 2.4070904 0.36294883
-0.24044901 2.4112506 0.3403874
-0.33924055 2.4775817 0.3270922
-0.41310149 2.3726645 0.29204047
-0.15246497 2.4316998 0.2754907
-0.24532944 2.4606271 0.2555854
-0.34003955 2.4908562 0.23586848
-0.40973753 2.360168 0.20233221
-0.15484934 2.475956 0.18923166
-0.24353933 2.4504704 0.16403678
-0.34481317 2.5304372 0.14613448
-0.40875429 2.3591464 0.11383352
-0.15272321 2.4543371 0.097090527
-0.24021263 2.429059 0.073041402
-0.33097625 2.4381175 0.050594546
-0.41194892 2.3835192 0.026386674
-0.14902852 2.4003687 0.0068419441
-0.2363845 2.3993275 -0.016453108
-0.32425815 2.395844 -0.038908623
-0.40790659 2.3652959 -0.061552223
-0.15235463 2.4748931 -0.083989099
-0.23821789 2.4270532 -0.1055811
-0.32411945 2.4058762 -0.12833035
-0.4092125 2.3763354 -0.15043937
-0.15782224 2.5917375 -0.18329825
-0.23515262 2.4087963 -0.19387819
-0.43221515 3.2120626 -0.29044998
-0.39128229 2.2762511 -0.22939247
-0.14906594 2.4592624 -0.26512849
-0 0 -0
-0.18248625 1.3588617 -0.17354555
-0.39758545 2.3163087 -0.32097396
-0.066214636 1.1074383 -0.16073906
-0.11082096 1.1469984 -0.17795914
-0.14130552 1.0552859 -0.17505811
-0.17199869 1.0029989 -0.17747843
-0 0 -0
-0.088617012 0.9217245 -0.17838165
-0.12314125 0.92392325 -0.188688
-0.15461318 0.9033199 -0.19513318
-0 0 -0
-0.08397837 0.87765759 -0.2041809
-0.11779265 0.88450021 -0.21565802
-0.14719011 0.85814947 -0.219815
-0 0 -0
-0.080342971 0.84636265 -0.23103319
-0.11221106 0.84427738 -0.24047753
-0.13157661 0.76695877 -0.22843572
-0.1334359 2.3858354 0.73823142
-0.23952684 2.5367055 0.7567808
-0.32518664 2.4472191 0.70710427
-0.38943091 2.2765601 0.63752222
-0 0 0
-0.23657738 2.5124972 0.64607549
-0.31454179 2.3807931 0.59043813
-0.41348511 2.4345593 0.58165383
-0.13616578 2.4067683 0.54745758
-0.23801681 2.5240085 0.54915005
-0.31526282 2.3933275 0.49881744
-0.39445019 2.3325937 0.46512017
-0.13810347 2.431236 0.45880693
-0.22702371 2.4141955 0.43184361
-0.32201204 2.4541571 0.41655931
-0.39087558 2.3168659 0.37281376
-0.13623531 2.40205 0.36205599
-0.22767806 2.4343722 0.34344772
-0.33289728 2.547457 0.33604118
-0.39607117 2.3604686 0.29023477
-0.13653177 2.414732 0.27346832
-0.22587407 2.4155383 0.25075334
-0.31626105 2.4277349 0.2297032
-0.38900042 2.3252916 0.19913396
-0.13982263 2.479846 0.18945985
-0.232943 2.4996057 0.1672271
-0.32117051 2.4701333 0.1425354
-0.39295527 2.3537281 0.1134536
-0.14235951 2.539031 0.10040446
-0.22521143 2.429492 0.073011495
-0.3122862 2.4113486 0.049998347
-0.39485243 2.3712065 0.026223052
-0.14004894 2.5040767 0.0071349666
-0.22551936 2.442554 -0.016739724
-0.31185576 2.4156377 -0.039198264
-0.39273036 2.3638096 -0.06144968
-0.13688965 2.4707918 -0.083819829
-0.22441912 2.4404073 -0.10610013
-0.31240523 2.4315908 -0.12959729
-0.39462388 2.3788016 -0.15043937
-0.13286626 2.4273167 -0.17160884
-0.22499691 2.4608197 -0.19795059
-0.41097695 3.2027991 -0.28937885
-0.37015536 2.2354128 -0.22504382
-0.14100185 2.5891931 -0.27903756
-0 0 -0
-0.19695269 1.5380687 -0.19627476
-0.377547 2.2835135 -0.31610253
-0.15562181 2.9014902 -0.42099008
-0.099330731 1.0984434 -0.17032798
-0.13770175 1.0786457 -0.17878966
-0.16552009 1.0020915 -0.17713483
-0 0 -0
-0 0 -0
-0.12006383 0.94507986 -0.19285461
-0.1492267 0.90521663 -0.19534142
-0 0 -0
-0.078417905 0.8762157 -0.20372967
-0.11040484 0.86977792 -0.21189928
-0.14302813 0.86573273 -0.22152847
-0 0 -0
-0.072589308 0.81800288 -0.22316599
-0.099893324 0.78862 -0.22444569
-0.12686816 0.76775169 -0.22843572
-0.12131161 2.4371853 0.75387567
-0.20070224 2.2745748 0.67819864
-0.30847374 2.4358163 0.70324939
-0.38579711 2.3416812 0.65508336
-0.12329612 2.4460998 0.65392649
-0.2167419 2.4637203 0.63317883
-0.31351107 2.4905877 0.61717856
-0.37874568 2.3160143 0.55276597
-0.12051163 2.3900278 0.54347122
-0.21197382 2.4056733 0.52311093
-0.3015472 2.4029903 0.50043631
-0.37997258 2.3340018 0.46492726
-0.12268598 2.4222231 0.4569554
-0.21229237 2.4165242 0.43201897
-0.30927104 2.4746785 0.41971251
-0.38124359 2.347492 0.37735838
-0.12588841 2.4897501 0.37515131
-0.20946257 2.3982356 0.33816177
-0.3062399 2.4608951 0.3243686
-0.38237149 2.3677547 0.29083666
-0.12236276 2.4284256 0.27492893
-0.20776019 2.3792233 0.24684657
-0.30466774 2.4563072 0.23222536
-0.37425023 2.3246834 0.19888146
-0.12430382 2.4746821 0.1890035
-0.21448779 2.4652028 0.16483435
-0.30073413 2.4294529 0.14007887
-0.37977314 2.3639846 0.11383352
-0.12319098 2.4680021 0.097563937
-0.21098933 2.4387946 0.073250771
-0.30127648 2.44398 0.050635662
-0.38124469 2.3795087 0.026288502
-0.12239476 2.458946 0.0070041018
-0.20846811 2.419981 -0.016575946
-0.29775941 2.4234602 -0.039294813
-0.37774554 2.3632135 -0.061372772
-0.12310315 2.4995353 -0.084767714
-0.20875779 2.4337752 -0.10575411
-0.29493475 2.4126458 -0.1284887
-0.380335 2.3831494 -0.15056391
-0.13355736 2.7489085 -0.19428346
-0.20735331 2.4323578 -0.19555506
-0.38492 3.1528611 -0.28464812
-0.36269358 2.2769504 -0.22899714
-0.12520815 2.5919957 -0.27925158
-0.20579967 2.4266431 -0.28522658
-0.24653633 2.0237715 -0.25805798
-0.36710778 2.3082929 -0.31921482
-0.12378063 2.6068132 -0.37811676
-0.090846673 1.0783515 -0.16712287
-0.12251646 1.0089424 -0.16710831
-0.16493301 1.0381137 -0.18331994
-0.04672803 1.0003034 -0.18312186
-0.076561615 0.9139359 -0.17667918
-0.11014827 0.91174221 -0.18591025
-0.14366958 0.90611523 -0.19534142
-0.044664625 0.97623599 -0.21672429
-0.074172474 0.89027232 -0.20688826
-0.10564831 0.87526399 -0.21307388
-0.13999593 0.88095742 -0.22520021
-0 0 -0
-0.069394954 0.84055269 -0.2291975
-0.10230234 0.84941274 -0.24156444
-0.12245618 0.7704109 -0.22899906
-0.10344007 2.3710663 0.73321348
-0 0 0
-0.29237279 2.4281187 0.70049584
-0.37896466 2.391608 0.66838723
-0.10730235 2.4246104 0.64799345
-0.19806689 2.4215548 0.62201822
-0.30064592 2.5127127 0.62219244
-0.36951715 2.3500259 0.56033182
-0.10739714 2.4257939 0.55144387
-0.19880508 2.42641 0.52734494
-0.29769835 2.4962029 0.51945817
-0.37110615 2.3711882 0.47187224
-0.107428 2.4140947 0.45528904
-0.19762114 2.4197435 0.43236962
-0.28931329 2.4363804 0.4129082
-0.36820349 2.3585694 0.37876874
-0.10780121 2.4272504 0.36562741
-0.19898906 2.4517884 0.34553429
-0.28962106 2.4499266 0.32268256
-0.36844501 2.3739803 0.29131818
-0.1071086 2.4211891 0.27403009
-0.199674 2.4607604 0.25517419
-0.28842551 2.4482424 0.23129123
-0.36272129 2.344661 0.20039642
-0.10582384 2.4006882 0.18329917
-0.2008045 2.4843743 0.16603073
-0.28791982 2.4491 0.14110719
-0.36465135 2.3623219 0.11364356
-0.10738995 2.4537377 0.096972167
-0.19626132 2.4430325 0.073340505
-0.28174186 2.4070551 0.049833879
-0.36481154 2.3699436 0.026157603
-0.10673805 2.4466631 0.0069671185
-0.19441256 2.4311824 -0.016644187
-0.27801839 2.3835299 -0.038618982
-0.36369321 2.3684511 -0.06144968
-0.10496658 2.4353411 -0.082567275
-0.19469248 2.4459653 -0.1062299
-0.28070092 2.4193699 -0.12875266
-0.36555383 2.3844514 -0.15050162
-0.10315394 2.4307578 -0.17174968
-0 0 -0
-0.28291619 2.4418137 -0.22029211
-0.34480256 2.2535579 -0.22642748
-0.10724958 2.5440397 -0.2740089
-0 0 -0
-0.2475571 2.1415377 -0.27287591
-0.35533121 2.3261728 -0.3213799
-0.10214266 2.4710662 -0.35832909
-0.085459061 1.0946532 -0.16956486
-0.12479354 1.0831951 -0.17927639
-0.15945178 1.0449493 -0.1843508
-0 0 -0
-0 0 -0
-0.10789929 0.94161332 -0.19186255
-0.13884324 0.91181433 -0.19638269
-0 0 -0
-0.067809336 0.87905467 -0.2041809
-0.10038636 0.87686145 -0.2133088
-0.13136944 0.86071342 -0.219815
-0 0 -0
-0.065338567 0.85539573 -0.23313111
-0 0 -0
-0.11816114 0.77399337 -0.22984409
-0.090857692 2.4241686 0.749448
-0.17872232 2.3552473 0.70154554
-0.27397844 2.3993025 0.6916846
-0.37051862 2.4348664 0.67982852
-0 0 0
-0.18598059 2.4594324 0.63144273
-0.27438715 2.4189858 0.5985558
-0.3633723 2.4071093 0.57340014
-0.091321841 2.3952246 0.54435706
-0.18708789 2.4694896 0.53644806
-0.27665621 2.4473805 0.50893545
-0.35829908 2.3850646 0.47418723
-0 0 0
-0.18232545 2.4150202 0.43131763
-0.29167131 2.5919616 0.43896389
-0.35635895 2.3783658 0.38158953
-0.092452101 2.4160087 0.36384171
-0.18209015 2.4282756 0.34205666
-0.27634895 2.4674239 0.3247577
-0.35781974 2.4027076 0.29456842
-0.091153577 2.3930051 0.27077183
-0.18367891 2.450036 0.25394046
-0.26710406 2.3935657 0.22596668
-0.35374084 2.383312 0.20351054
-0.091318287 2.4072704 0.18375552
-0.18518548 2.4805846 0.16569841
-0.26802585 2.4071624 0.13859354
-0.35161278 2.3743956 0.11411846
-0.091205157 2.4243951 0.09578862
-0.18067604 2.4362161 0.073101215
-0.26883945 2.4256318 0.050183378
-0.35026297 2.3721373 0.026157603
-0.092360303 2.4642599 0.0070154811
-0.18118407 2.4552667 -0.016801143
-0.26547328 2.4040737 -0.038924716
-0.35104743 2.3834951 -0.061782949
-0.089652538 2.425952 -0.082228743
-0.17938802 2.4431283 -0.10605688
-0.26029167 2.3704221 -0.12606041
-0.35207775 2.3945494 -0.15099978
-0.087947734 2.4233701 -0.17118634
-0.22561169 3.0948472 -0.2485761
-0.25186118 2.2969728 -0.20708174
-0.34498155 2.3511336 -0.23601431
-0.088059433 2.4452884 -0.26330963
-0.23113288 3.1897776 -0.37456346
-0.22340897 2.0424237 -0.26006719
-0.3410514 2.3283093 -0.3213799
-0.086456485 2.4568107 -0.35617825
-0.077465057 1.0774137 -0.16681762
-0.11515111 1.0564741 -0.17473364
-0.14818783 1.0127665 -0.17850929
-0 0 -0
-0.066809565 0.93537509 -0.18065162
-0.099268302 0.91594845 -0.18650548
-0.13381104 0.91652042 -0.19721571
-0 0 -0
-0.063172914 0.89014375 -0.20666265
-0.095631927 0.88325912 -0.21471833
-0.12440085 0.84999096 -0.21687759
-0 0 -0
-0 0 -0
-0.086910613 0.80467725 -0.22852157
-0.11313181 0.77280498 -0.22928074
-0 0 0
-0.16886745 2.4222834 0.72119105
-0.27380338 2.5357046 0.73050922
-0.36252993 2.4847867 0.6931324
-0 0 0
-0.16565099 2.3851459 0.61209768
-0.26067814 2.4312449 0.6011821
-0.35375285 2.4449368 0.58188307
-0.075594597 2.3635757 0.53704876
-0.16684312 2.3974676 0.52057052
-0.26850009 2.5133009 0.52229118
-0.35512242 2.466857 0.49000633
-0 0 0
-0.16770801 2.41904 0.43184361
-0.25470173 2.3956199 0.40543997
-0.34526765 2.404948 0.38550729
-0 0 0
-0.17215037 2.5014668 0.35221127
-0.23210013 2.1939647 0.28857264
-0.34727633 2.4343414 0.29817984
-0.076373465 2.3905399 0.2704348
-0.16789129 2.440201 0.25280955
-0.25971657 2.4644694 0.2325056
-0.34359825 2.4170065 0.20620379
-0.076640882 2.4107754 0.18398368
-0.17057499 2.4906332 0.1662966
-0.25429463 2.4186904 0.13916482
-0.3416656 2.4091446 0.11568563
-0.076107569 2.4179177 0.09551245
-0.16585992 2.4392734 0.073161043
-0.25218236 2.4103312 0.049833879
-0.34004098 2.4049349 0.026495757
-0.077300794 2.4667792 0.0070211715
-0.16490091 2.4383736 -0.016678307
-0.25030258 2.4016795 -0.038860351
-0.33892864 2.4034221 -0.062244404
-0.073595829 2.3884959 -0.080942325
-0.16566774 2.4631226 -0.1068787
-0.25129914 2.4256124 -0.12891102
-0.33849144 2.4045708 -0.15149792
-0.072294988 2.3979404 -0.16935547
-0.21046743 3.1538599 -0.25320747
-0.24893321 2.4064636 -0.216811
-0.44696066 3.1819525 -0.31913325
-0.070619635 2.3642898 -0.25453621
-0.21221343 3.2010462 -0.3757267
-0.24518661 2.376323 -0.30238619
-0.30488312 2.1743467 -0.29986435
-0.069541045 2.3939829 -0.34700134
-0.070852712 1.0778687 -0.16681762
-0.1028145 1.0002291 -0.16532366
-0.13746165 0.98146158 -0.17283961
-0.029336669 1.037376 -0.18977757
-0 0 -0
-0.094244026 0.92239058 -0.18769594
-0.12723735 0.91054356 -0.19575794
-0 0 -0
-0.058024917 0.89537549 -0.20779072
-0.091592334 0.89736712 -0.21800724
-0.12160438 0.86802191 -0.22128369
-0 0 -0
-0 0 -0
-0 0 -0
-0.10985254 0.78393716 -0.23237914
-0.060356539 2.3954918 0.74029762
-0.15533897 2.4443209 0.72745484
-0.24178921 2.3757048 0.68397474
-0.33621189 2.4077251 0.67104799
-0 0 0
-0 0 0
-0.24682899 2.4434264 0.60380834
-0.34435007 2.4875565 0.59151238
-0 0 0
-0.1530574 2.4130769 0.52374607
-0.2431704 2.4164875 0.50185281
-0.33194837 2.4106667 0.47843134
-0 0 0
-0.15025523 2.3787563 0.42447963
-0.24206074 2.4177434 0.40892518
-0.33762529 2.4588797 0.39381292
-0.063130885 2.4298122 0.36577624
-0.15159658 2.4194555 0.34052655
-0.24093941 2.4193223 0.31801352
-0.33984631 2.4915092 0.30492109
-0.061011802 2.3641436 0.26740125
-0.15372375 2.4540911 0.25414607
-0.24547441 2.4749336 0.23334633
-0.33842286 2.4901602 0.21226366
-0.061744932 2.4072132 0.18367946
-0.15485509 2.4846621 0.16583134
-0.24131668 2.4390821 0.14025027
-0.32808462 2.4201043 0.11611304
-0.060865156 2.4023569 0.094881237
-0.15021113 2.429271 0.072832026
-0.23954263 2.433723 0.050286166
-0.32661733 2.4168854 0.026604837
-0.062516093 2.4812026 0.0070609995
-0.14993623 2.4393394 -0.016678307
-0.23643929 2.4121258 -0.039005168
-0.32417515 2.4054565 -0.062244404
-0.059111461 2.3958964 -0.081179298
-0.15024655 2.4591067 -0.10666243
-0.23631431 2.4261148 -0.12885824
-0.32439619 2.4115484 -0.15180926
-0.057580139 2.3983388 -0.16935547
-0.19291981 3.1849413 -0.25560299
-0.23859727 2.453547 -0.22091693
-0.42663392 3.1787176 -0.31854025
-0.057502873 2.4233234 -0.26084879
-0.18982573 3.1566827 -0.37037581
-0 0 -0
-0.22470362 1.6773058 -0.2311229
-0.056935761 2.4853899 -0.36019313
-0.068821907 1.1552328 -0.17872226
-0.10644716 1.1020057 -0.18203449
-0.1417585 1.0594244 -0.1864125
-0 0 -0
-0 0 -0
-0.089799874 0.93563473 -0.19027527
-0.12397739 0.92875773 -0.19950649
-0.021044575 0.99363112 -0.22040491
-0 0 -0
-0.085991703 0.89694464 -0.21777231
-0.11563289 0.86394668 -0.22005978
-0 0 -0
-0 0 -0
-0.077029444 0.8056832 -0.22852157
-0 0 -0
-0 0 0
-0.13984363 2.4366148 0.72489232
-0.2222683 2.3254666 0.66910571
-0.32742223 2.4546506 0.68355364
-0 0 0
-0.13835828 2.4218175 0.62102616
-0.23302346 2.4574625 0.60691214
-0.32129961 2.4307592 0.57752699
-0 0 0
-0.13808051 2.4110434 0.52311093
-0.22870684 2.4218342 0.5026623
-0.31753421 2.4155767 0.47901011
-0.047720008 2.3943884 0.45121565
-0.13599284 2.3855309 0.42553166
-0.22666788 2.4132924 0.40792939
-0.33113068 2.5265162 0.40431252
-0 0 0
-0.13853577 2.4519784 0.34497783
-0.22848757 2.4464238 0.32138562
-0.31968337 2.4561393 0.30034664
-0.046445921 2.3614929 0.26706418
-0.13675568 2.4212222 0.25065055
-0.23000732 2.4734192 0.23306608
-0.31634641 2.4398165 0.20780292
-0.047109541 2.414525 0.18421187
-0.13960657 2.4855654 0.16583134
-0.22459444 2.421629 0.13916482
-0.3136133 2.4250436 0.11625551
-0.046161778 2.4046831 0.094960131
-0.13691399 2.4590893 0.073699437
-0.22350317 2.4232001 0.050039463
-0.31190929 2.4198356 0.026615744
-0.047347706 2.484539 0.0070695342
-0.13595994 2.4581857 -0.016801143
-0.22026283 2.398596 -0.038763802
-0.30979174 2.4103749 -0.062321313
-0.044446446 2.3982127 -0.081247009
-0.13636069 2.4819286 -0.107614
-0.22214918 2.4354749 -0.12928055
-0.30984706 2.4154732 -0.15193379
-0.043344334 2.4255757 -0.17125675
-0.17147806 3.1512284 -0.25280821
-0.22317684 2.4509971 -0.2205599
-0.40661636 3.1773272 -0.31814492
-0.042335279 2.4067307 -0.2590299
-0.17200559 3.1865492 -0.37374917
-0.21896723 2.4117577 -0.30653018
-0.19356942 1.5155052 -0.20866013
-0.040904697 2.4391849 -0.35345387
-0.057356682 1.0737226 -0.1660545
-0.092931204 1.0279496 -0.16970415
-0.12927169 1.0133681 -0.17816567
-0.016226532 1.0140524 -0.18546034
-0 0 -0
-0.082216568 0.91566807 -0.18610865
-0.11839976 0.93047118 -0.19971475
-0 0 -0
-0 0 -0
-0.078923695 0.88002908 -0.21354373
-0.11167961 0.87521946 -0.22275238
-0.01475684 1.0466712 -0.27383539
-0 0 -0
-0 0 -0
-0.099859707 0.78237081 -0.23153411
-0.030745797 2.379811 0.73527968
-0.1258713 2.4565742 0.73058677
-0.21039198 2.3535974 0.67681557
-0.30700484 2.4145384 0.67184621
-0 0 0
-0.12349568 2.422621 0.62102616
-0.20748061 2.340837 0.57778418
-0.30710849 2.4384794 0.5789026
-0 0 0
-0.1234337 2.4147735 0.52374607
-0.21289545 2.412461 0.50043631
-0.30160934 2.4087172 0.47727391
-0.03298676 2.3916883 0.4506602
-0.12240297 2.4069686 0.42921364
-0.21202829 2.4166024 0.4082613
-0.30057493 2.4079556 0.38503715
-0.031506304 2.298897 0.34598443
-0.12209389 2.4250898 0.34108296
-0.21166319 2.4270358 0.31866199
-0.30277544 2.4432766 0.29854095
-0.032439165 2.3975022 0.2711089
-0.12199675 2.4240026 0.25085616
-0.21301822 2.4539542 0.23110442
-0.3024686 2.4506123 0.20856042
-0.032253407 2.4117777 0.18398368
-0.12335598 2.4664445 0.16450202
-0.2117116 2.4458385 0.14047877
-0.3025105 2.4576552 0.1177277
-0.031562626 2.4169109 0.095433556
-0.12394869 2.5028112 0.074985586
-0.20828763 2.4205415 0.049957231
-0.29669034 2.4187264 0.02658302
-0.032153644 2.4887824 0.0070809135
-0.12053056 2.4519823 -0.016753374
-0.2083568 2.4327779 -0.039294813
-0.29645228 2.4241376 -0.06262894
-0.029631354 2.3904455 -0.080976188
-0.1197661 2.454778 -0.10640291
-0.20533986 2.4149017 -0.12811919
-0.29320654 2.4024684 -0.15099978
-0.028261524 2.4088392 -0.17005965
-0.14791049 3.064604 -0.24578132
-0.20737551 2.4433885 -0.21975656
-0.30257109 2.4853315 -0.24866499
-0.026815545 2.3413281 -0.25196835
-0.14998278 3.1359568 -0.36770034
-0.18919331 2.2361047 -0.28405213
-0.15546766 1.2796242 -0.17604853
-0.024958801 2.3473563 -0.34011871
-0.0552935 1.169811 -0.180859
-0 0 -0
-0.12483125 1.0288116 -0.18074282
-0.0099459002 1.008231 -0.18438107
-0 0 -0
-0.077413186 0.92592251 -0.18809277
-0.11280578 0.93215114 -0.19992299
-0 0 -0
-0 0 -0
-0.073360689 0.87855953 -0.21307388
-0.10607363 0.87396324 -0.22226281
-0 0 -0
-0 0 -0
-0 0 -0
-0.094941646 0.78201628 -0.23125245
-0.016240178 2.3942862 0.73970723
-0.10846403 2.4055877 0.71521193
-0.19881646 2.3893332 0.6867283
-0.29496092 2.4393442 0.67823207
-0.017671414 2.3844073 0.63664323
-0.10732698 2.3942995 0.61358577
-0.19454999 2.3594863 0.58208179
-0.29318178 2.4490161 0.580966
-0.017711654 2.3842218 0.54147804
-0.10914142 2.4272015 0.52628642
-0.19768837 2.4088418 0.49942455
-0.29273674 2.4602139 0.48711258
-0.018092848 2.3633482 0.44529083
-0.10749988 2.4047239 0.42868766
-0.19214617 2.3559372 0.39780584
-0.29079601 2.4519277 0.3917757
-0.017961232 2.37321 0.35714522
-0.10747387 2.4317291 0.34191757
-0.1962066 2.4213705 0.31775412
-0.29021493 2.4657929 0.30106893
-0.017544087 2.3728151 0.26830006
-0.10641862 2.4088056 0.24921119
-0.19619669 2.433382 0.22904932
-0.28464243 2.4286697 0.20654047
-0.017223511 2.3800237 0.18154983
-0.10791376 2.4601772 0.16403678
-0.19654024 2.445101 0.14036451
-0.28267124 2.4187882 0.11578061
-0.016718311 2.4150605 0.095354646
-0.10633703 2.4515967 0.07343024
-0.19462557 2.4367232 0.05026561
-0.28311592 2.431427 0.026703009
-0.016861808 2.4859328 0.0070723789
-0.10539728 2.4506776 -0.016739724
-0.19279195 2.4260366 -0.039166082
-0.28122669 2.4229319 -0.062552035
-0.014950786 2.3885834 -0.080908477
-0.10316939 2.419533 -0.10484579
-0.19240244 2.4400086 -0.12938613
-0.27811524 2.401248 -0.15081297
-0.013497377 2.4119599 -0.1702709
-0.10389531 2.4669039 -0.19779089
-0.1934732 2.4585159 -0.22100618
-0.2795504 2.4199214 -0.24194433
-0.012755517 2.3991151 -0.25817394
-0.10596361 2.5424001 -0.29802221
-0.18532099 2.3628325 -0.30000025
-0.15895922 1.3789823 -0.18958031
-0.010621972 2.3623099 -0.34226951
-0.044297945 1.0773079 -0.16651239
-0.080540016 1.0319638 -0.17019089
-0.11829092 1.0276009 -0.18039919
-0.0041957712 1.1253312 -0.20578724
-0 0 -0
-0.071049385 0.91758531 -0.18630707
-0.10674944 0.92991066 -0.19929823
-0 0 -0
-0 0 -0
-0 0 -0
-0.1015964 0.88230336 -0.2242211
-0 0 -0
-0 0 -0
-0 0 -0
-0 0 -0
-0.001538921 2.3790536 0.73498446
-0.094969831 2.4387758 0.72489232
-0.1834875 2.3818815 0.68425006
-0.27779096 2.4219549 0.67291051
-0.0030529541 2.3941324 0.6392228
-0.094842948 2.4520271 0.62821859
-0.18317086 2.4013028 0.59210944
-0.27386847 2.4130499 0.57202452
-0.003099659 2.397938 0.54457855
-0.092464536 2.3819253 0.5163365
-0.18549813 2.4441869 0.5065071
-0.27268767 2.418087 0.47843134
-0.0036241272 2.3850341 0.44936416
-0.091832377 2.3817272 0.42447963
-0.18198627 2.4141057 0.40743151
-0.27221629 2.4222591 0.38676098
-0.0034303106 2.3950305 0.36041906
-0.092588693 2.4333322 0.34205666
-0.18127164 2.4215403 0.31762442
-0.27243996 2.4438484 0.29817984
-0.0029981842 2.3838086 0.26953596
-0.090880379 2.3895338 0.247155
-0.18370155 2.4673049 0.23213196
-0.27446145 2.4729564 0.21015956
-0.0026273192 2.3870642 0.18208224
-0.090898365 2.4099417 0.16064703
-0.1843413 2.4840949 0.1425354
-0.26826391 2.4244485 0.11597057
-0.0019033933 2.4201138 0.095551908
-0.090622962 2.4342234 0.072891846
-0.17930302 2.4328861 0.050162815
-0.26665783 2.4192033 0.026550295
-0.0015925694 2.4619896 0.0070041018
-0.090395056 2.4522777 -0.016746551
-0.17834099 2.433157 -0.03926263
-0.26471716 2.4097066 -0.062167495
-0.00029591014 2.4006233 -0.081314713
-0.088212162 2.4171252 -0.10471603
-0.17844066 2.4550869 -0.13012518
-0.26163635 2.3870354 -0.14981669
0.0013050783 2.4169848 -0.17062299
-0.087359257 2.4286447 -0.1946767
-0.230113 3.1729176 -0.28509441
-0.26880562 2.4591811 -0.24569999
0.0019808917 2.4180391 -0.26020682
-0.086164616 2.424885 -0.28417966
-0.23023801 3.186203 -0.40435362
-0.15565111 1.42721 -0.19607557
0.0038730886 2.3623307 -0.34226951
-0.084458672 2.4148791 -0.37316477
-0.073074639 1.0166912 -0.16759503
-0.10963713 1.0067618 -0.1766194
0 0 -0
-0 0 -0
-0.065835856 0.92386979 -0.18749753
-0.099774629 0.91887987 -0.1967992
0 0 -0
-0 0 -0
-0 0 -0
-0.097755782 0.89736825 -0.22789283
0 0 -0
-0 0 -0
-0 0 -0
-0.085130073 0.78121477 -0.23068911
0.013084929 2.3837955 0.73646033
-0.080003999 2.4393127 0.72489232
-0.16859728 2.3791268 0.68314868
-0.25762275 2.3747389 0.65934062
0.011557388 2.3776815 0.63483751
-0.075479962 2.3199131 0.59424067
-0.16755038 2.3897884 0.58900559
-0.25864181 2.4108136 0.57110751
0.011358828 2.3452535 0.53261954
-0.077177308 2.3619349 0.51189083
-0.16824952 2.4130402 0.49982923
-0.26689082 2.5046 0.49521506
0.011046529 2.3928733 0.45084539
-0.077439912 2.3891342 0.42570701
-0.16730635 2.4171443 0.40776342
-0.25693136 2.4199553 0.38613415
0.011288641 2.3999507 0.36116311
-0.075666733 2.3714988 0.33329314
-0.1672933 2.4354668 0.31931049
-0.25775144 2.4484358 0.29854095
0.011701356 2.3986869 0.27122125
-0.076121651 2.3870637 0.24684657
-0.1674737 2.4524927 0.23063734
-0.25741342 2.4567554 0.20864457
0.012024502 2.3880327 0.18215831
-0.076392934 2.4194298 0.16124523
-0.17011233 2.5001204 0.14339232
-0.2531752 2.4240618 0.11587559
0.01289273 2.4100878 0.095157392
-0.075747259 2.4367318 0.072951667
-0.16477594 2.4399254 0.050286166
-0.2512916 2.4158213 0.026495757
0.013327319 2.4279537 0.006907376
-0.074763097 2.4337955 -0.01661689
-0.1638099 2.4401913 -0.039359178
-0.25167856 2.4281893 -0.062603302
0.014428033 2.3995805 -0.081280857
-0.072985284 2.4046392 -0.10415375
-0.16416849 2.4680927 -0.13075864
-0.2474981 2.3935595 -0.15012802
0.016088778 2.4099488 -0.17013006
-0.07135611 2.3922691 -0.1917222
-0.21110165 3.1812267 -0.28571922
-0.25228253 2.4469261 -0.24431632
0.016679361 2.3980968 -0.25806698
-0.069766872 2.3737433 -0.2781308
-0.21101063 3.1925054 -0.40498149
-0.13959205 1.3571748 -0.18633269
0.01886818 2.4265888 -0.3515898
-0.068899117 2.389667 -0.36919656
-0.070716962 1.0761981 -0.1773295
-0.10597369 1.0319151 -0.18091463
0.012429403 1.4548213 -0.26604837
-0 0 -0
-0.060102195 0.92327833 -0.18729913
-0.094333835 0.92142069 -0.19721571
0 0 -0
-0 0 -0
-0 0 -0
-0.091653287 0.89216417 -0.22642413
0 0 -0
-0 0 -0
-0 0 -0
-0.08082547 0.78649485 -0.23209746
0.027600309 2.3741164 0.73350859
-0.064294375 2.411968 0.71663558
-0.1576582 2.4367175 0.69939446
-0.24844129 2.4290173 0.67397487
0.026114477 2.3746676 0.63406366
-0.064515613 2.4442904 0.62598646
-0.15381333 2.405308 0.59258693
-0.2392436 2.3668389 0.56033182
0.02607001 2.3743927 0.53926343
-0.06343507 2.3906965 0.51803011
-0.15344022 2.4140272 0.49982923
-0.24632487 2.4544461 0.48499054
0.025506822 2.3721244 0.44695717
-0.06231359 2.3718491 0.42255101
-0.14967936 2.3738375 0.40029526
-0.24384637 2.4391756 0.38895491
0.02585347 2.3850043 0.35893098
-0.061114065 2.3719184 0.33329314
-0.15376963 2.4592087 0.32229346
-0.24135305 2.4361408 0.29685563
0.026244093 2.3826721 0.2694236
-0.062087957 2.411351 0.24931403
-0.15297794 2.4624176 0.23147807
-0.24262747 2.4612637 0.20889707
0.026799493 2.3988812 0.18299493
-0.060632851 2.3839443 0.15885246
-0.15433703 2.4941416 0.14299242
-0.238785 2.4305401 0.11611304
0.027577221 2.4009709 0.094802327
-0.06047029 2.4241605 0.072562829
-0.149618 2.437897 0.05022449
-0.23870273 2.440207 0.026746642
0.027817849 2.3928287 0.006807805
-0.059901908 2.4372075 -0.016637363
-0.14840814 2.4341645 -0.039246541
-0.23570818 2.4187434 -0.062321313
0.028932769 2.3814585 -0.080671512
-0.058398593 2.4120333 -0.10445652
-0.14775807 2.4481206 -0.12965007
-0.23512429 2.4188743 -0.15162246
0.030722287 2.3978355 -0.16928504
-0.057289813 2.4185717 -0.19379833
-0.19187728 3.187433 -0.28616551
-0.2340004 2.4147525 -0.24095599
0.031432539 2.4009318 -0.25838795
-0.056193274 2.4168231 -0.28313273
-0.18981525 3.1670017 -0.40159094
-0.15328193 1.5858194 -0.21759111
0.033646956 2.4185107 -0.35044268
-0.058293197 2.5688782 -0.39682144
-0.12957352 2.1758788 -0.35839054
-0.097179741 1.0070509 -0.1764476
0.034668855 2.3615801 -0.43190137
-0.022053996 0.99250197 -0.19124481
-0.053801611 0.91286707 -0.1851166
-0.087929204 0.91419357 -0.1955497
0.023390071 1.4954795 -0.33168992
-0 0 -0
-0 0 -0
-0.086736336 0.89850026 -0.22789283
0 0 -0
-0 0 -0
-0 0 -0
-0.076090336 0.78793103 -0.23237914
0.041929532 2.3605285 0.7293762
-0.049886886 2.4314852 0.72232991
-0.14197344 2.4251628 0.69581491
-0.22643334 2.3566117 0.65348685
0.040585361 2.3686666 0.63251591
-0.048182473 2.3787782 0.6091215
-0.14006017 2.4236567 0.59688449
-0.22232586 2.3430684 0.55437088
0.040354799 2.3576128 0.53549856
-0.04876484 2.3910408 0.51803011
-0.13694143 2.3855922 0.49375844
-0.22923626 2.4344194 0.48074636
0.039928664 2.364063 0.44547597
-0.047957193 2.3820298 0.42430434
-0.13673542 2.4032631 0.40510809
-0.22417237 2.3904762 0.3809627
0.040571019 2.389744 0.35967499
-0.04609273 2.3484869 0.32995465
-0.14068632 2.4957454 0.3269625
-0.2261252 2.4346104 0.29649448
0.040812284 2.3794858 0.26908657
-0.047310516 2.4126811 0.24941683
-0.13725396 2.4523749 0.23045051
-0.22587085 2.4448459 0.20738211
0.041224893 2.3817234 0.18170196
-0.045830864 2.3752928 0.15825427
-0.13875264 2.4900577 0.14270678
-0.22450791 2.4389222 0.11644547
0.042150322 2.3917649 0.094447263
-0.045312867 2.4094954 0.07211417
-0.13542821 2.4527447 0.05051231
-0.22135311 2.4157357 0.026463032
0.042197529 2.3756158 0.0067594419
-0.044835743 2.4315302 -0.016596418
-0.13341488 2.434031 -0.039230451
-0.22140771 2.4261172 -0.062475123
0.043544579 2.3812361 -0.080671512
-0.043760009 2.4213362 -0.10484579
-0.13186918 2.433027 -0.12880544
-0.22235858 2.4431324 -0.15305462
0.045566846 2.4045832 -0.16977796
-0.042448655 2.4188778 -0.19379833
-0.17220846 3.1865613 -0.28598702
-0.22313501 2.459748 -0.24530466
0.045972634 2.390753 -0.25731802
-0.040887043 2.3893168 -0.27987567
-0.16942033 3.150275 -0.39933059
-0.12980083 1.4347671 -0.19675218
0.048287638 2.4083641 -0.3490088
-0.041859098 2.5286734 -0.39056385
-0.10522421 1.9706951 -0.32448214
-0.089935489 0.99585462 -0.17438589
0.049240485 2.365257 -0.43262091
-0 0 -0
-0.04871596 0.92296755 -0.18710071
-0.083545484 0.92835385 -0.19846523
0.0252108 1.1575948 -0.25677824
-0 0 -0
-0 0 -0
-0.080698162 0.89322174 -0.22642413
0 0 -0
-0 0 -0
-0 0 -0
-0 0 -0
0.056207202 2.35163 0.72671962
-0.034511805 2.4001148 0.7129342
-0.12578262 2.4010277 0.68865573
-0.21490361 2.3905995 0.66253346
0.055028547 2.3645093 0.63148403
-0.033571981 2.3780606 0.60887349
-0.12378418 2.3973165 0.59019941
-0.21473877 2.4209833 0.57248312
0.054706719 2.3524461 0.53439122
-0.033396147 2.3424332 0.5074451
-0.12270213 2.3942118 0.49537733
-0.21567053 2.4514194 0.48383301
0.054772887 2.37851 0.44825321
-0.033285324 2.3783417 0.423603
-0.12128706 2.3902683 0.40278462
-0.20872486 2.3829517 0.3795523
0.05409085 2.3400202 0.35223448
-0.031842094 2.3606076 0.33162385
-0.122983 2.4490268 0.32073712
-0.21118245 2.4359519 0.29649448
0.054995306 2.3613093 0.26706418
-0.032224316 2.3920391 0.24725783
-0.12141132 2.4372609 0.22895591
-0.21411727 2.483911 0.21058036
0.05565111 2.373451 0.18109348
-0.031636164 2.4044628 0.16018178
-0.1214942 2.4509766 0.14042164
-0.209966 2.4452298 0.11668292
0.057062488 2.4014506 0.094841778
-0.03074288 2.4267192 0.072622657
-0.11959201 2.4375525 0.050183378
-0.20678166 2.4200375 0.026495757
0.05631924 2.3563175 0.0067053894
-0.029878408 2.4287598 -0.016575946
-0.11896339 2.4447906 -0.039391361
-0.20566975 2.4174693 -0.062218763
0.05822796 2.3839216 -0.08077307
-0.028615987 2.3975832 -0.10380772
-0.1166983 2.4288032 -0.1285415
-0.20601381 2.428539 -0.15205833
0.059769824 2.3823199 -0.16822878
-0.027446659 2.4051383 -0.19268042
-0.14622085 3.0532508 -0.27393699
-0.20795426 2.4600794 -0.24520583
0.060515076 2.3854561 -0.25678304
-0.026432805 2.4083927 -0.28208584
-0.14886029 3.1254902 -0.39606559
-0 0 -0
0.062571891 2.3892252 -0.34628442
-0.026898546 2.5822473 -0.39880556
-0.077950038 1.6499811 -0.27159154
-0.087126724 1.0356542 -0.18125823
0.063805513 2.3668768 -0.43298066
-0.009960698 1.0015349 -0.1929473
-0.042595278 0.91345859 -0.1851166
-0.07605052 0.90740651 -0.19388366
0.032667384 1.1701049 -0.25959283
-0 0 -0
-0 0 -0
-0 0 -0
0 0 -0
-0 0 -0
-0 0 -0
-0 0 -0
0.070549406 2.3483758 0.72583407
-0.01950779 2.3667309 0.70296907
-0.11126983 2.4065557 0.69003248
-0.19982906 2.3870702 0.66120315
0.069677889 2.3689559 0.63277382
-0.019072616 2.3898463 0.61184961
-0.11044 2.4281032 0.59760076
-0.20236135 2.4523273 0.57959038
0.06896811 2.3462176 0.5330624
-0.019046428 2.345526 0.50808024
-0.10906812 2.4183991 0.50023395
-0.20302466 2.4820349 0.48962048
0.06899365 2.3653595 0.44584629
-0.018567683 2.3627496 0.42079768
-0.10718945 2.4037747 0.4049421
-0.19538166 2.3999379 0.38205969
0.069055192 2.3604014 0.35535949
-0.017335238 2.3577876 0.33120656
-0.10804105 2.4517167 0.32099652
-0.19575372 2.4312649 0.29577222
0.06921991 2.3519883 0.26605299
-0.017582912 2.3971651 0.24777186
-0.10562906 2.4190609 0.22718106
-0.19720307 2.4643195 0.20881291
0.069947891 2.364095 0.18040898
-0.016868053 2.4026163 0.16004886
-0.10506712 2.4197581 0.13859354
-0.19384754 2.4325321 0.11601806
0.07137832 2.3870726 0.094289452
-0.015839174 2.4248629 0.072562829
-0.10394738 2.4222584 0.049854439
-0.19303492 2.435216 0.026648469
0.070295826 2.3399348 0.006659871
-0.014950594 2.4248977 -0.016548648
-0.10353553 2.4354849 -0.039230451
-0.19169749 2.4296482 -0.06250076
0.072457388 2.370533 -0.08033298
-0.013938914 2.403708 -0.10406724
-0.10279655 2.453419 -0.12980844
-0.18993481 2.4148324 -0.15112431
0.074168384 2.3749292 -0.16773586
-0.012683234 2.4042647 -0.19260058
-0.10202018 2.4440684 -0.219221
-0.19355516 2.4702375 -0.24609531
0.074743755 2.3721209 -0.25539213
-0.011625852 2.4025502 -0.2813879
-0.10237882 2.4681668 -0.31268337
-0.19057435 2.4398501 -0.3342351
0.076814987 2.3759375 -0.34442037
-0.0105968 2.4756298 -0.38232219
-0.098333329 2.3928254 -0.39375907
-0.080157951 1.0283121 -0.17988376
0.077676371 2.3467779 -0.42938298
-0.0038787941 1.0182701 -0.19616307
-0.036870666 0.91076481 -0.18452138
-0.070102826 0.90298033 -0.19284239
0.077333249 2.2704892 -0.50381362
-0 0 -0
-0 0 -0
-0.069730878 0.89414477 -0.22642413
0 0 -0
-0 0 -0
-0 0 -0
-0.062693745 0.80354714 -0.2366042
0.084819242 2.3440795 0.72465336
-0.0049975496 2.3725579 0.7046774
-0.098234259 2.4504189 0.70242333
-0.18562561 2.3940179 0.6627996
0.083800256 2.3568974 0.62967837
-0.0044102231 2.3908873 0.61209768
-0.095921062 2.4384384 0.59998828
-0.18086414 2.369086 0.5596441
0.083397567 2.346725 0.53328389
-0.0047472767 2.3925109 0.51824182
-0.092168696 2.3661802 0.48930654
-0.18727341 2.4763851 0.48827007
0.082673639 2.3413212 0.44140261
-0.0041155596 2.3894005 0.42553166
-0.091491051 2.3797522 0.40079314
-0.18206009 2.4198036 0.38503715
0.083082274 2.3470862 0.35342497
-0.0029135675 2.3954804 0.33649251
-0.092469536 2.4384615 0.31918079
-0.18186247 2.4462802 0.29745755
0.083650135 2.3515191 0.26605299
-0.0028762384 2.3992174 0.2479775
-0.090597339 2.4146888 0.22671399
-0.18413347 2.4933078 0.21116951
