# .PCD v0.7 - Point Cloud Data file format
VERSION 0.7
FIELDS x y z
SIZE 4 4 4
TYPE F F F
COUNT 1 1 1
WIDTH 1426
HEIGHT 1
VIEWPOINT 0 0 0 1 0 0 0
POINTS 1426
DATA ascii
0.87951791 -0.042818457 0.050387263
0.88093585 -0.0110275 0.041886177
0.8559258 -0.10488503 0.034046777
0.86842549 -0.074437916 0.026081942
0.88374442 -0.043472592 0.018194301
0.88787293 -0.01148631 0.0096863862
0.86848521 -0.10654715 0.0024892727
0.85979998 -0.074016035 -0.0058892714
0.8768087 -0.043484248 -0.01412811
0.88263172 -0.011742061 -0.022636658
0.85404813 -0.10522991 -0.029147364
0.86794633 -0.0750378 -0.037716806
0.88265437 -0.044314682 -0.04671837
0 -0 -0
0.86719596 -0.10743383 -0.061686229
0.85998762 -0.074803412 -0.069150954
0.87438321 -0.044037115 -0.07845898
0.86068255 -0.011915821 -0.085490949
0.85841382 -0.10658924 -0.093083858
0.85091633 -0.074388482 -0.10003868
0.8540827 -0.043238875 -0.10824621
0.84804261 -0.011948083 -0.11583209
0.90346181 -0.11293547 -0.13191786
0.85945207 -0.075618386 -0.13324043
0.8642571 -0.044086672 -0.14228542
0.84121597 -0.011984066 -0.14672467
0.95159739 -0.11969483 -0.17538685
0.87444472 -0.077352785 -0.16911262
0.86331546 -0.044567399 -0.17499769
0.85279101 -0.012416934 -0.18159673
0.96368831 -0.12215548 -0.21542525
0.93642467 -0.08326377 -0.21771774
0.86976194 -0.044991516 -0.21048974
0.8327834 -0.011834859 -0.21026845
0.94909358 -0.12121446 -0.25029871
0.94096202 -0.084379032 -0.25673267
0.90148985 -0.046869397 -0.254879
0.85004121 -0.012050436 -0.2495611
0.82157075 -0.10591248 0.2559163
0.80866259 -0.072921708 0.24115627
0.84195983 -0.043797392 0.24148382
0.8433671 -0.012361613 0.23281801
0.82030803 -0.10522576 0.22081305
0.82974416 -0.075041756 0.21329172
0.84657502 -0.044674557 0.20843206
0.89148891 -0.014125243 0.21000981
0.8269949 -0.10606886 0.18935122
0.84975582 -0.07673198 0.18481417
0.84884375 -0.045121126 0.1756485
0.87021869 -0.014411104 0.17111638
0.85193479 -0.10907113 0.16182293
0.8442077 -0.076453812 0.15096118
0.84390134 -0.045286763 0.14222762
0.86702752 -0.014691266 0.13759163
0 -0 0
0.84812886 -0.077241741 0.11962941
0.86930895 -0.047106717 0.1138727
0 -0 0
0.85056454 -0.10912204 0.096961036
0.85885 -0.078233264 0.089136183
0.86987883 -0.047487825 0.081736602
0 -0 0
0.84557587 -0.10861704 0.065029368
0.8694405 -0.079473376 0.058157284
0.88123238 -0.048323601 0.050501522
0.8818503 -0.016451243 0.041933663
0.85130197 -0.10962445 0.03388897
0.87193382 -0.080130972 0.026201583
0.88445926 -0.048949577 0.018214859
0.87978768 -0.01678142 0.0095991213
0.86186433 -0.11110692 0.0024722032
0.8503679 -0.078463376 -0.0058278539
0.86853892 -0.048418205 -0.013999381
0.87954462 -0.017099274 -0.022559751
0.85536867 -0.11072487 -0.029215069
0.86548001 -0.080177695 -0.037630297
0.87937474 -0.049561135 -0.046560001
0.88510728 -0.017423773 -0.055231668
0.85366112 -0.11107955 -0.060770795
0.8614974 -0.080263726 -0.06931065
0.86912441 -0.049120389 -0.078012682
0.87054229 -0.01739545 -0.086479284
0.85774362 -0.11185436 -0.093083858
0.84451056 -0.079052798 -0.099340744
0.84983933 -0.048253655 -0.10774391
0 -0 -0
0.92630196 -0.12156759 -0.13535921
0.85405225 -0.080427177 -0.13247731
0.86200005 -0.049276195 -0.14196095
0.849006 -0.017306058 -0.14809914
0.94499373 -0.12475897 -0.17430755
0.89155 -0.084382266 -0.17251758
0.86400425 -0.049920298 -0.1751961
0.843898 -0.017467167 -0.17972244
0.94162989 -0.12523465 -0.21066207
0.93783587 -0.089192472 -0.21816897
0.88111424 -0.051001456 -0.2133088
0.85014391 -0.017299565 -0.21467455
0.94257873 -0.12626502 -0.24878021
0.94715083 -0.090795673 -0.25856838
0.92040038 -0.053517222 -0.26031354
0.85570717 -0.017382888 -0.25125113
0.80386239 -0.10864806 0.25060314
0.81965017 -0.078985602 0.24457288
0.84167528 -0.048962735 0.24148382
0.84905779 -0.017656431 0.23441447
0.81868935 -0.11012829 0.22055508
0.82733959 -0.079945207 0.2127957
0.83465225 -0.049182732 0.20556703
0.88943917 -0.019552264 0.20955127
0.82342911 -0.11075124 0.18868683
0.84829623 -0.081850678 0.18460248
0.8426854 -0.049980793 0.17443433
0.86324716 -0.01959453 0.16976598
0.85514539 -0.11481955 0.16256355
0.8437227 -0.081632338 0.15096118
0.84557635 -0.050581761 0.14255954
0.86395895 -0.019942597 0.1371215
0.84383106 -0.11337536 0.12812586
0.84271079 -0.081964985 0.11893389
0.86900353 -0.052439809 0.1138727
0 -0 0
0.85480291 -0.1150014 0.097522803
0.85736382 -0.083405286 0.08903338
0.86261445 -0.052401807 0.081082709
0 -0 0
0.83698809 -0.11273853 0.064420909
0.86297804 -0.084225133 0.057758488
0.88390881 -0.05391217 0.050672904
0.88472849 -0.021936143 0.042076137
0.85457426 -0.11538066 0.034046777
0.87242049 -0.08557713 0.026231494
0.88214648 -0.054252852 0.018173741
0.87866855 -0.022154177 0.0095882127
0.85918444 -0.11612526 0.0024665135
0.85783178 -0.084463544 -0.0058824471
0.86722744 -0.053684767 -0.013983289
0.87642509 -0.022419047 -0.02248284
0.85566348 -0.11610562 -0.029248921
0.86298329 -0.085290149 -0.037543792
0.87606412 -0.054769021 -0.046401635
0.87700194 -0.022648236 -0.05473353
0.86482394 -0.11793279 -0.061615814
0.86098874 -0.085548259 -0.06931065
0.86781257 -0.054390009 -0.077923425
0.87041914 -0.02273667 -0.086479284
0.85901135 -0.11738449 -0.093297839
0.85488099 -0.085318103 -0.10062031
0.85150748 -0.053591892 -0.10799506
0.85674626 -0.022589 -0.11704995
0.94416702 -0.12981014 -0.13808361
0.85944277 -0.086258188 -0.13339305
0.86266619 -0.054626759 -0.14212319
0.84100556 -0.022306178 -0.14672467
0.96174997 -0.13298017 -0.17754546
0.89199245 -0.089949645 -0.17270674
0.86368167 -0.05522079 -0.1751961
0.85648531 -0.022986015 -0.18242975
0.95051324 -0.13235646 -0.21282715
0.94308645 -0.095534354 -0.21952266
0.87787461 -0.056220543 -0.21260403
0.8461448 -0.02241293 -0.21369542
0.95040888 -0.13325517 -0.25105795
0.94273579 -0.096213669 -0.25751939
0.96039104 -0.061757497 -0.27172601
0.87956381 -0.023267418 -0.25829294
0.79939646 -0.11304331 0.24942245
0.80389237 -0.082448535 0.24001738
0.82792795 -0.053262193 0.23762889
0.86242396 -0.023229182 0.23813955
0.81799823 -0.1151496 0.22055508
0.83550656 -0.085911982 0.21502782
0.83045864 -0.054050855 0.20461202
0.88346457 -0.024845218 0.20817567
0.81694013 -0.11498611 0.18735804
0.84777802 -0.087054186 0.18460248
0.84529454 -0.055342413 0.17504142
0.85526419 -0.024664663 0.16822265
0.85150534 -0.11965422 0.16200809
0.84222656 -0.086706959 0.15078583
0.85213804 -0.056223631 0.14372125
0.86283308 -0.025214523 0.13696478
0.84899491 -0.11937701 0.12901871
0.84120703 -0.087032303 0.11879479
0.86767602 -0.05770513 0.11374301
0.86625886 -0.026086384 0.10509123
0.85211331 -0.11996715 0.097298101
0.85584652 -0.088562019 0.08893057
0.85730964 -0.057361387 0.080615647
0.86551148 -0.026487237 0.07313922
0.84220463 -0.11870705 0.064877257
0.85748273 -0.089003615 0.057426162
0.88356137 -0.059334718 0.050672904
0.87858689 -0.02717901 0.041791197
0.84593505 -0.11950389 0.033731163
0.86293155 -0.089995459 0.025962299
0.88079947 -0.059597082 0.018153183
0 -0 0
0 -0 0
0.85530829 -0.089517333 -0.0058687986
0.86787933 -0.059072867 -0.013999381
0.87926859 -0.027891353 -0.022559751
0.8519665 -0.12093232 -0.029147364
0.86244369 -0.090583704 -0.037543792
0.87571156 -0.060143419 -0.046401635
0.87983906 -0.028124653 -0.054920331
0.86408406 -0.12323703 -0.061615814
0.86044759 -0.090829581 -0.06931065
0.86746252 -0.059713785 -0.077923425
0.87324697 -0.028173296 -0.08677578
0.86614901 -0.12377834 -0.094153784
0.85335368 -0.090457253 -0.10050398
0.85116261 -0.058815636 -0.10799506
0.85857207 -0.027909853 -0.11732058
0.95118952 -0.13672748 -0.13923071
0.87265545 -0.092996165 -0.13552979
0.8662523 -0.060192551 -0.14277215
0.85463732 -0.027916335 -0.14913
0.95799518 -0.13845672 -0.17700581
0.91485655 -0.09792944 -0.17724667
0.86528206 -0.060656279 -0.17559293
0.86317092 -0.028466545 -0.18388751
0.94581878 -0.13762392 -0.21196112
0.95507479 -0.10267293 -0.22245565
0.91920716 -0.064533159 -0.22270568
0.84792948 -0.027667595 -0.21418498
0.95340228 -0.13964508 -0.25207028
0.9430871 -0.10210024 -0.25778165
0.96479404 -0.067987427 -0.27308464
0.86885542 -0.028320041 -0.25519451
0.82326281 -0.1215753 0.25709698
0.81480724 -0.088623412 0.243434
0.8266266 -0.058273658 0.23735355
0.86611885 -0.028647944 0.23920387
0.81727624 -0.12016658 0.22055508
0.83496368 -0.091036938 0.21502782
0.82526821 -0.058800366 0.20341824
0.87648594 -0.030032262 0.20657079
0.81428963 -0.11971293 0.18691511
0.8404268 -0.091513842 0.18312058
0.84786946 -0.060737923 0.1756485
0.85803866 -0.030014912 0.1688014
0.85853344 -0.12601843 0.1634893
0.84265739 -0.091979966 0.15096118
0.84980983 -0.061309274 0.14338933
0 -0 0
0.85020316 -0.12487148 0.12931633
0.84361029 -0.09251608 0.11921211
0.86730564 -0.063028008 0.11374301
0 -0 0
0.8415302 -0.12374771 0.096174568
0.85825324 -0.094137087 0.089238994
0.86786431 -0.063418835 0.081643187
0.87529051 -0.032163326 0.073980875
0.82370394 -0.12125853 0.06350822
0.85692048 -0.094263352 0.057426162
0.88417643 -0.064828038 0.050730035
0.88139808 -0.032680437 0.041933663
0.84815145 -0.12512971 0.033849519
0.86733061 -0.095837504 0.026111851
0.88340843 -0.065221287 0.018214859
0.88232738 -0.033084996 0.0096318452
0.85274839 -0.12592958 0.0024522892
0.86070627 -0.095424868 -0.0059097442
0.85952348 -0.063804805 -0.013870651
0.87908089 -0.03328592 -0.022559751
0.85417426 -0.12659718 -0.029248921
0.85789984 -0.095432043 -0.037370779
0.88130099 -0.065962754 -0.04671837
0.8756606 -0.033370685 -0.054671258
0.86331159 -0.12853663 -0.061615814
0.85987407 -0.096107475 -0.06931065
0.86410022 -0.064811826 -0.077655651
0.87703514 -0.033683669 -0.087171115
0.85553944 -0.12762366 -0.093083858
0.86067873 -0.096577659 -0.10143457
0.8478179 -0.063813783 -0.10761834
0.86036474 -0.03325396 -0.11759122
0.94739652 -0.14212084 -0.13880055
0.86715806 -0.097795159 -0.13476665
0.85897905 -0.064985566 -0.14163646
0.8613407 -0.033427183 -0.15033266
0.96588176 -0.14565237 -0.17862476
0.92789835 -0.10508809 -0.17989497
0.88443917 -0.067455128 -0.17956112
0.85516143 -0.033456441 -0.18222149
0.95171314 -0.14445028 -0.21347667
0.95249087 -0.10831108 -0.22200441
0.92751658 -0.07083828 -0.22481996
0.852588 -0.033057701 -0.21540891
0.96017832 -0.14666103 -0.25409496
0.94244283 -0.10788499 -0.25778165
0.94324839 -0.072288178 -0.26710668
0.8648302 -0.033502135 -0.25406787
0.82250136 -0.12662445 0.25709698
0.81139112 -0.09329281 0.24257985
0.82050234 -0.062903732 0.23570144
0.85918427 -0.033697367 0.23734131
0.82129854 -0.12591107 0.22184488
0.83631414 -0.096380278 0.21552385
0.82295549 -0.063713096 0.20294073
0 -0 0
0.81932318 -0.1255936 0.1882439
0.84664589 -0.097451173 0.18460248
0.84748077 -0.06593921 0.1756485
0 -0 0
0.85191566 -0.13039185 0.1623784
0.84305519 -0.097261511 0.1511365
0.84941763 -0.066522457 0.14338933
0 -0 0
0.85039848 -0.13023558 0.12946515
0.84499413 -0.097918615 0.11949031
0.85998321 -0.067802966 0.11283514
0 -0 0
0.86039883 -0.1319208 0.098421633
0.85667139 -0.099286936 0.089136183
0.85654122 -0.067877576 0.080615647
0 -0 0
0.83082891 -0.12752056 0.064116679
0.85731709 -0.099634737 0.057492629
0.87679535 -0.069698237 0.050330132
0 -0 0
0.84638005 -0.13017963 0.033810068
0.86871189 -0.1013893 0.026171673
0.8839882 -0.070720278 0.018235417
0.8781119 -0.038323838 0.0095882127
0.85690141 -0.13192037 0.0024665135
0.85911137 -0.10058798 -0.0059029199
0.85811919 -0.068997405 -0.01385456
0.87886012 -0.038679231 -0.022559751
0.87412333 -0.13504027 -0.029959835
0.85035247 -0.099878415 -0.037068006
0.87391222 -0.070804574 -0.046348844
0.88241899 -0.039051894 -0.055107135
0.8565923 -0.13291368 -0.061193302
0.85926819 -0.10138176 -0.06931065
0.86864996 -0.070515566 -0.078101948
0.86587667 -0.038577225 -0.086083949
0.87045956 -0.13531435 -0.094795741
0.86204255 -0.10209049 -0.10166722
0.85037678 -0.069256283 -0.10799506
0.8591547 -0.038488094 -0.1174559
0.94455105 -0.14762563 -0.13851376
0.87929934 -0.1046322 -0.13675077
0.85954762 -0.070335411 -0.1417987
0.86407179 -0.038844366 -0.15084808
0.95233685 -0.14959179 -0.17628627
0.93211114 -0.11136203 -0.18084079
0.90549839 -0.074652359 -0.18392615
0.86373371 -0.039101072 -0.18409577
0.95177323 -0.15043958 -0.21369319
0.95857936 -0.11496548 -0.22358371
0.94353271 -0.07788752 -0.22881362
0.86980391 -0.039071631 -0.219815
0.95830488 -0.15239787 -0.25384185
0.94176316 -0.11366568 -0.25778165
0.95717347 -0.079265848 -0.27118257
0.8818621 -0.039582442 -0.25913793
0.83680344 -0.13408756 0.26181978
0.80985171 -0.098154314 0.24229512
0.81626868 -0.067619592 0.23460004
0.85607249 -0.03883753 0.23654309
0.82432681 -0.13155715 0.22287671
0.8251285 -0.10022506 0.2127957
0.819646 -0.068518773 0.20222448
0.86049449 -0.040061556 0.2029025
0.8175742 -0.13046484 0.18802243
0.83632982 -0.10146715 0.18248548
0.84803611 -0.071219966 0.17585085
0.85172492 -0.0402641 0.16764389
0.85498142 -0.13623519 0.163119
0.84341985 -0.1025514 0.15131183
0.84899348 -0.071733132 0.14338933
0 -0 0
0.85348946 -0.13607384 0.13006039
0.84241146 -0.10286151 0.11921211
0 -0 0
0.87455595 -0.042460226 0.10617465
0.83896697 -0.13390863 0.096062206
0.85703343 -0.10466208 0.089238994
0.85908467 -0.073386163 0.080895886
0.87482989 -0.042902067 0.073980875
0.83692306 -0.13371722 0.064649083
0.85668963 -0.10489326 0.057492629
0.87436175 -0.074906401 0.050215878
0.87494475 -0.043198545 0.041648727
0.84951204 -0.1360023 0.033967875
0.86410511 -0.10622985 0.026052032
0.87756109 -0.075627938 0.018112065
0.87885886 -0.043760836 0.0095991213
0.86693722 -0.13891613 0.0024978071
0.85947043 -0.10597987 -0.0059097442
0.86066806 -0.074520178 -0.013902833
0.87561095 -0.043920841 -0.02248284
0.8614372 -0.13849749 -0.029553598
0.84873211 -0.10497157 -0.037024755
0.87744063 -0.076512463 -0.046560001
0.8731916 -0.044013388 -0.054546721
0.86265403 -0.13928011 -0.061686229
0.86555439 -0.10751232 -0.069869608
0.85927087 -0.075064063 -0.077298611
0.87556195 -0.044393316 -0.087072283
0.85685337 -0.13858908 -0.09340483
0.86238551 -0.10750082 -0.10178355
0.85981882 -0.075338759 -0.10925082
0.85989189 -0.043809455 -0.11759122
0.94460434 -0.15357733 -0.13865715
0.91296273 -0.11432339 -0.1420926
0.85320216 -0.075089127 -0.14082526
0.86381716 -0.04414548 -0.15084808
0.96110928 -0.15701845 -0.17808512
0.94797301 -0.11916121 -0.18405658
0.88549745 -0.078476526 -0.17995796
0.85957038 -0.044199198 -0.18326275
0.9440887 -0.15516837 -0.21217762
0.94432414 -0.11913785 -0.22042511
0.93432313 -0.082902275 -0.22669932
0.87148446 -0.044506814 -0.22030455
0.95639735 -0.15811726 -0.2535888
0.94296265 -0.11968511 -0.25830612
0.95858622 -0.085308075 -0.27172601
0.89693487 -0.045775183 -0.2636447
0.78695685 -0.13105787 0.2464707
0.80257779 -0.10227339 0.2403021
0.81679595 -0.072712094 0.23487538
0.84811664 -0.043692805 0.23441447
0.8263635 -0.137087 0.2236506
0.83122468 -0.10614505 0.21453181
0.82307887 -0.073894054 0.20317948
0.84759629 -0.044674672 0.19992201
0.8302266 -0.13771297 0.19112292
0.83956939 -0.10709151 0.18333228
0.84855855 -0.07651002 0.17605323
0.85146183 -0.045489427 0.16764389
0.8550989 -0.14163929 0.16330415
0.84082162 -0.10747495 0.15096118
0.8505016 -0.077119216 0.14372125
0 -0 0
0.86239409 -0.14292499 0.13154849
0.8476578 -0.10878483 0.12004673
0.85908639 -0.078351177 0.11283514
0.87626147 -0.047934052 0.10641541
0.8459717 -0.14035501 0.096961036
0.85933495 -0.11029868 0.089547426
0.85960966 -0.078746855 0.080989301
0.86659068 -0.047829803 0.073307559
0.83608687 -0.13884997 0.064649083
0.84811282 -0.10912912 0.056960907
0.87289149 -0.080178656 0.050158747
0.87566054 -0.048621669 0.041696217
0.8378191 -0.13940814 0.033533905
0.85550648 -0.11050551 0.025812747
0.87807608 -0.081103079 0.018132623
0.88156891 -0.049320154 0.0096318452
0.85127234 -0.14176883 0.0024551339
0.86177903 -0.11163688 -0.0059302165
0.86019462 -0.079799734 -0.013902833
0.87432688 -0.049236458 -0.022457205
0.86155695 -0.14394526 -0.029587451
0.85500723 -0.11107829 -0.037327524
0.87695462 -0.081894897 -0.046560001
0 -0 -0
0.86670202 -0.1453958 -0.062038321
0.8599363 -0.11217654 -0.069470353
0.86474413 -0.080891632 -0.077834167
0.87427956 -0.04970834 -0.086973451
0.85696733 -0.1440088 -0.09351182
0.86564893 -0.1133059 -0.10224885
0.85538942 -0.080242455 -0.10874852
0.85861772 -0.049028344 -0.1174559
0.94949925 -0.16035928 -0.13951749
0.93282098 -0.12262809 -0.14529769
0.86254936 -0.081248239 -0.14244767
0.8694312 -0.049782824 -0.15187894
0.95818806 -0.16258363 -0.17772534
0.95014459 -0.12536095 -0.18462408
0.91915023 -0.087146275 -0.1869023
0.86904758 -0.05003478 -0.18534528
0.94696832 -0.16161524 -0.21304366
0.95130163 -0.12595284 -0.22223003
0.95121485 -0.090286888 -0.23092791
0.90217078 -0.051625866 -0.22813761
0.95922309 -0.16463724 -0.25460112
0.9364711 -0.12470448 -0.25673267
0.96091884 -0.091461807 -0.2725412
0.93303907 -0.053359602 -0.2743482
0.78331339 -0.13539588 0.24558517
0.81333709 -0.1087201 0.24371873
0.80676425 -0.076811321 0.23212186
0.83820909 -0.048340924 0.23175369
0.83217174 -0.14330262 0.2254563
0.82383645 -0.11034311 0.2127957
0.82164329 -0.078850217 0.20294073
0.84924954 -0.049988974 0.20038053
0.81591165 -0.14048791 0.18802243
0.83502167 -0.11172256 0.18248548
0.8490479 -0.081809163 0.17625558
0 -0 0
0.86099321 -0.14804916 0.16460022
0.84502524 -0.11328619 0.15183784
0.85001236 -0.082336344 0.14372125
0.8567242 -0.051374298 0.13618124
0.86344993 -0.14854917 0.13184611
0.84108579 -0.11319145 0.11921211
0.85266811 -0.083044261 0.11205696
0.87892354 -0.053490702 0.10677654
0.83823985 -0.14436263 0.096174568
0.85864198 -0.11556938 0.089547426
0.86109203 -0.084213652 0.081176125
0.86528629 -0.053085189 0.07322339
0.84995836 -0.14651828 0.065789953
0.85336024 -0.11513144 0.057359695
0.86642146 -0.084948599 0.049815979
0 -0 0
0.84285587 -0.14556661 0.033770617
0.85778385 -0.11615511 0.025902478
0.87457699 -0.086195149 0.018070949
0 -0 0
0.85728419 -0.14818174 0.0024750482
0.86702317 -0.11772985 -0.0059711616
0.85670376 -0.084780887 -0.01385456
0 -0 -0
0.8636117 -0.14974119 -0.02968901
0.85034984 -0.11578327 -0.037154511
0.86550504 -0.086185791 -0.045979321
0.87756622 -0.055037837 -0.054858062
0.85989714 -0.14968464 -0.061615814
0.86318225 -0.1179909 -0.069789752
0.8563028 -0.08540529 -0.077120088
0.86303359 -0.054383483 -0.085886277
0.86390346 -0.15063061 -0.094367765
0.86493742 -0.1186153 -0.10224885
0.86179101 -0.086180538 -0.10962754
0.8573119 -0.054233249 -0.11732058
0.94264859 -0.16515751 -0.13865715
0.92911386 -0.12794501 -0.14483982
0.86399829 -0.086736344 -0.14277215
0.85731149 -0.054368425 -0.14981723
0.94651568 -0.16658434 -0.17574662
0.95227557 -0.13159181 -0.18519156
0.95467901 -0.096428834 -0.19424348
0.86774814 -0.055304006 -0.18513703
0.94692022 -0.16759284 -0.21326017
0.95244086 -0.13205513 -0.22268125
0.94870877 -0.095926166 -0.23045808
0.90861046 -0.057589833 -0.2298511
0.95533741 -0.17001131 -0.25384185
0.94046712 -0.13111444 -0.25804389
0.95746714 -0.097064979 -0.27172601
0.94801557 -0.06005419 -0.27885497
0.83513403 -0.14963618 0.26211494
0.80980659 -0.11331008 0.24286456
0.80627775 -0.081760094 0.23212186
0 -0 0
0.83508128 -0.14908524 0.22648814
0.82314384 -0.11539599 0.2127957
0.8240422 -0.08418633 0.203657
0.84698421 -0.055072621 0.19992201
0.83807409 -0.14960444 0.19333756
0.83722413 -0.1172507 0.18312058
0.84560728 -0.086717568 0.1756485
0.85181862 -0.055999119 0.16783682
0.85232896 -0.15194952 0.163119
0.85016394 -0.11928983 0.15288982
0.84654832 -0.087247074 0.14322338
0 -0 0
0.85181373 -0.15193439 0.13020921
0.84920084 -0.119593 0.12046404
0.85608763 -0.088683248 0.11257575
0.8805598 -0.059015438 0.1070173
0.84027278 -0.1500272 0.096511625
0.85791671 -0.12083574 0.089547426
0.85758829 -0.089186668 0.080895886
0.86395007 -0.058326364 0.07313922
0.85296947 -0.1524324 0.066094175
0.84868574 -0.1198075 0.057093836
0.86290497 -0.089952722 0.049644593
0.88197404 -0.059836999 0.042028647
0.83899605 -0.15020725 0.033652261
0.85111696 -0.12057496 0.025723014
0.87104863 -0.091247343 0.018009273
0 -0 0
0.85635883 -0.15343915 0.0024750482
0.85440397 -0.12136008 -0.0058892714
0.85616744 -0.090035923 -0.01385456
0.87265956 -0.059893638 -0.022431569
0.86169302 -0.15486062 -0.029655159
0.85061246 -0.1211396 -0.037197765
0.86893219 -0.091914997 -0.046190478
0.87223351 -0.060078532 -0.054546721
0.86485255 -0.15602063 -0.062038321
0.86540234 -0.12370825 -0.070029311
0.85675317 -0.090762787 -0.077209353
0.86864012 -0.060089979 -0.086479284
0.86296296 -0.15592858 -0.094367765
0.87697428 -0.12575294 -0.10376105
0.85828644 -0.091152452 -0.10925082
0.86388195 -0.059972923 -0.1182678
0.93772244 -0.1702313 -0.13808361
0.93124592 -0.134066 -0.14529769
0.8673746 -0.092454456 -0.14342111
0.85597897 -0.059559386 -0.14964543
0.95999169 -0.17503563 -0.17844488
0.95728141 -0.13827467 -0.18632655
0.95114583 -0.10197139 -0.19364825
0.88593066 -0.061923116 -0.18909384
0.95547682 -0.17516027 -0.21542525
0.95064855 -0.137757 -0.22245565
0.95583403 -0.10257525 -0.23233745
0.94112623 -0.065450959 -0.23817371
0.9495191 -0.17499323 -0.25257644
0.95110404 -0.13855188 -0.26119077
0.95589679 -0.10283513 -0.2714543
0.95145798 -0.066136114 -0.27998164
0.836079 -0.15510619 0.2627053
0.81478727 -0.11910879 0.24457288
0.81531918 -0.087734319 0.23487538
0.81928235 -0.057344586 0.22669822
0.83130068 -0.1536795 0.22571428
0.81954467 -0.1200234 0.21205166
0.82157928 -0.089031726 0.20317948
0 -0 0
0.81987971 -0.15155335 0.18935122
0.83165365 -0.12167817 0.18206207
0.84505928 -0.091904484 0.1756485
0.85145903 -0.061224725 0.16783682
0.8658762 -0.15985256 0.16589628
0.84649366 -0.12407575 0.15236382
0 -0 0
0.86785018 -0.062738307 0.13806176
0.87323105 -0.16128917 0.13363184
0.84845102 -0.12480135 0.12046404
0.85749865 -0.094150878 0.11283514
0 -0 0
0.84031355 -0.15536085 0.09662398
0.8542068 -0.12566322 0.089238994
0.85999382 -0.094774231 0.081176125
0 -0 0
0.84025264 -0.15548609 0.065181486
0.84990895 -0.12530375 0.05722677
0.86332917 -0.095355317 0.049701724
0.86963648 -0.064362846 0.041458767
0.82626879 -0.15316691 0.03317884
0.84937227 -0.12564877 0.025693106
0.86749125 -0.096259482 0.017947597
0.87752026 -0.065315932 0.0095991213
0.86228371 -0.15996759 0.0024949624
0.85364324 -0.12660031 -0.0058892714
0.85758632 -0.095508911 -0.013886741
0 -0 -0
0.86072659 -0.16014495 -0.029655159
0.85578239 -0.12723814 -0.037457287
0.86537462 -0.09691152 -0.046032108
0.87284368 -0.065504014 -0.05460899
0.87760687 -0.16388793 -0.063024171
0.86659884 -0.12931015 -0.070189014
0.85420048 -0.095796004 -0.07703083
0.85237837 -0.064222492 -0.084897943
0.8981505 -0.16798392 -0.098326504
0.86931032 -0.13010253 -0.10294679
0.86756968 -0.097525321 -0.11050658
0.86152172 -0.065123111 -0.11799717
0.93471491 -0.17561637 -0.13779682
0.94017899 -0.14124577 -0.14682393
0.88444054 -0.099765718 -0.14634146
0.85854435 -0.065033682 -0.15016085
0.95986623 -0.18110511 -0.17862476
0.96029884 -0.14473119 -0.1870832
0.96413648 -0.10935198 -0.19642599
0.89918762 -0.068396479 -0.19200939
0.95726156 -0.18156545 -0.21607476
0.94111592 -0.14227685 -0.22042511
0.95711827 -0.1086575 -0.23280729
0.93297237 -0.070638761 -0.23621544
0.94557655 -0.18027255 -0.2518172
0.95023596 -0.14438513 -0.26119077
0.94472951 -0.10750158 -0.26846531
0.95581824 -0.072334945 -0.28139001
0.82103664 -0.1575328 0.25827768
0.81214577 -0.12381703 0.24400344
0.80616891 -0.091756918 0.23239721
0.82083738 -0.062516935 0.22723037
0.83129102 -0.15895882 0.22597224
0.82453877 -0.12592733 0.21353975
0.82584137 -0.094623886 0.20437327
0.84236276 -0.065161988 0.19900493
0.82085001 -0.15694746 0.18979414
0.83282375 -0.12707365 0.18248548
0.84739822 -0.097423501 0.17625558
0.85008901 -0.06637165 0.16764389
0.85426116 -0.16313481 0.16385962
0.84960926 -0.12986241 0.15306516
0.84933245 -0.098081462 0.14388722
0.86351043 -0.067753129 0.13743491
0.87611014 -0.16738646 0.13422708
0.84571159 -0.12970476 0.12018583
0.8569048 -0.099410616 0.11283514
0.8758108 -0.069502681 0.10653578
0.84617633 -0.1618205 0.097410455
0.85047007 -0.13044974 0.08893057
0.86236292 -0.10039467 0.081456363
0.86118269 -0.068765342 0.072970897
0.85593134 -0.16382539 0.066474468
0.84517926 -0.12990999 0.056960907
0.86471105 -0.10088219 0.049815979
0.87719065 -0.07033632 0.041838687
0.8429777 -0.1616206 0.03388897
0.84660959 -0.13055338 0.025633285
0.86986327 -0.10192958 0.018009273
0.87610626 -0.070618726 0.0095882127
0.86717844 -0.16638605 0.0025120317
0.85186213 -0.13168302 -0.0058824471
0.86095625 -0.10123623 -0.013951107
0.86687678 -0.070194587 -0.022303389
0.85482061 -0.16447906 -0.029485893
0.8638711 -0.13386361 -0.037846565
0 -0 -0
0.87739927 -0.071262434 -0.054920331
0.87266701 -0.16851322 -0.062742501
0.86381912 -0.13431875 -0.070029311
0.85953122 -0.10173792 -0.077566385
0.85296005 -0.06953223 -0.084996782
0.88734114 -0.17160387 -0.097256579
0.87536508 -0.13650529 -0.10376105
0.86498457 -0.10261305 -0.11025542
0.87986857 -0.071942203 -0.12056821
0.92001861 -0.17870645 -0.13578938
0.93734181 -0.14670628 -0.14651868
0.8945899 -0.10647348 -0.14812611
0.85714728 -0.070219949 -0.14998904
0 -0 -0
0.96036279 -0.15077306 -0.18727237
0.9644205 -0.11538218 -0.1966244
0.89680141 -0.073752165 -0.19159287
0.95708758 -0.1876235 -0.21629128
0.94888645 -0.14941256 -0.22245565
0.95739865 -0.11464379 -0.23304221
0.94025218 -0.076995097 -0.23817371
0 -0 -0
0.94551957 -0.14960968 -0.26014179
0.94978523 -0.11398434 -0.27009565
0.9610942 -0.078668028 -0.28308001
0.83692425 -0.16591187 0.26359081
0.81421101 -0.1292488 0.24485759
0.80845422 -0.097045481 0.23322327
0.81851697 -0.067394122 0.22669822
0.84356964 -0.16667844 0.22958367
0.82375056 -0.13098423 0.21353975
0.82042485 -0.099107064 0.20317948
0.83612716 -0.069843255 0.19762932
0.83326501 -0.16462728 0.19289464
0.83878493 -0.13325477 0.18396738
0.84289569 -0.10214992 0.17544614
0.84966576 -0.071586445 0.16764389
0.87638295 -0.17293945 0.16830327
0.85171324 -0.13553725 0.15359116
0.84675682 -0.10305276 0.1435553
0.86603081 -0.073300146 0.13790505
0.87021583 -0.17180137 0.13348302
0.84978926 -0.13567212 0.12088135
0.85824716 -0.10490722 0.11309453
0.87536788 -0.074875243 0.10653578
0.86368906 -0.17066945 0.099545166
0.85063589 -0.1358225 0.08903338
0.85876602 -0.10532054 0.081176125
0.86273009 -0.074218974 0.07313922
0.85099739 -0.16830042 0.066170238
0.83549887 -0.13367474 0.056362715
0.86407578 -0.10618606 0.049815979
0.87176669 -0.075287618 0.041601237
0.81844592 -0.16212995 0.032942131
0.84381872 -0.13542883 0.025573462
0.87021369 -0.10738748 0.018029831
0.87764883 -0.076165989 0.0096100289
0.86417937 -0.17131491 0.002506342
0.85301262 -0.13722512 -0.0058960957
0.8603189 -0.10651705 -0.013951107
0.8704133 -0.075859502 -0.022405932
0.87536079 -0.17400792 -0.030230658
0.86204708 -0.13900265 -0.037803311
0.85916543 -0.10690717 -0.045768164
0.86501431 -0.075601928 -0.054173116
0.8804208 -0.17562085 -0.063376263
0.86691475 -0.14025331 -0.070348717
0.85592568 -0.10664058 -0.077298611
0.85251737 -0.074764587 -0.084996782
0.88432157 -0.17665572 -0.097042598
0.86960906 -0.14107861 -0.10317943
0.8722142 -0.10890187 -0.11126003
0.86954063 -0.076471612 -0.11921503
0.92569715 -0.18571088 -0.13679311
0.92959589 -0.1513433 -0.14545032
0.9272092 -0.11612996 -0.1536423
0.85866302 -0.075650901 -0.15033266
0.95757151 -0.1928705 -0.17862476
0.96135777 -0.15697938 -0.1876507
0.95980459 -0.12080798 -0.19583075
0.93530297 -0.082699254 -0.19992299
0 -0 -0
0.950836 -0.1557043 -0.22313248
0.9508909 -0.11978719 -0.23163269
0.95907879 -0.084464118 -0.24306935
0.95940971 -0.1951407 -0.25611961
0.94648814 -0.15572178 -0.26066628
0.94620359 -0.11944837 -0.26928049
0.95677018 -0.084227145 -0.28195333
0.83027416 -0.16989477 0.26181978
0.81624007 -0.13471057 0.24571174
0.81070477 -0.10236552 0.23404932
0.81232685 -0.071905211 0.22510174
0.83211774 -0.16972736 0.22674611
0.82484293 -0.1363522 0.21403576
0.82365465 -0.10462872 0.20413449
0.84053022 -0.075407192 0.19877566
0.85421568 -0.17421915 0.19798829
0.83988011 -0.13871747 0.18439078
0.84225303 -0.10731991 0.17544614
0.85409665 -0.07724043 0.16860847
0.87915701 -0.17909823 0.16904387
0.84989429 -0.14060003 0.15341583
0.84610856 -0.10824642 0.1435553
0 -0 0
0.86333162 -0.17595282 0.13259016
0.85480237 -0.14185651 0.12171598
0.86250466 -0.11080307 0.11374301
0.87192619 -0.079972975 0.10617465
0.85483664 -0.17437688 0.098646335
0.84586138 -0.14038791 0.088622138
0.8590911 -0.11071511 0.08126954
0.86622745 -0.079877183 0.073475882
0.8460409 -0.17272107 0.065866008
0.83761573 -0.13928978 0.056562111
0.86439812 -0.11161378 0.049873106
0.86830443 -0.080359109 0.041458767
0.82624638 -0.16895039 0.033297196
0.84494376 -0.14093275 0.025633285
0.87152141 -0.11298206 0.018070949
0.87417799 -0.081272013 0.0095773041
0.87094951 -0.17821796 0.002529101
0.85511345 -0.14295118 -0.005916568
0.85964912 -0.11179387 -0.013951107
0 -0 -0
0.87721366 -0.17997836 -0.030332215
0.85723668 -0.1436291 -0.037630297
0.86047363 -0.11243566 -0.045873743
0.87447131 -0.081838116 -0.054795794
0.87248749 -0.17961177 -0.06288334
0.86800385 -0.14590041 -0.070508413
0.85821801 -0.11227804 -0.077566385
0.85105181 -0.079901114 -0.084897943
0.92022467 -0.18970692 -0.10110833
0.86872703 -0.14641176 -0.10317943
0.87939894 -0.11528325 -0.11226464
0.88878387 -0.083662681 -0.12192138
0.93326229 -0.1931929 -0.13808361
0.93936867 -0.15885703 -0.14712918
0.94311082 -0.12400382 -0.1564004
0.87289435 -0.082305305 -0.15290979
0.97370607 -0.202345 -0.18186268
0.95940834 -0.16271102 -0.18746153
0.96487528 -0.12746514 -0.19702122
0.96204233 -0.091016009 -0.20575409
0 -0 -0
0.94602108 -0.16088226 -0.22223003
0.95399249 -0.12612911 -0.23257238
0.96143842 -0.090620279 -0.24380371
3.0667896 -0.64339554 -0.81973457
0.94551486 -0.1615264 -0.26066628
0.95213109 -0.12613665 -0.27118257
0.96483284 -0.09090624 -0.28448838
0.85258752 -0.17991801 0.26919913
0.8097291 -0.13874501 0.24400344
0.81101441 -0.10746426 0.23432466
0.81666863 -0.077342622 0.22643213
0.83295155 -0.17522773 0.22726202
0.83640313 -0.14354093 0.21725994
0.82107204 -0.10942405 0.203657
0.83617604 -0.080191486 0.19785859
0.83213633 -0.17504106 0.1931161
0.84286624 -0.14452897 0.18523759
0.84351999 -0.11274534 0.17585085
0.85556 -0.082668357 0.16899431
0.86746275 -0.1822665 0.16700721
0.85289681 -0.1464788 0.15411715
0.8464058 -0.11356714 0.14372125
0.86408311 -0.083826788 0.13774835
0.87965465 -0.18490836 0.13526876
0.86172301 -0.14844371 0.1228288
0.85591251 -0.11529896 0.11296484
0.87240708 -0.085418239 0.10629502
0.87611532 -0.18432404 0.10123047
0.84204322 -0.14506872 0.088313706
0.85346228 -0.11531774 0.08080247
0.86572099 -0.085190751 0.073475882
0.85081941 -0.17914166 0.066322356
0.84166157 -0.14527525 0.05689444
0.86666501 -0.1173173 0.050044492
0.865807 -0.085489109 0.041363787
0.86821383 -0.18308896 0.03503307
0.84012347 -0.14543259 0.025513642
0.86982107 -0.11819287 0.018050389
0.87167275 -0.086436994 0.0095554888
0.87766713 -0.18521047 0.0025518599
0.85224974 -0.14785351 -0.0059029199
0.86191911 -0.11747155 -0.013999381
0.86344832 -0.085941039 -0.022252116
0.87707061 -0.18556431 -0.030366069
0.85830784 -0.14922857 -0.037716806
0.86174631 -0.11798423 -0.045979321
0.86998016 -0.08680585 -0.054546721
0.8781994 -0.18641174 -0.063376263
0.87593013 -0.15276499 -0.071227074
0.85948652 -0.11781237 -0.077744909
0.85549635 -0.085617036 -0.08539211
0.91904336 -0.19534974 -0.10110833
0.90303355 -0.15789795 -0.1073671
0.89145219 -0.12243178 -0.11389712
0.88628209 -0.088916771 -0.12165076
0 -0 -0
0.92474842 -0.16222718 -0.14499244
0.94526482 -0.13019221 -0.15688713
0.87237287 -0.087659732 -0.15290979
0 -0 -0
0.9583919 -0.16859478 -0.18746153
0.96504587 -0.13351743 -0.19721963
0.96341205 -0.097113468 -0.2061706
3.4979725 -0.75284225 -0.79350102
0.94597548 -0.16685314 -0.22245565
0.95608908 -0.13238026 -0.23327713
0.95989954 -0.096420944 -0.24355893
3.0079398 -0.650343 -0.8050558
0.93025285 -0.16479991 -0.25673267
0.94943273 -0.13171196 -0.27063912
0.96616638 -0.097016372 -0.28505173
0.80478615 -0.17499545 0.25444043
0.81169403 -0.14421387 0.24485759
0.80938756 -0.11230641 0.23404932
0.81042421 -0.08177153 0.22483566
0.83847028 -0.18176819 0.22906774
0.83741415 -0.14900973 0.21775597
0.8184616 -0.11419161 0.20317948
0.83082658 -0.084826328 0.19671226
0.85868466 -0.18613467 0.19953853
0.83907682 -0.14918473 0.18460248
0.84475207 -0.11819035 0.17625558
0.85210842 -0.087615333 0.16841556
0.87689304 -0.18987335 0.16904387
0.85488975 -0.1522271 0.15464315
0.84764612 -0.11903272 0.14405318
0.86453485 -0.089228518 0.13790505
0.8678726 -0.18799946 0.13363184
0.85689658 -0.15303196 0.12227239
0.84929782 -0.11971816 0.11218666
0.86495483 -0.090050049 0.10545237
0.85845906 -0.18611716 0.099320464
0.84701252 -0.15128203 0.08893057
0.8586536 -0.12138851 0.081362955
0.86617303 -0.090604775 0.073560044
0.84385765 -0.1830903 0.065866008
0.84370089 -0.15096408 0.057093836
0.86098635 -0.12193289 0.049758852
0.86824638 -0.091112733 0.041506253
0.84168673 -0.18289617 0.034007326
0.84708607 -0.15199704 0.025752926
0.86215061 -0.12254293 0.017906481
0.87013155 -0.091679081 0.0095445802
0.86674255 -0.18846747 0.0025234111
0.85723162 -0.15414184 -0.005943865
0.85524285 -0.12191136 -0.013902833
0.8678754 -0.091762997 -0.022380296
0.88470393 -0.19285823 -0.030670745
0.86425865 -0.15573244 -0.038019579
0.86001766 -0.12312806 -0.045926534
0.86248362 -0.091406018 -0.054110847
0.89360535 -0.19541959 -0.06457337
0.88380456 -0.15973227 -0.071945734
0.85677552 -0.12280124 -0.077566385
0.8549549 -0.090864651 -0.08539211
0.92462611 -0.20247398 -0.10185727
0.9255029 -0.16768558 -0.11015888
0.89363021 -0.12832236 -0.11427385
0.8985278 -0.095717616 -0.12340989
0 -0 -0
0.93540388 -0.17001909 -0.14682393
0.94737816 -0.13641168 -0.15737385
0.89826703 -0.095832542 -0.15754864
0 -0 -0
0.95733941 -0.17447218 -0.18746153
0.96420848 -0.13943632 -0.19721963
0.96766067 -0.10354334 -0.20721187
3.5104437 -0.77809399 -0.79739815
0.96218419 -0.1758063 -0.22651671
0.95429683 -0.13810501 -0.23304221
0.96121806 -0.1025146 -0.24404849
0 -0 -0
0.96813965 -0.17764539 -0.26748452
0.9609881 -0.13933022 -0.27417156
0.96173644 -0.10253593 -0.28392503
0.86057138 -0.19266312 0.27244607
0.81362224 -0.14971206 0.24571174
0.81248879 -0.11782246 0.23515072
0.81086564 -0.086845309 0.22510174
0.840168 -0.18754096 0.22984162
0.84029496 -0.15484747 0.21874803
0.8139019 -0.11865112 0.20222448
0.83512902 -0.090446606 0.19785859
0.84800887 -0.18927565 0.19732389
0.84199035 -0.15503834 0.18544929
0.84401101 -0.12337143 0.17625558
0.85545653 -0.093267515 0.16918722
0.88146639 -0.19653343 0.17015478
0.8616851 -0.15889804 0.15604581
0.84689981 -0.12423154 0.14405318
0.8620075 -0.094316676 0.13759163
0.88890111 -0.19827251 0.13705449
0.86470538 -0.15990759 0.12352433
0.85443312 -0.12579365 0.11296484
0 -0 0
0.86118013 -0.19224703 0.099769883
0.84900266 -0.15701905 0.089238994
0.84508824 -0.12476446 0.080148578
0 -0 0
0.86509997 -0.19326477 0.067615338
0.84668308 -0.15686516 0.057359695
0.86120963 -0.12735955 0.049815979
0.86866373 -0.096548826 0.041553747
0.85907584 -0.19220233 0.034756906
0.84712023 -0.15737438 0.025782837
0.85742664 -0.12724362 0.017824246
0.87551528 -0.097681634 0.0096100289
0.88411081 -0.19793306 0.0025774639
0.86020207 -0.16013084 -0.0059711616
0.85151184 -0.12671523 -0.01385456
0.87126988 -0.097531296 -0.02248284
0.87862808 -0.19718876 -0.030501479
0.86426896 -0.16121569 -0.03806283
0.86220884 -0.12884547 -0.046084899
0.8688494 -0.097475313 -0.054546721
0.88946998 -0.20024171 -0.064362116
0.88280779 -0.16515219 -0.071945734
0.85600591 -0.128056 -0.077566385
0.856359 -0.096331321 -0.085589781
0.94470465 -0.21295361 -0.10421112
0.9088375 -0.1704322 -0.1082977
0.92716545 -0.13894944 -0.118669
0.89004707 -0.1003411 -0.12232734
0 -0 -0
0.92463046 -0.17392844 -0.14529769
0.94652331 -0.14222212 -0.15737385
0.88983077 -0.10045828 -0.15617415
4.2821579 -0.97242552 -0.803002
0.95625085 -0.18034303 -0.18746153
0.96430397 -0.1454962 -0.19741803
0.97283828 -0.11013902 -0.20846137
1.3554112 -0.30916575 -0.30830708
0.96108735 -0.18170685 -0.22651671
0.95054805 -0.1435225 -0.23233745
0.95768052 -0.10808438 -0.24331413
1.1693392 -0.26788291 -0.31382242
0.92057598 -0.17476328 -0.25463477
0.95440578 -0.14436054 -0.2725412
0.95536852 -0.10778967 -0.28223503
0 -0 0
0.82398874 -0.15685265 0.24912837
0.81270111 -0.12294938 0.23542608
0.81223321 -0.092036121 0.2256339
0.85877591 -0.19723418 0.23525876
0.85455495 -0.16290301 0.22271626
0.81795877 -0.12437278 0.20341824
0 -0 0
0.86679059 -0.19905898 0.20197463
0.85062391 -0.16203056 0.18756628
0.84420621 -0.12869544 0.17645794
0.85486817 -0.098514743 0.16918722
0.88599092 -0.20325673 0.17126571
0.86166096 -0.16436672 0.15622114
0.85099554 -0.13017121 0.14488298
0.86141258 -0.099604085 0.13759163
0.88959539 -0.20416537 0.13735211
0.87343436 -0.16707079 0.12491537
0.85168505 -0.13073309 0.11270544
0.87068701 -0.10146193 0.10629502
0.84933132 -0.19508065 0.098533988
0.85388511 -0.16334684 0.08985585
0.84627485 -0.13025038 0.080335401
0.86400628 -0.10111141 0.073475882
0.87750256 -0.20169635 0.068680145
0.84080487 -0.16111843 0.05702737
0.85350496 -0.13157667 0.04941608
0.86706287 -0.1017606 0.041506253
0.86469668 -0.19903891 0.03503307
0.84908342 -0.16313504 0.02587257
0.85366559 -0.13204381 0.01776257
0.87986481 -0.10363671 0.0096645691
0.87605834 -0.20178299 0.0025575499
0.86705881 -0.1669182 -0.0060257548
0.84380186 -0.13086495 -0.013741921
0.86767673 -0.10252356 -0.022405932
0.88421828 -0.20415007 -0.030738451
0.86424446 -0.16670494 -0.038106084
0.85942864 -0.13382617 -0.045979321
0.8692261 -0.10292199 -0.05460899
0.88628101 -0.20524554 -0.064221285
0.88471383 -0.17113382 -0.072185285
0.86110884 -0.13422635 -0.078101948
0.85674 -0.10170133 -0.085688613
0.92304039 -0.21402992 -0.10196427
0.9370262 -0.181677 -0.11178742
0.92727566 -0.14478885 -0.11879457
0.88351142 -0.10509823 -0.12151544
0 -0 -0
0.92936659 -0.18073052 -0.14621344
0.94465798 -0.14787459 -0.1572116
0.90974021 -0.1083632 -0.15978214
1.1561973 -0.27002895 -0.21711992
0.95127106 -0.18545549 -0.18670487
0.96629769 -0.15186682 -0.19801326
0.97117299 -0.11599018 -0.20825312
1.3506373 -0.31680778 -0.30765757
0.95230532 -0.18610571 -0.22471179
0.95637107 -0.15040934 -0.23398191
0.9569993 -0.11395857 -0.24331413
0 -0 -0
0.95168245 -0.1867256 -0.26355091
0.9468475 -0.1491656 -0.27063912
0.95754737 -0.11398993 -0.28308001
0.80700707 -0.19110025 0.25621146
0.81924844 -0.16116546 0.24798949
0.81193137 -0.12793371 0.23542608
0.81452459 -0.097361378 0.22643213
0.89516133 -0.21138139 0.24557713
0.84023249 -0.16552201 0.21924406
0.81622106 -0.12923747 0.20317948
0.82815814 -0.099988088 0.19648299
0.86840004 -0.20504603 0.20263901
0.84769589 -0.16686931 0.18714288
0.84533507 -0.13418001 0.17686266
0.85327357 -0.10363995 0.16899431
0.89811754 -0.21184778 0.17385782
0.86836356 -0.17117392 0.1576238
0.8482331 -0.1350802 0.14455105
0.86078519 -0.10488774 0.13759163
0.88928837 -0.20984708 0.13750091
0.86267799 -0.17050681 0.12352433
0.84988773 -0.13580002 0.11257575
0 -0 0
0.8819657 -0.20828165 0.10246636
0.85579425 -0.16916177 0.090164281
0.848409 -0.13591304 0.080615647
0 -0 0
0.89274478 -0.21097526 0.069973126
0.85350347 -0.16898759 0.057957888
0.85662454 -0.13744384 0.049644593
0.86840487 -0.10732391 0.041601237
0.86151433 -0.20388061 0.034954168
0.84904689 -0.16853645 0.025902478
0.85283935 -0.13727932 0.01776257
0.87325835 -0.10829514 0.0095991213
0.88356149 -0.20922843 0.0025831538
0.86405683 -0.17184514 -0.0060121068
0.84495723 -0.13635856 -0.013774103
0.86504728 -0.10759881 -0.022354661
0.88294899 -0.20957169 -0.030738451
0.86124569 -0.17161423 -0.038019579
0.86154854 -0.13957609 -0.046137687
0.87055904 -0.1085004 -0.05473353
0.90732414 -0.21599299 -0.0658409
0.88071465 -0.17597316 -0.071945734
0.85928583 -0.13934804 -0.078012682
0.85906214 -0.10732637 -0.085985117
0.94008595 -0.22406952 -0.10399713
0.97192717 -0.19463915 -0.1160914
0.95280951 -0.15477055 -0.12218511
0.91332692 -0.11433256 -0.12571028
0 -0 -0
0.93599159 -0.18798642 -0.14743443
0.94275892 -0.15350954 -0.15704937
0.92469782 -0.11590353 -0.16253108
1.2224317 -0.29341924 -0.2298917
0.9549284 -0.19225793 -0.1876507
0.96534771 -0.15779306 -0.19801326
0.96267945 -0.12097143 -0.20658711
3.5078652 -0.84555203 -0.80021274
0 -0 -0
0.94967455 -0.15533328 -0.23257238
0.95050979 -0.11910515 -0.24184544
3.01176 -0.72897267 -0.81062359
0 -0 -0
0.95731091 -0.15683967 -0.27389982
0.96539861 -0.12093659 -0.28561509
0 -0 0
0.82669902 -0.16790646 0.25055197
0.80923373 -0.13260232 0.23487538
0.81008619 -0.10187627 0.22536783
0.88539726 -0.21481977 0.24325548
0.85439014 -0.17376359 0.22321227
0.82020366 -0.13503201 0.20437327
0.82656342 -0.10494509 0.19625372
0.87375933 -0.21197997 0.20418927
0.86006463 -0.17479259 0.19010669
0.84449583 -0.13936436 0.17686266
0.85456818 -0.10912216 0.16938013
0.89011532 -0.21573421 0.17256176
0.87501484 -0.1780695 0.15902646
0.85127985 -0.14092657 0.1452149
0.85914576 -0.11004197 0.13743491
0.8947112 -0.21693076 0.13854259
0.87422919 -0.17837049 0.12533268
0.85490733 -0.14198701 0.11335392
0.86445349 -0.11150397 0.10569312
0.85556424 -0.20759735 0.099545166
0.86156249 -0.17580174 0.090883955
0.83675593 -0.13931753 0.0795881
0.8587476 -0.11119466 0.07313922
0.88174397 -0.21409635 0.069212548
0.83680922 -0.1710247 0.05689444
0.8498565 -0.14171216 0.049301822
0.86277717 -0.11200734 0.041363787
0.89228797 -0.21695341 0.036256071
0.85680968 -0.17554858 0.026171673
0.85000879 -0.14217977 0.017721454
0.86662799 -0.11287641 0.0095336717
0.87934607 -0.21393673 0.0025746191
0.8688634 -0.17835008 -0.0060530519
0.84706295 -0.1420366 -0.013822377
0.86536205 -0.11303409 -0.022380296
0.88067549 -0.21474865 -0.030704599
0.87779099 -0.18051793 -0.038798135
0.86264545 -0.14519133 -0.046243265
0.86690801 -0.11345147 -0.054546721
0.91179556 -0.22297791 -0.066263407
0.88742846 -0.18298423 -0.07258454
0.87412935 -0.14726537 -0.079440832
0.85838741 -0.11259545 -0.085985117
0 -0 -0
0.95417941 -0.1971821 -0.1141139
0.93716812 -0.1581379 -0.12030148
0.91260815 -0.11993448 -0.12571028
0 -0 -0
0.91546607 -0.18971513 -0.14438196
0.94374514 -0.15962042 -0.15737385
0.95131719 -0.12517361 -0.16734172
0.95700276 -0.23592821 -0.18024373
0.94796222 -0.19691537 -0.18651572
0.95952982 -0.16289315 -0.19702122
0.96579778 -0.12738764 -0.20742011
3.5528378 -0.87949347 -0.81168765
0 -0 -0
0.96211958 -0.16343644 -0.23586127
0.96129656 -0.12645255 -0.24478284
3.010047 -0.74813879 -0.81138283
2.9093571 -0.60800171 -0.80769831
0.94779193 -0.16125789 -0.2714543
0.95322257 -0.12535661 -0.28223503
0 -0 0
0.8256532 -0.17297582 0.25055197
0.81314349 -0.13837154 0.23625214
0.81517982 -0.10760181 0.22696429
0.8671875 -0.21604434 0.23861223
0.8533079 -0.17900276 0.22321227
0.82031685 -0.14022577 0.20461202
0.82976323 -0.11052889 0.19717078
0.88758212 -0.22110884 0.20773268
0.85228008 -0.17866291 0.18862478
0.84072912 -0.14404733 0.17625558
0.85290998 -0.11423338 0.16918722
0.90212554 -0.22451442 0.1751539
0.88835841 -0.18646879 0.16165644
0.85137105 -0.14631429 0.14538085
0.85943323 -0.115443 0.13759163
0.89528239 -0.22289433 0.13884021
0.86730397 -0.18250778 0.12449805
0.85597438 -0.14756687 0.11361331
0.86276931 -0.11667303 0.10557275
0.89187789 -0.22221203 0.10392696
0.87117475 -0.1833382 0.092014864
0.83784747 -0.14478822 0.079774924
0.85607439 -0.1161937 0.072970897
0.91621071 -0.22842744 0.072026685
0.85429448 -0.18006603 0.058157284
0.84897095 -0.14692411 0.049301822
0.86702245 -0.11797249 0.041601237
0.8957873 -0.22363445 0.036453329
0.85571641 -0.18080255 0.026171673
0.84813535 -0.14722167 0.017700896
0.8718636 -0.11900321 0.0095991213
0.90130121 -0.22514471 0.0026428963
0.86873108 -0.18388505 -0.0060598762
0.85208595 -0.1482598 -0.013918925
0.86465216 -0.11834172 -0.022380296
0.87546325 -0.21917744 -0.030569186
0.87373489 -0.18527882 -0.038668375
0.86075461 -0.15030991 -0.046190478
0.86916202 -0.11917533 -0.05473353
0.92105258 -0.23124027 -0.067038
0.886289 -0.18842596 -0.07258454
0.87124705 -0.15228319 -0.079262316
0.85965204 -0.11813124 -0.086182781
0 -0 -0
0.96946549 -0.20655152 -0.1160914
0.94986129 -0.16628027 -0.12205954
0.95504308 -0.13147742 -0.13166428
0 -0 -0
0 -0 -0
0.95343894 -0.16728389 -0.1591585
0.95345896 -0.13141194 -0.16785716
4.3056388 -1.089529 -0.81217605
0 -0 -0
0.96913028 -0.17064729 -0.19920373
0.97178006 -0.13424818 -0.20887788
3.5464282 -0.90103632 -0.81147116
3.3786185 -0.72508019 -0.80025375
0.95535499 -0.16832484 -0.23445174
0.96914715 -0.13353972 -0.2469859
2.9482167 -0.7520082 -0.79594487
2.839536 -0.6116181 -0.78934157
0.94962788 -0.16757213 -0.27226949
0.95623755 -0.13172688 -0.2833617
0.87276697 -0.22371505 0.27834955
0.81895411 -0.17682478 0.24884364
0.81133246 -0.1431912 0.23597679
0.81450427 -0.11260164 0.22696429
0.88175833 -0.22542948 0.24299753
0.86544985 -0.18710107 0.22668447
0.82326573 -0.14593448 0.20556703
0.82232124 -0.11467707 0.19556591
0.90604925 -0.23162282 0.2123834
0.8674078 -0.18739758 0.19222368
0.842722 -0.14971714 0.17686266
0.852193 -0.11946458 0.16918722
0.90263528 -0.2305319 0.1755242
0.88719755 -0.19191615 0.16165644
0.85336977 -0.15205441 0.14587875
0.85773069 -0.12057672 0.13743491
0.88623321 -0.22642522 0.13764973
0.87584567 -0.18992464 0.12588909
0.85700494 -0.15316515 0.1138727
0.8590883 -0.12154747 0.10521161
0.90012461 -0.23014171 0.10505049
0.875866 -0.18994506 0.09263172
0.84870362 -0.15203312 0.080895886
0.84745282 -0.1203237 0.072297573
0.92541778 -0.23676349 0.072863318
0.85317355 -0.18530451 0.058157284
0.85100156 -0.15265937 0.049473207
0.86331552 -0.12286799 0.041458767
0.874071 -0.22391927 0.035624847
0.86338103 -0.18796338 0.026440868
0.84820002 -0.15259999 0.017721454
0.87507665 -0.12491585 0.0096427538
0.89409077 -0.22918095 0.002625827
0.87442547 -0.19070356 -0.0061076451
0.85706413 -0.15454994 -0.014015472
0.85995144 -0.12307838 -0.022277752
0.90023786 -0.23125903 -0.031483214
0.87941384 -0.19212914 -0.038971148
0.85883343 -0.15541074 -0.046137687
0.8703903 -0.12478945 -0.054858062
0.94086802 -0.24236168 -0.068587199
0.88511616 -0.19386058 -0.07258454
0.87029624 -0.1576262 -0.079262316
0.861866 -0.12382829 -0.086479284
7.599061 -1.9597334 -0.84449524
0.97206038 -0.21334787 -0.1165567
0.93808538 -0.17015767 -0.1206782
0.95617974 -0.13761726 -0.13193491
0 -0 -0
0 -0 -0
0.94365698 -0.17154258 -0.15769833
0.95555985 -0.13768125 -0.16837257
4.1493878 -1.0771233 -0.7839343
0 -0 -0
0.96613657 -0.17623878 -0.19880691
0.96028972 -0.13867071 -0.20658711
3.5153253 -0.91613227 -0.80562544
3.3636422 -0.7434845 -0.79777199
0.96482259 -0.17610349 -0.23703589
0.97022885 -0.13976026 -0.24747545
2.9500985 -0.77179796 -0.79771644
2.793335 -0.61962551 -0.77754074
0.95804864 -0.17512627 -0.27498674
0.97060674 -0.1397801 -0.28786847
0 -0 0
0.81878954 -0.18205453 0.24912837
0.81232989 -0.14851253 0.23652749
0.81475204 -0.11773508 0.22723037
0.94203973 -0.2470088 0.26002282
0.85861188 -0.19114478 0.22519639
0.8309508 -0.15256143 0.20771582
0.83316046 -0.12140481 0.19831714
0 -0 0
0.86910367 -0.1933531 0.19285879
0.84564006 -0.15559402 0.17767209
0.85241479 -0.12483347 0.16938013
0.90215439 -0.23631503 0.17570935
0.89657378 -0.19971085 0.1635851
0.8562997 -0.15800348 0.14654256
0.85795188 -0.12598087 0.13759163
0.88961005 -0.23311207 0.13839377
0.87949622 -0.19637413 0.12658462
0.85994899 -0.15914248 0.11439148
0.85636222 -0.12652625 0.10497085
0.90157902 -0.23641656 0.10538755
0.87759644 -0.19596604 0.092940152
0.8536284 -0.15832721 0.081456363
0.84275585 -0.1249368 0.071960919
0.90658742 -0.23788209 0.071494281
0.86175781 -0.19271354 0.058821939
0.85495669 -0.15878969 0.049758852
0.86254537 -0.12816289 0.041458767
0.88814336 -0.23334076 0.036256071
0.87098962 -0.19522502 0.026710061
0.85216212 -0.1587169 0.017824246
0.86143643 -0.12836695 0.0095009487
0.90233904 -0.23720506 0.0026542759
0.86738479 -0.19475093 -0.0060667004
0.85511684 -0.15962242 -0.013999381
0.86115748 -0.12864803 -0.022329025
0.93069488 -0.24518025 -0.032600362
0.88601613 -0.1992753 -0.039317172
0.87454981 -0.16380283 -0.047035102
0.8646729 -0.1293892 -0.054546721
0.92586112 -0.24456362 -0.067601345
0.89266157 -0.20126104 -0.0733032
0.87714434 -0.16443139 -0.079976387
0.86404222 -0.12955694 -0.08677578
