# .PCD v0.7 - Point Cloud Data file format
VERSION 0.7
FIELDS x y z
SIZE 4 4 4
TYPE F F F
COUNT 1 1 1
WIDTH 1547
HEIGHT 1
VIEWPOINT 0 0 0 1 0 0 0
POINTS 1547
DATA ascii
0.29809597 2.3077857 0.069631606
0.2152634 2.330585 0.048127521
0.13148317 2.3501849 0.025677649
0.38423789 2.3072145 0.0066541815
0.30009639 2.3165891 -0.015941296
0.21557012 2.3237202 -0.037556957
0.13275859 2.3574889 -0.060552422
0.3858853 2.309643 -0.079317391
0.30105695 2.3173373 -0.10116928
0.21569371 2.3097117 -0.12262912
0.13159794 2.3267503 -0.14539565
0.38618183 2.3020236 -0.16477829
0.30029789 2.3020592 -0.18597293
0.21632944 2.3125956 -0.20815283
0.13404305 2.3575745 -0.23453182
0.21914382 1.3040807 -0.14230061
0.19296809 1.4742621 -0.17413712
0.14306507 1.5250821 -0.19388881
0.13533631 2.3701015 -0.32422158
0.21936095 1.2988526 -0.19085075
0.17556943 1.335541 -0.20802601
0.13778888 1.4627973 -0.24157697
0.13481909 2.3545454 -0.41131014
0.2180398 1.2850194 -0.23834623
0.17712373 1.3424686 -0.26085716
0.13108946 1.3826283 -0.28114709
0.091805391 1.594556 -0.34007737
0.22139974 1.2972696 -0.29185247
0.1819603 1.374317 -0.32104906
0.10433967 1.0992676 -0.26687092
0.060931817 1.0647938 -0.26926112
0.32861987 1.9146322 -0.50818992
0 0 -0
0 0 -0
0.046018548 0.80467433 -0.2366042
0.40211928 2.3264034 0.7293762
0.3060928 2.289886 0.6861707
0.21922663 2.3025799 0.66249728
0.13469967 2.3356297 0.64577061
0.39400023 2.2879963 0.61987591
0.30839482 2.3025172 0.5947367
0.22013126 2.2938349 0.56656277
0.13721231 2.3310637 0.55001479
0.4006139 2.3266454 0.53616291
0.30756107 2.2987313 0.50236434
0.22147647 2.2985704 0.47716492
0.13912532 2.3350763 0.45991144
0.40101504 2.3321393 0.44584629
0.30663142 2.2872276 0.41097906
0.22495125 2.3223202 0.39266109
0.13993436 2.3335631 0.37093323
0.39769602 2.3116291 0.35297856
0.31170574 2.3161755 0.32828537
0.2247193 2.3073356 0.30322823
0.14232025 2.3385115 0.28409544
0.4005388 2.3257236 0.26683947
0.31154639 2.3146858 0.24139765
0.22676635 2.318706 0.21858704
0.14333001 2.3362732 0.19770317
0.40110433 2.3268223 0.18010473
0.31471041 2.3326499 0.15679204
0.22659455 2.3111198 0.1328807
0.14390123 2.332926 0.11112659
0.39622685 2.2942221 0.091922358
0.31171417 2.3019512 0.069511965
0.22906925 2.3242457 0.048024729
0.14596313 2.3503318 0.025688555
0.40077198 2.3186088 0.00669401
0.31363231 2.3097496 -0.015907174
0.23041496 2.3283238 -0.037653506
0.14703438 2.3536367 -0.060475513
0.40517202 2.3367739 -0.08033298
0.31702241 2.3283153 -0.10173156
0.23035651 2.313313 -0.12289307
0.14605954 2.3288875 -0.14558247
0.40218124 2.3104208 -0.16555288
0.31536242 2.3070867 -0.1865319
0.23081174 2.314198 -0.2084206
0.14825602 2.352735 -0.23413649
0.21826069 1.2517786 -0.13673697
0.19404869 1.4149942 -0.16727398
0.14837267 1.4837021 -0.18874021
0.15062706 2.3810925 -0.32584542
0.22254421 1.2701873 -0.18683586
0.18753582 1.3618518 -0.21229947
0.1479446 1.4737061 -0.24352385
0.14913908 2.3517077 -0.41096655
0.22387435 1.2720318 -0.23618764
0.18119077 1.3112028 -0.25499308
0.13829018 1.3691208 -0.27856776
0.14127716 2.216711 -0.47294286
0.21166039 1.1959074 -0.26933569
0.19293161 1.3915093 -0.32533574
0.09866412 0.9757871 -0.23703589
0.061944328 0.97731256 -0.24723065
0 0 -0
0 0 -0
0 0 -0
0.052896217 0.83501977 -0.2456177
0.41520667 2.3173089 0.72731
0.3218644 2.3003063 0.68987203
0.23296292 2.2973657 0.66139585
0.14841425 2.3251393 0.6431098
0.41057873 2.2998025 0.62374532
0.32238251 2.2996221 0.59448868
0.23360966 2.2866447 0.56513023
0.15100761 2.3224072 0.54818064
0.41488239 2.3241434 0.53616291
0.32342216 2.3093836 0.5051164
0.23617549 2.3030136 0.47837907
0.15306425 2.3283041 0.45875394
0.41445485 2.3247974 0.44492051
0.32093343 2.2872531 0.41132975
0.23737673 2.3032391 0.3896738
0.15464121 2.3385735 0.3718735
0.41447696 2.3237476 0.35521069
0.32522115 2.3093162 0.32758984
0.2385661 2.3029547 0.30283913
0.15686555 2.3405657 0.28445658
0.4149763 2.3242006 0.26695183
0.32685304 2.3206105 0.24222013
0.24037147 2.3113291 0.21802655
0.15772952 2.3363438 0.19778731
0.42168871 2.3596532 0.18284281
0.32901734 2.3306749 0.15679204
0.24087456 2.3106787 0.13293782
0.15841591 2.3349891 0.11126906
0.42103812 2.3517461 0.094328903
0.33045951 2.3326542 0.07049901
0.24290957 2.3188188 0.047942493
0.15983695 2.3414111 0.025601292
0.41834214 2.3348081 0.0067480626
0.32765815 2.3067918 -0.015900351
0.2440695 2.3208997 -0.037556957
0.16126791 2.3496981 -0.060398605
0.42003292 2.3371947 -0.080434538
0.32890812 2.3095117 -0.10099626
0.24517667 2.3178146 -0.1232098
0.16034658 2.3279474 -0.14558247
0.42024624 2.3295064 -0.16710208
0.33078203 2.3139892 -0.18725054
0.24364299 2.2998621 -0.20726024
0.1611785 2.3299408 -0.23196214
0.22911954 1.2680272 -0.13866284
0.1965242 1.3705181 -0.16215573
0.15579735 1.4669793 -0.18673101
0.1643423 2.3672738 -0.32408628
0.23086406 1.2717191 -0.18726604
0.19405773 1.3479589 -0.21031535
0.14976785 1.4050683 -0.23232922
0.16363446 2.3517311 -0.41113836
0.22708754 1.2454731 -0.23151065
0.19442683 1.3460251 -0.26199216
0.14512116 1.3536285 -0.27559161
0.15064776 2.1553092 -0.46003115
0.22427556 1.2233944 -0.27583092
0.1763178 1.216753 -0.28472519
0.14748433 1.3743135 -0.33405849
0.071505003 1.028178 -0.26020417
0.21462096 1.1645405 -0.30977312
0 0 -0
0 0 -0
0 0 -0
0.43116036 2.3241117 0.73026174
0.33791399 2.3115675 0.69385809
0.2470549 2.295893 0.66139585
0.16274555 2.3251464 0.64337593
0.43012697 2.3266916 0.631742
0.3363463 2.2966423 0.59424067
0.24826357 2.2909608 0.56656277
0.16539302 2.323379 0.54863918
0.43179411 2.335938 0.53948486
0.33744472 2.3063886 0.50490475
0.24977268 2.2966533 0.47736731
0.16748832 2.3292787 0.45913979
0.43227986 2.341538 0.44862354
0.3371034 2.2998521 0.41395971
0.25129047 2.2997789 0.38934189
0.16884509 2.3356104 0.37156007
0.43016431 2.3289404 0.35640121
0.33837593 2.3004191 0.32661611
0.25334159 2.3073614 0.3036173
0.17086174 2.3346086 0.28385466
0.4323006 2.3382213 0.26886183
0.34253362 2.3284025 0.24324824
0.25574866 2.3206966 0.21905409
0.17198887 2.3343382 0.19770317
0.43253073 2.3374121 0.18132167
0.34316635 2.327625 0.15672557
0.25515768 2.3101497 0.13299495
0.17274016 2.3339729 0.11126906
0.42781103 2.3078544 0.092671938
0.34344971 2.3216834 0.070229813
0.25757408 2.3212595 0.048024729
0.17442323 2.3433778 0.025634017
0.43484917 2.3439958 0.0067822007
0.34312648 2.3136404 -0.015961768
0.25730965 2.310415 -0.037412137
0.17523493 2.3426831 -0.060244787
0.43546265 2.3404689 -0.080637656
0.34321976 2.3084385 -0.10103951
0.25850481 2.3083274 -0.12278749
0.17432882 2.3229387 -0.14533339
0.43489811 2.3288448 -0.16724291
0.34467995 2.3099444 -0.18709086
0.25719509 2.2933748 -0.20681395
0.17121015 2.2723475 -0.22632864
0.23451945 1.2538924 -0.13727194
0.1918461 1.2818643 -0.1518029
0.17089096 1.5202187 -0.19363765
0.17513038 2.3168216 -0.31732038
0.25236857 1.3432271 -0.19802019
0.19718613 1.3125367 -0.20497353
0.16037725 1.4217725 -0.23524956
0.17672195 2.3330009 -0.40804577
0.24767445 1.3126872 -0.24428241
0.20736513 1.3758781 -0.2680454
0.15342413 1.3527126 -0.27559161
0.15585791 2.0490165 -0.43753982
0.23905511 1.2603624 -0.28449121
0.19266354 1.2744077 -0.29848766
0.13475284 1.1869812 -0.28871864
0.088792555 1.1727415 -0.29692158
0.22158122 1.1622514 -0.30952004
0 0 -0
0 0 -0
0.060242914 0.79603678 -0.23435083
0.45567486 2.374907 0.74708664
0.3512243 2.3037648 0.69214982
0.26211601 2.3029301 0.66387397
0.17620406 2.3135312 0.64044905
0.44076598 2.3050294 0.6265828
0.35204071 2.3050694 0.59696883
0.26275814 2.2932534 0.56751782
0.17934561 2.3184385 0.5477221
0.44666845 2.336118 0.54014927
0.35276943 2.3120039 0.50659829
0.26318887 2.2892399 0.47615314
0.18147185 2.3242941 0.45836812
0.44940415 2.3533206 0.45140085
0.3509112 2.2957942 0.41360909
0.26641503 2.3070102 0.39083549
0.18270941 2.3286226 0.3706198
0.44685876 2.3388839 0.35833573
0.35473651 2.3129821 0.32870269
0.26897997 2.3185678 0.30530334
0.18463367 2.3265889 0.283012
0.44757271 2.3404045 0.2694236
0.35500425 2.3144584 0.24201451
0.27055904 2.3240285 0.21952116
0.18511915 2.3183396 0.19644068
0.4504261 2.3533216 0.18276677
0.35819989 2.3304067 0.1570579
0.26990613 2.3134987 0.13328059
0.18681839 2.3298821 0.11112659
0.44892523 2.3414958 0.094131649
0.35631782 2.3106418 0.069960624
0.2712304 2.3146703 0.047921937
0.18807559 2.3332932 0.025535842
0.45016566 2.346194 0.0067964257
0.35609412 2.3035853 -0.015907174
0.27194831 2.3127646 -0.037476502
0.18984811 2.344553 -0.060321696
0.4498153 2.3377528 -0.080637656
0.3561537 2.2983906 -0.10069349
0.27324969 2.3116562 -0.12305143
0.18890201 2.3258045 -0.14558247
0.45163813 2.338865 -0.16815835
0.35900018 2.3087707 -0.1871707
0.27524266 2.3253829 -0.20984876
0.1237027 1.5174755 -0.15121521
0.3045072 1.5745668 -0.1725796
0.20950195 1.3434695 -0.15924764
0.17039843 1.4363867 -0.1830893
0.15769149 1.9286008 -0.26427576
0.23531885 1.2114713 -0.17880608
0.19988732 1.2771282 -0.19963171
0.1687482 1.4178221 -0.23476283
0.13521162 1.650475 -0.28881052
0.23237392 1.1914214 -0.2219768
0.2063611 1.3144358 -0.25631723
0.16521424 1.3809412 -0.28154391
0.12553902 1.5265121 -0.3261244
0.23551539 1.2013892 -0.27150077
0.19987337 1.2693521 -0.29758519
0.14503826 1.2112252 -0.2948266
0 0 -0
0.25002718 1.2690785 -0.33837146
0 0 -0
0 0 -0
0.063560642 0.77652591 -0.2287174
0.46169204 2.3289549 0.73350859
0.3682088 2.3195546 0.69755942
0.27612704 2.3003242 0.66359866
0.19023812 2.3104851 0.63991696
0.45621201 2.3089163 0.62838852
0.36587349 2.3009527 0.5964728
0.2771737 2.2944901 0.56823409
0.19324382 2.3134146 0.54680508
0.46193922 2.3381166 0.54125655
0.36848238 2.319448 0.50871533
0.27723041 2.2875819 0.47615314
0.19531813 2.318248 0.45740354
0.46497688 2.3563035 0.45251173
0.3676216 2.3101265 0.41658971
0.28020817 2.3023953 0.39033762
0.19591129 2.3146641 0.36858258
0.46254218 2.3428888 0.35937741
0.37017101 2.3185849 0.32981551
0.28211862 2.3080156 0.30413607
0.19839825 2.3194776 0.28228971
0.46423632 2.3493121 0.27077183
0.36935565 2.3132186 0.24211732
0.28251114 2.3035483 0.21774632
0.19925533 2.3161674 0.19635652
0.46911323 2.3720331 0.18444003
0.37249225 2.3281651 0.1570579
0.28458351 2.3157628 0.13350911
0.19999348 2.3157547 0.11050922
0.4656139 2.3504591 0.094605066
0.37429044 2.332098 0.070678473
0.28542784 2.3129625 0.047921937
0.20299403 2.3390687 0.0256122
0.46552542 2.3482921 0.0068106498
0.37022194 2.301357 -0.015907174
0.2865026 2.3140295 -0.037524775
0.2029285 2.3284054 -0.059937153
0.46765843 2.3525932 -0.081247009
0.37247622 2.3099706 -0.10129903
0.28866166 2.3198457 -0.12357932
0.20334312 2.3265901 -0.145707
0.4667612 2.339963 -0.16844003
0.37363735 2.3094766 -0.18741025
0.28741235 2.3068483 -0.20833135
0.13266367 1.5127226 -0.15081987
0.33656129 1.6847934 -0.18488379
0.21965 1.3539234 -0.16064352
0.17736502 1.4205476 -0.18120568
0.13714546 1.5594486 -0.2138022
0.24430519 1.2177672 -0.17995319
0.2131193 1.3090426 -0.2048209
0.17707674 1.4138228 -0.23427613
0.12683415 1.4396099 -0.25204346
0.23909728 1.1870801 -0.22143714
0.21632139 1.3247743 -0.25858721
0.17295003 1.3740668 -0.28035346
0.12525491 1.4165944 -0.30280006
0.2461752 1.2161883 -0.27518138
0.20954746 1.2796388 -0.30029258
0.17518573 1.3906537 -0.33875692
0.12172019 1.3821167 -0.35028425
0.23409173 1.1509124 -0.3072423
0 0 -0
0 0 -0
0 0 -0
0.4776974 2.3345027 0.73616523
0.38352704 2.3238723 0.69955242
0.29095894 2.3043091 0.66525078
0.2044114 2.3092744 0.63991696
0.47905982 2.3486736 0.63999671
0.37935296 2.2948411 0.59548074
0.29210383 2.2994897 0.56990534
0.20752199 2.3131547 0.54703432
0.4823181 2.3648589 0.54812193
0.38254806 2.3161793 0.50850362
0.29126152 2.2858379 0.47615314
0.2090971 2.31212 0.45643899
0.48021081 2.3572578 0.45325238
0.38195002 2.3087986 0.41676503
0.29395473 2.2976983 0.38983977
0.21028878 2.3153856 0.36889601
0.47789654 2.3448513 0.36012143
0.38358003 2.3113856 0.32912001
0.29678041 2.3101749 0.3046549
0.21262656 2.3182166 0.28228971
0.48321062 2.3688126 0.27335596
0.38223946 2.3030586 0.24129485
0.29676738 2.3027589 0.21783972
0.21355481 2.3158934 0.19644068
0.48326001 2.367156 0.18428792
0.38677058 2.3258355 0.1570579
0.30044946 2.3268449 0.13425177
0.21511941 2.3244302 0.11098412
0.48423105 2.3681161 0.095433556
0.38908625 2.3327153 0.070768207
0.29948601 2.3101764 0.047901377
0.21641682 2.3278224 0.025503119
0.48012602 2.3463714 0.006813495
0.38483047 2.302001 -0.015927646
0.30069584 2.312228 -0.037524775
0.21749023 2.3301024 -0.060014062
0.48570055 2.3673022 -0.081856363
0.38829383 2.3174949 -0.10173156
0.30327868 2.3210013 -0.12373769
0.21714999 2.3203299 -0.14539565
0.48191467 2.3409631 -0.16872171
0.3887924 2.3130386 -0.18788937
0.30026945 2.2951653 -0.20743877
0.14278023 1.5207969 -0.15170938
0.45891005 2.2260673 -0.24458584
0.21656397 1.2849716 -0.15261716
0.1744723 1.3309025 -0.16990386
0.14197585 1.5082692 -0.206901
0.24715851 1.1939555 -0.17665525
0.20895301 1.2356011 -0.19352676
0.18240397 1.3872731 -0.23005785
0.13400044 1.4211504 -0.2489509
0.24737728 1.1904063 -0.22233656
0.22214733 1.3098683 -0.25593889
0.17611498 1.333141 -0.27221864
0.13357612 1.4119042 -0.30196702
0.24944231 1.1945859 -0.27063471
0.2111886 1.2418327 -0.29171923
0.18065766 1.3664256 -0.33311883
0 0 -0
0.24512199 1.1683911 -0.31230396
0 0 -0
0 0 -0
0 0 -0
0.4971419 2.355834 0.74383974
0.39777884 2.3214753 0.69955242
0.30597639 2.3091516 0.66717821
0.21884964 2.3108556 0.64071518
0.49664432 2.3608174 0.64412409
0.39555687 2.3048825 0.59870493
0.30646428 2.2995794 0.57038283
0.22208302 2.3157134 0.54795134
0.49581584 2.3570833 0.54701459
0.39675269 2.3137882 0.50850362
0.30554116 2.285949 0.47655782
0.22318567 2.3098166 0.45624602
0.49830288 2.3715777 0.45658508
0.39994213 2.3287284 0.42079768
0.3067362 2.2860777 0.3881802
0.2249686 2.3189671 0.36967957
0.49268213 2.3438103 0.36041906
0.39825952 2.3119161 0.32953733
0.31081739 2.3073277 0.30452517
0.22626646 2.3109403 0.28156748
0.50223702 2.3871956 0.27582777
0.3978835 2.3094923 0.24222013
0.31249106 2.3127348 0.21896069
0.22727291 2.309581 0.19601984
0.49572113 2.354389 0.18352734
0.4030709 2.3352175 0.15785548
0.31351575 2.3160534 0.13373762
0.22849444 2.3141201 0.11055671
0.50390697 2.3895433 0.096419841
0.39878881 2.3036916 0.069960624
0.31567457 2.3231554 0.048209753
0.23089334 2.3284409 0.025524937
0.49100387 2.3267474 0.0067651314
0.40305033 2.3232424 -0.016091427
0.31474271 2.3093488 -0.037508685
0.23148634 2.3257399 -0.059937153
0.50456119 2.3848107 -0.082567275
0.40113735 2.3071945 -0.10138554
0.31710801 2.3161287 -0.12357932
0.231185 2.3169677 -0.14527112
0.50206894 2.3652837 -0.1706934
0.40537527 2.3243573 -0.18900727
0.31583455 2.3041341 -0.2084206
0.15597363 1.5585084 -0.15556388
0.47524765 2.2358525 -0.24597675
0.22649719 1.2953591 -0.15401305
0.18803468 1.3691211 -0.17492688
0.14667805 1.4620204 -0.20067638
0.25923067 1.2146776 -0.17995319
0.2342902 1.3355315 -0.20939963
0.18391164 1.3352965 -0.2216213
0.14271793 1.4203016 -0.2489509
0.24602273 1.1484675 -0.21478143
0.22439606 1.2755992 -0.24950731
0.18348572 1.32621 -0.27102816
0.14164834 1.4052192 -0.30071753
0.25532958 1.1863519 -0.26911917
0.22675781 1.2856055 -0.30232307
0.17264092 1.2468634 -0.30422345
0.11958135 1.1904684 -0.30206203
0.24778865 1.1460619 -0.30673611
0 0 -0
0 0 -0
0.076884516 0.76567727 -0.22590068
0.51321173 2.360208 0.7462011
0.41067415 2.3114402 0.69727468
0.32000721 2.3062785 0.6669029
0.23321821 2.3113873 0.64124727
0.51521456 2.37661 0.64928323
0.40918276 2.2995508 0.59796089
0.32097104 2.3005409 0.5710991
0.23658438 2.3172121 0.54863918
0.51171547 2.3606682 0.54856491
0.41162667 2.3151593 0.50935042
0.32051161 2.2908204 0.47797439
0.23715353 2.3064518 0.45586023
0.51388508 2.3732779 0.45751086
0.41525897 2.3320463 0.4218497
0.32034615 2.2812228 0.38768229
0.23899049 2.315578 0.36936614
0.51584709 2.3813343 0.36666912
0.41365635 2.3162529 0.33051103
0.3285675 2.3309052 0.30789727
0.23982508 2.3035841 0.2808452
0.51792777 2.3889244 0.27638951
0.41309616 2.3128829 0.242837
0.3307175 2.3393629 0.22166967
0.24195831 2.3130982 0.19644068
0.51607788 2.3785872 0.18565696
0.41844642 2.3385935 0.15825427
0.32856083 2.3200171 0.1340804
0.24258506 2.3116813 0.11050922
0.5206812 2.3961709 0.096814364
0.41662371 2.321862 0.070588738
0.33175224 2.3340425 0.048477016
0.24528082 2.3279748 0.025535842
0.52056968 2.3940465 0.0069699632
0.41871369 2.3285995 -0.016146021
0.32975331 2.3133132 -0.037605233
0.24617289 2.3282521 -0.060039695
0.52237767 2.3963175 -0.083075069
0.42184177 2.3410692 -0.1029859
0.33159661 2.3161166 -0.12368491
0.24581803 2.3194757 -0.1455202
0.51699883 2.3641076 -0.17083424
0.41962963 2.3218262 -0.18900727
0.32445526 2.2637014 -0.20493948
0.15964414 1.5021083 -0.15002921
0.49895376 2.278543 -0.25100544
0.22541049 1.2441026 -0.14808051
0.18867618 1.313931 -0.16802022
0.1547015 1.4522259 -0.19945852
0.25754169 1.1715008 -0.17378744
0.22639756 1.2455845 -0.19551086
0.1989923 1.3820001 -0.22957113
0.15143006 1.419399 -0.2489509
0.25242916 1.1440548 -0.2142418
0.22500047 1.2345911 -0.24175161
0.19358364 1.3386396 -0.27380592
0.14818664 1.384873 -0.29655245
0.25351962 1.1437775 -0.25980935
0.22466084 1.2295641 -0.2894631
0.20033577 1.3843075 -0.33805215
0.10508519 0.98532087 -0.25016806
0.26217467 1.1775713 -0.31559402
0.22223088 1.2111236 -0.33461788
0.11033186 0.76098067 -0.21710908
0 0 -0
0.52893645 2.3626089 0.74797219
0.4286657 2.3296182 0.70353854
0.3358078 2.3156881 0.67020708
0.24770418 2.3127882 0.64204556
0.52410436 2.3479443 0.64231831
0.42433822 2.3027129 0.59944898
0.33480066 2.2966063 0.57062161
0.24975003 2.3060398 0.54634649
0.53107643 2.3793738 0.55365849
0.42883322 2.3289299 0.51294935
0.33640313 2.3014076 0.48060504
0.25215197 2.3127565 0.45740354
0.53485322 2.3988547 0.46306542
0.43063155 2.3352635 0.42290169
0.33662736 2.2948251 0.39033762
0.25222731 2.3052318 0.36795574
0.53066421 2.3790894 0.36681792
0.43020183 2.3263302 0.33231941
0.34257466 2.3268836 0.3076379
0.25417277 2.3040426 0.28108594
0.53777212 2.4089768 0.27908602
0.42963159 2.3230197 0.24417351
0.34273872 2.3215303 0.22017506
0.25636616 2.3135509 0.19660902
0.52805412 2.3636985 0.18474427
0.43115202 2.3271523 0.15765609
0.34381238 2.3248708 0.13448028
0.25698537 2.3121345 0.1106042
0.5360285 2.3958561 0.096932709
0.4325057 2.3281064 0.070857935
0.34430629 2.3200958 0.048230316
0.25978214 2.3284135 0.02555766
0.53787112 2.4025176 0.0070041018
0.43390882 2.3309016 -0.016180141
0.34335265 2.3072906 -0.037540868
0.26000932 2.3227241 -0.059937153
0.53838444 2.3989179 -0.083278179
0.43656477 2.3404009 -0.10307241
0.34624454 2.3170011 -0.12384328
0.26037925 2.3208992 -0.145707
0.53762931 2.3881395 -0.17280595
0.43606779 2.3309655 -0.18996549
0.34364393 2.2971299 -0.20815283
0.17141636 1.5238444 -0.15230238
0.51533026 2.2861078 -0.25218233
0.22992784 1.2261008 -0.14610301
0.20158696 1.3451258 -0.17216422
0.15472953 1.3724841 -0.18863308
0.26887503 1.1882386 -0.17651185
0.22581466 1.2004657 -0.1886428
0.20233662 1.3466003 -0.2238927
0.160468 1.4213798 -0.2494663
0.26162255 1.152077 -0.21604064
0.23220755 1.2312573 -0.24137327
0.19375122 1.2841233 -0.26289335
0.15415061 1.3615848 -0.29176262
0.26400673 1.1574298 -0.26327348
0.23057222 1.219547 -0.28743255
0.19387873 1.2840569 -0.31385523
0.13309386 1.1792767 -0.29961422
0.26399428 1.152365 -0.30926695
0.18916188 0.99642146 -0.27561393
0 0 -0
0.086489908 0.76658303 -0.22646402
0.55050009 2.390044 0.7577129
0.44582006 2.3420115 0.708094
0.35058552 2.3173864 0.67130858
0.26156491 2.3083513 0.64124727
0.5501796 2.3955328 0.65624815
0.44154334 2.3162434 0.60366517
0.34888607 2.2945087 0.57062161
0.26367342 2.3025298 0.54588795
0.55155927 2.4017322 0.55963802
0.44439533 2.3329754 0.51443124
0.35258421 2.3128541 0.4834381
0.2665627 2.3131154 0.45778939
0.55088067 2.4012749 0.46417633
0.4460592 2.3383796 0.42395368
0.35114914 2.2956409 0.39083549
0.26784196 2.3163953 0.36999297
0.549676 2.3950646 0.36979413
0.44502598 2.3265646 0.33273673
0.35759789 2.329638 0.30828634
0.26853517 2.3044119 0.28132671
0.55410028 2.412411 0.27987248
0.44593316 2.3310869 0.24530444
0.35682547 2.3183997 0.22008166
0.27055702 2.3119345 0.19660902
0.55103528 2.3973408 0.18763445
0.44880313 2.3421021 0.15885246
0.35989642 2.334558 0.13516584
0.27198255 2.3174589 0.11093663
0.55901241 2.4285512 0.098392434
0.44942287 2.3391511 0.07127668
0.35777149 2.312999 0.048127521
0.27383018 2.3247895 0.025535842
0.55462265 2.4079423 0.0070297061
0.45122737 2.3439066 -0.016289329
0.3582696 2.3100805 -0.037621323
0.27366987 2.3161213 -0.059808973
0.55444282 2.4014122 -0.083481297
0.45148465 2.3406212 -0.10320218
0.36091584 2.3177931 -0.12400164
0.27438042 2.3172755 -0.14558247
0.55497313 2.3964572 -0.17365097
0.4497942 2.32531 -0.18972594
0.35972661 2.3077717 -0.2093132
0.19624721 1.6532018 -0.1653484
0.52957243 2.2838712 -0.25228932
0.24595399 1.2685444 -0.15133759
0.207847 1.3311208 -0.17053173
0.15823252 1.3301865 -0.18294975
0.26965502 1.1586132 -0.17235357
0.2386473 1.2271907 -0.19306889
0.2025073 1.2936647 -0.2152939
0.16429259 1.3792835 -0.24225034
0.26891035 1.1514078 -0.21622051
0.23487268 1.2047505 -0.23645499
0.19630082 1.2490221 -0.25594902
0.15925451 1.3334205 -0.28593153
0.27110362 1.1557881 -0.26327348
0.23655605 1.2104603 -0.28562763
0.20250897 1.2876441 -0.31502986
0.11636615 0.97721773 -0.2484546
0.27305645 1.1591985 -0.31154469
0.198245 1.0103933 -0.27980977
0 0 -0
0.094481215 0.79366869 -0.23463251
0.57638299 2.4340374 0.77276677
0.46036699 2.3401723 0.70837873
0.36509737 2.3170907 0.6718592
0.27652463 2.3134029 0.6431098
0.56420183 2.389291 0.65547425
0.4604283 2.3372529 0.60986555
0.36371771 2.2971206 0.57181537
0.27896324 2.3105321 0.54818064
0.57166386 2.4210804 0.56495315
0.46115577 2.3426707 0.5171833
0.36722955 2.3135488 0.48404518
0.28015912 2.3065658 0.45682478
0.57169574 2.4236739 0.46917543
0.46192205 2.3433259 0.42535633
0.36615884 2.2992861 0.39183128
0.27978027 2.2960808 0.36701545
0.56731385 2.4041584 0.37172866
0.45948511 2.3247616 0.33287582
0.37188554 2.3274 0.30828634
0.28363734 2.3106034 0.28228971
0.57140428 2.4196031 0.28110835
0.46196404 2.3370893 0.24622972
0.3704142 2.3122339 0.21970798
0.28522524 2.3141866 0.19694567
0.57444894 2.4307888 0.19052465
0.46510345 2.349092 0.15951712
0.37231624 2.3204768 0.13448028
0.28533947 2.3088069 0.1106042
0.57804525 2.4425778 0.099102557
0.46785405 2.3569384 0.071904801
0.3740226 2.3235924 0.048394781
0.28882805 2.3290195 0.025601292
0.57238263 2.4171441 0.0070666894
0.46794152 2.3528631 -0.01637122
0.37339306 2.3137612 -0.037717871
0.28824636 2.3173745 -0.059885882
0.57355249 2.4164407 -0.084124506
0.46896175 2.3534837 -0.10389423
0.37481135 2.3135633 -0.12389605
0.28884065 2.3175292 -0.145707
0.57359421 2.4095035 -0.17484806
0.46542072 2.3293486 -0.19028489
0.37403953 2.3065042 -0.20940247
0.26128417 2.0913718 -0.20932928
0.54219288 2.2747757 -0.25164738
0.24359147 1.2163699 -0.14528875
0.21330659 1.3131733 -0.16839695
0.17365257 1.3871951 -0.19093348
0.2645559 1.1059238 -0.16475394
0.2389724 1.1898527 -0.18742181
0.20457366 1.2563627 -0.209291
0.16772932 1.3381727 -0.23520619
0.27114877 1.1296493 -0.21244296
0.24516761 1.2177262 -0.23929247
0.20680694 1.2652053 -0.25952041
0.16670156 1.3265957 -0.28468204
0.2678954 1.1113935 -0.25353059
0.24166626 1.1975265 -0.28292027
0.20209017 1.2355362 -0.30257902
0.12127508 0.96782672 -0.24625154
0.27720535 1.1452775 -0.30825463
0.24276164 1.1983159 -0.33225772
0 0 -0
0.098991491 0.79021782 -0.23378749
0.58385366 2.3998191 0.76302606
0.47929662 2.3598497 0.71521193
0.37915245 2.3138583 0.67158389
0.29131562 2.3164449 0.64444023
0.58773601 2.4224019 0.66553468
0.46723098 2.2973602 0.60019302
0.37890995 2.3015528 0.57348669
0.29362556 2.3126395 0.54909772
0.59294617 2.4440622 0.57115418
0.47883046 2.3560789 0.52078223
0.38221556 2.316083 0.48505697
0.29380953 2.3009102 0.45605314
0.59234315 2.4439967 0.47380421
0.47786233 2.3481653 0.42675897
0.38364238 2.3174272 0.39531645
0.29574564 2.3090155 0.36936614
0.59137517 2.4390731 0.37768108
0.48007599 2.3529477 0.33732715
0.38615921 2.3250742 0.30828634
0.29831761 2.312758 0.28277126
0.59303486 2.4440553 0.28436661
0.47888076 2.3468807 0.24756625
0.38541242 2.3148282 0.22017506
0.3001872 2.3183222 0.19745067
0.59382331 2.4456284 0.19196975
0.48350435 2.3657455 0.16084643
0.38753268 2.3240571 0.13482307
0.30001509 2.3109751 0.11079416
0.59514642 2.4477236 0.099457622
0.4857178 2.3706698 0.072413273
0.38893262 2.3251979 0.048477016
0.30362979 2.3311698 0.025644924
0.58838511 2.4184446 0.0070809135
0.48317388 2.3538656 -0.016398516
0.3879137 2.3133991 -0.037750054
0.30284852 2.318536 -0.05996279
0.59073633 2.4225857 -0.084463038
0.4841986 2.3544762 -0.10406724
0.39016023 2.3181133 -0.12426558
0.30460942 2.3275886 -0.1464542
0.57936347 2.3691182 -0.17217219
0.48453581 2.3498793 -0.19220132
0.38653028 2.2943442 -0.20850988
0.27320573 2.0828226 -0.20863745
0.56583506 2.3110013 -0.25603411
0.25426641 1.2304149 -0.14714994
0.22086483 1.3089049 -0.16802022
0.17777155 1.3527035 -0.18633269
0.27275366 1.1100461 -0.16561429
0.2498785 1.205783 -0.19016904
0.20717743 1.2249228 -0.20426151
0.18030655 1.3703265 -0.2410477
0.28231326 1.1451559 -0.21568085
0.24504581 1.179665 -0.23210424
0.20980899 1.2358899 -0.25376651
0.17253608 1.3080937 -0.28093347
0.28948918 1.1694324 -0.26717061
0.24801673 1.1912524 -0.28179219
0.21129534 1.2438558 -0.30492824
0.12759063 0.96994829 -0.2469859
0.27839354 1.120083 -0.30192757
0.22721101 1.0872304 -0.30183792
0 0 -0
0.10233703 0.77817965 -0.23040742
0.62380719 2.4972303 0.79520011
0.49494675 2.362494 0.71692026
0.39592323 2.3266518 0.67598951
0.30489281 2.3098354 0.6431098
0.61893779 2.484375 0.68359178
0.49543986 2.3617666 0.61780196
0.39809719 2.3288574 0.58088803
0.30858123 2.3165832 0.55047327
0.62490356 2.5085077 0.58709949
0.49187443 2.3464007 0.51930034
0.39724651 2.3185205 0.48606879
0.30818266 2.3010092 0.45643899
0.6182453 2.4841828 0.4823212
0.49671081 2.3663864 0.43061629
0.39935783 2.3237762 0.39681005
0.30938199 2.303242 0.36873931
0.6199472 2.4900942 0.38616326
0.49776706 2.3654628 0.33955282
0.40294516 2.3373182 0.3102318
0.31316796 2.3158026 0.28337315
0.61714882 2.4770098 0.28863603
0.49798343 2.366286 0.24993089
0.39910007 2.3094766 0.21989481
0.31440651 2.3164365 0.19745067
0.61508977 2.4670935 0.19394726
0.4984228 2.3646872 0.16097936
0.40314749 2.3295054 0.13528009
0.31499735 2.3150291 0.1110791
0.61838311 2.4769876 0.10079898
0.50273442 2.3793805 0.072772205
0.40524432 2.3345885 0.04872372
0.31765741 2.3272815 0.025623109
0.62138975 2.4875526 0.00729428
0.5000928 2.3625963 -0.016480407
0.40398651 2.321811 -0.037927058
0.31693351 2.3156435 -0.059937153
0.62282318 2.4877505 -0.086866595
0.5031957 2.3729622 -0.10501881
0.40712512 2.3314152 -0.12511021
0.31915668 2.3276534 -0.14657874
0.3556048 1.4164087 -0.10309206
0.49873802 2.3458872 -0.19212146
0.4042021 2.3125329 -0.21038432
0.30508205 2.2201104 -0.22257297
0.30660495 1.2197951 -0.13534607
0.25684413 1.2055178 -0.14435814
0.22940518 1.3104568 -0.16839695
0.18350084 1.3329378 -0.18376164
0.27859142 1.1045132 -0.16504073
0.24715488 1.1568698 -0.18269049
0.2187821 1.2469543 -0.20815532
0.19664714 1.4267727 -0.25118437
0.27461439 1.0852307 -0.20470794
0.24919535 1.1637365 -0.22926676
0.21058963 1.1959685 -0.2458301
0.18377145 1.3302633 -0.28593153
0.28680265 1.1288391 -0.25829378
0.25307283 1.1792302 -0.27931044
0.22499534 1.2769977 -0.3133854
0.13578965 0.98547566 -0.25114718
0.2871739 1.1258532 -0.30395222
0.24952391 1.1584551 -0.32203037
0 0 -0
0.10527675 0.7642296 -0.22646402
0.63176376 2.4646642 0.78604966
0.5102427 2.3631606 0.71805912
0.41019186 2.3241787 0.67598951
0.32038003 2.3174698 0.64577061
0.63034099 2.4655535 0.67946446
0.51381147 2.376673 0.62251425
0.41153187 2.3215902 0.57969427
0.32386526 2.3223586 0.55230749
0.63472861 2.4828961 0.5820058
0.51059651 2.3633997 0.52374607
0.41369212 2.3285742 0.48869947
0.32352152 2.3078203 0.45817518
0.64028531 2.5070028 0.4875055
0.51746589 2.3921616 0.43587625
0.41464666 2.3271072 0.39780584
0.32337108 2.3003221 0.36858258
0.63815188 2.4977405 0.38794902
0.51479024 2.3739772 0.34122205
0.41675577 2.3318734 0.30984271
0.32737157 2.3138375 0.28337315
0.64070469 2.5059085 0.29245606
0.51776367 2.3874884 0.25250113
0.41554549 2.3197246 0.2211092
0.32917425 2.3184102 0.19778731
0.64875174 2.535722 0.19965158
0.51228756 2.3586593 0.16077997
0.41972512 2.3397627 0.13602275
0.32933691 2.3140416 0.11112659
0.642497 2.5079932 0.10221924
0.51881295 2.3830876 0.072981574
0.42115474 2.340914 0.048908748
0.33179006 2.3242986 0.0256122
0.65029788 2.5369704 0.0074507487
0.51884151 2.3790236 -0.01661689
0.42106432 2.3350325 -0.038184516
0.33127773 2.3146451 -0.05996279
0.64255196 2.5013061 -0.087475941
0.5196656 2.3786142 -0.10540809
0.42355654 2.3406651 -0.12574369
0.3335745 2.3266392 -0.14664102
0.34488016 1.3388532 -0.097599447
0.51568192 2.3544676 -0.19307968
0.41749638 2.3051088 -0.20993802
0.32336873 2.2507014 -0.22583447
0.29720014 1.1524231 -0.12807053
0.25976485 1.1835465 -0.14191534
0.22894265 1.262169 -0.16236933
0.1899824 1.3200184 -0.18213783
0.2826362 1.0922439 -0.16346346
0.25637269 1.1649834 -0.18421671
0.22272298 1.2252008 -0.20474824
0.19148934 1.3290082 -0.23417532
0.29214314 1.125419 -0.21262284
0.25654271 1.1631445 -0.22945593
0.22830133 1.2515422 -0.25753629
0.18787645 1.3010377 -0.27989221
0.29052299 1.1147766 -0.25547919
0.25820106 1.1681427 -0.27705428
0.22828877 1.2507313 -0.30727744
0.1392073 0.96639025 -0.24649633
0.28550646 1.0913118 -0.29509431
0.24785021 1.117334 -0.31101632
0.1529759 0.83687252 -0.24020581
0 0 -0
0.64663184 2.4598174 0.7857545
0.52806216 2.3749576 0.72261465
0.42617393 2.3310747 0.67874306
0.33528304 2.3202307 0.64710104
0 0 0
0.52880579 2.3753667 0.62301028
0.4291009 2.3371685 0.58423054
0.3381089 2.3203278 0.55230749
0.66330665 2.5298922 0.59396487
0.5301823 2.3831184 0.52882683
0.42868105 2.3298445 0.4895089
0.33838686 2.3106461 0.45913979
0 0 0
0.5342747 2.398551 0.43762958
0.43088606 2.3351867 0.39963141
0.33819696 2.3031807 0.36936614
0.65120977 2.4851687 0.3866097
0.53387874 2.3910701 0.34414324
0.42997339 2.3234224 0.30906454
0.34402952 2.3284802 0.28541958
0.65506041 2.4980853 0.29200667
0.53218651 2.3832958 0.25239831
0.43303949 2.3347521 0.22279064
0.34456256 2.3242319 0.19846062
0.64911443 2.4738262 0.1950881
0.5352428 2.3934472 0.16337211
0.43297988 2.3312538 0.13567998
0.34617192 2.3297617 0.11198141
0.66015887 2.5127017 0.1025743
0.53889096 2.4042435 0.073729344
0.43807328 2.3520463 0.049196564
0.34589806 2.3212299 0.025601292
0.66890299 2.544538 0.0074848868
0.53321004 2.3748195 -0.016610065
0.43648475 2.3383024 -0.038281064
0.34591696 2.3155346 -0.060039695
0.66399801 2.5205112 -0.088288411
0.53578532 2.3822038 -0.10571086
0.43846214 2.3409669 -0.12590206
0.34873044 2.330471 -0.14701462
0.35436249 1.3415341 -0.097951531
0.53253061 2.3619554 -0.19395804
0.43401814 2.3152301 -0.21109839
0.34307507 2.288039 -0.2297878
0.30909529 1.168841 -0.13010341
0.27030513 1.1964623 -0.1436602
0.23228967 1.2373393 -0.15935551
0.19896127 1.3247068 -0.18294975
0.28958654 1.0914456 -0.16360684
0.26591763 1.173991 -0.18589558
0.2216619 1.1782333 -0.1971229
0.19729684 1.3122214 -0.2314264
0.29524809 1.1093464 -0.20992458
0.26367483 1.1615484 -0.22945593
0.22761355 1.2058147 -0.24840944
0.18346921 1.217652 -0.2621907
0.28702575 1.074302 -0.24660237
0.26687643 1.1731859 -0.27863359
0.22982532 1.2168328 -0.29929009
0 0 -0
0.30121878 1.1231787 -0.3042053
0.26329163 1.1534243 -0.3215059
0.1831477 0.96830332 -0.27824745
0.11536007 0.76762444 -0.22787237
0.66071856 2.4521134 0.78457385
0.55117667 2.4090512 0.73400331
0.44350681 2.3444738 0.683424
0.35037571 2.3238487 0.6486975
0 0 0
0.55526787 2.4240139 0.63665104
0.44361466 2.3354456 0.58446932
0.35263228 2.3201339 0.55276597
0.67350209 2.5059979 0.5893141
0.5467577 2.3883948 0.53073215
0.44516608 2.3387148 0.49193722
0.35226208 2.3065863 0.45875394
0.67584389 2.5169895 0.49102339
0.54898185 2.3952277 0.43762958
0.44520637 2.3324988 0.39963141
0.35366794 2.3098485 0.37077653
0.68029851 2.532697 0.39464548
0.55053544 2.3964353 0.34539515
0.44571283 2.3285313 0.31010208
0.35906595 2.3312314 0.2860215
0.67347127 2.5055339 0.2933549
0.55080926 2.3974352 0.25424889
0.44754466 2.3330288 0.22288404
0.35866511 2.3210893 0.19837648
0.66997886 2.4909804 0.19676138
0.54745764 2.3794217 0.16264099
0.44840601 2.3344359 0.13602275
0.35954332 2.321671 0.11169647
0.67842221 2.519217 0.10300827
0.55700195 2.4155014 0.074177995
0.45552239 2.3650219 0.049525503
0.36074811 2.3230162 0.025644924
0.69230849 2.5693526 0.0075702332
0.55339789 2.3958611 -0.016780671
0.45252955 2.3444157 -0.038425885
0.36119467 2.3202832 -0.060219154
0.67971164 2.5173545 -0.088322267
0.5544458 2.3963919 -0.10648942
0.45433664 2.3460755 -0.12632436
0.3630234 2.3282874 -0.14701462
0.35424602 1.3085232 -0.095698163
0.55061644 2.3741798 -0.19523565
0.44632074 2.3027453 -0.21020579
0.36064041 2.3085039 -0.23206097
0.31678152 1.1688417 -0.13031739
0.26617604 1.145442 -0.13772768
0.24252388 1.2495254 -0.16111358
0.20371602 1.3019254 -0.17997275
0.29316208 1.0781883 -0.16188617
0.26257712 1.1270992 -0.17872226
0.2279453 1.172008 -0.1963117
0.19878957 1.2691357 -0.2240386
0.3023082 1.1084629 -0.21010447
0.26744831 1.1455652 -0.22661848
0.23819901 1.2207489 -0.25178239
0.19867167 1.2657818 -0.27281159
0.2930966 1.0706373 -0.24616936
0.27007541 1.1544515 -0.27457252
0.23337601 1.1953655 -0.29435673
0 0 -0
0.29964602 1.0905247 -0.29585356
0.25779402 1.0982374 -0.30655822
0 0 -0
0.11977113 0.76500624 -0.22730905
0.7136327 2.5852418 0.82855481
0.56397218 2.3972256 0.73144084
0.45954424 2.3501997 0.68590224
0.36477754 2.3226075 0.64896357
0.72306925 2.6258583 0.72718692
0.56635523 2.404531 0.63243479
0.45849752 2.3355384 0.58518559
0.36762255 2.3227336 0.55391234
0.69300795 2.516861 0.59285754
0.56923997 2.4182916 0.53814161
0.46007481 2.3388219 0.49254426
0.36871964 2.3189173 0.46164769
0.71056408 2.5829108 0.50472462
0.56592667 2.4013968 0.43938291
0.46046406 2.3345606 0.4004612
0.36830068 2.3105612 0.37124667
0.68847942 2.5017791 0.39047879
0.57137567 2.4190338 0.34915099
0.46268547 2.3393707 0.31191784
0.37383479 2.3319252 0.28638265
0.70413381 2.5569189 0.29987139
0.57191211 2.4211161 0.25712758
0.46514207 2.3468413 0.22447206
0.37495703 2.3316345 0.19947061
0.68922389 2.5012417 0.19790226
0.57468003 2.4294224 0.1662966
0.46796858 2.3580811 0.13756523
0.37537131 2.329283 0.11217137
0.70183951 2.5439038 0.10419182
0.5725044 2.4149559 0.07426773
0.46924487 2.3582602 0.049443271
0.37435707 2.3168106 0.025601292
0.71151984 2.5775876 0.0076072169
0.57409483 2.4177165 -0.016958099
0.47159865 2.3651285 -0.038812079
0.37734273 2.329865 -0.060526781
0.70020735 2.5314381 -0.088965468
0.57098866 2.4007204 -0.10683544
0.46970269 2.3481395 -0.1265883
0.37698308 2.3240459 -0.14689009
0.37239793 1.342852 -0.098374046
0.5725708 2.4017851 -0.19779089
0.46767586 2.3360989 -0.2135084
0.37671384 2.3180344 -0.23324698
0.35719326 1.2866293 -0.14369151
0.26373887 1.1041797 -0.13295838
0.24609123 1.2275865 -0.15847649
0.21663503 1.3309668 -0.18416761
0.29897565 1.073509 -0.161456
0.26833725 1.1206613 -0.17795914
0.23999041 1.194773 -0.20036772
0.21449386 1.3165076 -0.23262906
0.31175035 1.1160613 -0.2119033
0.27470142 1.1448574 -0.22680764
0.23735988 1.1779497 -0.24325077
0.20217986 1.2384759 -0.26718876
0.31152028 1.1111202 -0.25591218
0.27237147 1.1328809 -0.26983464
0.2485825 1.2329776 -0.30398852
0.20607419 1.2651081 -0.32360291
0.30292514 1.0765588 -0.2925635
0.2744844 1.1379112 -0.31809679
0.19235024 0.95277607 -0.27444327
0.12723899 0.78130358 -0.23237914
0.72038621 2.5486345 0.81822366
0.59714127 2.4701252 0.75478774
0.47585881 2.3567591 0.68865573
0.3791773 2.3212767 0.64922959
0 0 0
0.59591073 2.4622126 0.64855564
0.47590598 2.3479087 0.58900559
0.38249987 2.324276 0.55482942
0.71452475 2.5341485 0.59795117
0.59256899 2.4499011 0.54597455
0.4771457 2.349391 0.49537733
0.38518167 2.3301642 0.4643485
0.71440798 2.5359373 0.49639282
0.58899206 2.4323258 0.44569486
0.47694433 2.3423207 0.40228674
0.38392407 2.3170269 0.37265703
0.71132737 2.524158 0.39464548
0.59111232 2.4356916 0.35207215
0.48020443 2.3520317 0.31399295
0.38797301 2.328608 0.28626224
0.70281887 2.4922991 0.29279312
0.5961414 2.4562268 0.26123998
0.48192793 2.3556483 0.22559303
0.38876387 2.3263414 0.19921812
0.71593076 2.5372701 0.20109667
0.59287488 2.4394243 0.1672271
0.48363072 2.3610334 0.137908
0.38998637 2.3289061 0.11226635
0.72477007 2.5655124 0.10525702
0.59227872 2.4317923 0.074895851
0.48692402 2.3710058 0.049772203
0.39154574 2.3322203 0.025797637
0.72351426 2.5597012 0.0075673885
0.5934217 2.4326067 -0.017087759
0.48791572 2.3710043 -0.038956895
0.39096791 2.3235624 -0.060424238
0.71327573 2.5184398 -0.088660799
0.59163672 2.4214346 -0.10791677
0.48874494 2.3677068 -0.12780245
0.39156774 2.3236573 -0.14701462
0.37409139 1.3175117 -0.096684009
0.5379802 2.1968412 -0.18118188
0.48059055 2.3263576 -0.21288359
0.39026737 2.3117545 -0.23285165
0.31886837 1.1218294 -0.12550272
0.27642569 1.1266558 -0.13586649
0.25040346 1.2105091 -0.15646726
0.22116387 1.3081199 -0.18119061
0.30338603 1.0640404 -0.16030888
0.27308422 1.1103566 -0.17658554
0.24631561 1.1884469 -0.19955651
0.21549952 1.2734001 -0.22524129
0.3102085 1.0848083 -0.2063269
0.27796155 1.1278957 -0.22378102
0.24597965 1.1831883 -0.24463964
0.20830366 1.2285333 -0.26531449
0.30513561 1.0632063 -0.2453033
0.27511379 1.1141639 -0.26577359
0.24466231 1.1762338 -0.29036307
0.2083334 1.2313163 -0.31528032
0.30925733 1.0737503 -0.29231042
0.28285354 1.1418258 -0.31967023
0.19623044 0.94215637 -0.27172601
0.12963003 0.76631707 -0.22815406
0 0 0
0.61644381 2.4831617 0.75991273
0.49266317 2.3650885 0.69195992
0.39599302 2.3341124 0.65348685
0 0 0
0.61801708 2.4867148 0.65599608
0.49388096 2.3620539 0.5933032
0.39675415 2.3218851 0.55482942
0 0 0
0.62408155 2.5126152 0.56079358
0.49456424 2.3607965 0.49841273
0.4014636 2.3393619 0.46666351
0.74955815 2.5994911 0.50972372
0.6143586 2.4707043 0.45340952
0.49455053 2.3547912 0.4049421
0.39947328 2.3224144 0.37391073
0.72515756 2.514045 0.39375263
0.61394817 2.4637282 0.3566626
0.50136936 2.3810604 0.31827292
0.40208462 2.3252053 0.28614187
0.73518258 2.5471311 0.29975906
0.62226593 2.4969211 0.26596922
0.49760604 2.3584919 0.22615349
0.40541449 2.3376572 0.20039642
0.73674226 2.5510306 0.20254177
0.61749524 2.4744647 0.16988574
0.50017208 2.3677895 0.13847928
0.40324286 2.3205645 0.11198141
0.72995126 2.5245407 0.10375785
0.61785823 2.4707787 0.076211907
0.50249875 2.372864 0.049874995
0.4079079 2.3415952 0.025928535
0.7367056 2.5465682 0.0075417846
0.61416739 2.4522002 -0.017251538
0.50390756 2.3748128 -0.039069537
0.40676495 2.3299828 -0.060654964
0.72788042 2.5111361 -0.08855924
0.61474788 2.4507062 -0.10938738
0.50492674 2.3724775 -0.12822476
0.40753689 2.3310423 -0.14763731
0.38133344 1.3123178 -0.096472763
0.34632692 1.3775831 -0.11378765
0.49776056 2.337003 -0.21413322
0.40392968 2.3063757 -0.23255515
0.33824241 1.1628128 -0.13031739
0.284789 1.1307173 -0.13656443
0.25761935 1.2079796 -0.15634169
0.23021314 1.3125937 -0.18200251
0.31351274 1.0745095 -0.16217294
0.27771488 1.100036 -0.17521192
0.25051042 1.1724385 -0.1971229
0.22024286 1.2545885 -0.22214873
0.32072639 1.0961019 -0.20884526
0.28800747 1.1385444 -0.22624016
0.25590488 1.1941154 -0.24721897
0.21736266 1.2359017 -0.26718876
0.30202615 1.0285285 -0.23772554
0.28074831 1.107733 -0.26464552
0.24922578 1.1623549 -0.28730911
0.2158847 1.2300148 -0.31528032
0.31201154 1.0588405 -0.28876725
0.28842765 1.1344572 -0.31809679
0.22362253 1.0416145 -0.30080068
0.14212406 0.80992556 -0.24139263
0 0 0
0.63048524 2.4746876 0.75848907
0.50999129 2.37518 0.69581491
0.40897092 2.324044 0.65135825
0 0 0
0.63900965 2.5054047 0.66194838
0.50979698 2.365624 0.59497446
0.41456002 2.3395343 0.5596441
0 0 0
0.63079625 2.4746447 0.55317235
0.51090062 2.3663328 0.50023395
0.41649765 2.3407185 0.46743515
0 0 0
0.64094812 2.5117233 0.46165013
0.51149321 2.3632784 0.40693364
0.41631669 2.3345039 0.37626138
0 0 0
0.63862205 2.4973314 0.36208764
0.51428777 2.370187 0.31723535
0.41984734 2.3422375 0.28854945
0 0 0
0.63757509 2.4930561 0.26596922
0.51566386 2.3719337 0.22774154
0.42080823 2.3410101 0.20090142
0 0 0
0.64182496 2.5063934 0.17234495
0.5159651 2.3705292 0.13882205
0.42066082 2.3357418 0.11283623
0 0 0
0.64294428 2.5056686 0.077408329
0.51960647 2.381458 0.050121702
0.42368919 2.3469207 0.026015801
0 0 0
0.65210044 2.5374882 -0.017879363
0.5199644 2.3785138 -0.039182175
0.42425707 2.3451498 -0.061116412
0 0 -0
0.64048147 2.4884918 -0.11124727
0.51968831 2.3703098 -0.12827756
0.42450094 2.3432291 -0.14857133
0.391368 1.3166465 -0.096965685
0.33435807 1.2962844 -0.10723986
0.51593304 2.3514163 -0.21573988
0.41842905 2.3058119 -0.2327528
0.35756382 1.2016931 -0.13491809
0.28650337 1.1087544 -0.13412163
0.25885326 1.1782758 -0.15269999
0.22975966 1.2643642 -0.17550726
0.31642058 1.0602373 -0.16030888
0.27677798 1.0686531 -0.17048059
0.25303349 1.1496783 -0.19355361
0.22141416 1.2173519 -0.21579179
0.3237794 1.0818622 -0.20650677
0.29474139 1.1358052 -0.22605099
0.25688928 1.1638104 -0.24126667
0.21863021 1.1999043 -0.25969166
0.31619412 1.0528367 -0.24378777
0.28092134 1.0805318 -0.25855392
0.25656277 1.1617531 -0.28754404
0.21874419 1.2029107 -0.30867115
0.31794432 1.0550536 -0.28826109
0.29221743 1.120527 -0.31468767
0 0 -0
0.13833761 0.76089245 -0.22702737
0 0 0
0.64468831 2.4670627 0.75735021
0.52517825 2.3748221 0.69664097
0.42650807 2.3395088 0.65641367
0 0 0
0.65976435 2.5220556 0.66740471
0.53313911 2.4022682 0.60500216
0.43101579 2.3484349 0.56239527
0.74441874 2.4654882 0.58488482
0.64992392 2.4858565 0.55655956
0.52604818 2.3660214 0.50084108
0.43191913 2.3439088 0.46859267
0 0 0
0.66931015 2.5572696 0.47076741
0.53220522 2.3880084 0.41174647
0.4299157 2.3280208 0.37563455
0.76481074 2.5343044 0.39836574
0.65317965 2.4904923 0.36167035
0.53444242 2.3921468 0.32060742
0.43602261 2.3493779 0.28975326
0 0 0
0.65513146 2.4977565 0.26689452
0.53281772 2.380384 0.22886248
0.43516448 2.3383842 0.20090142
0 0 0
0.65440387 2.4917922 0.17161383
0.53726846 2.3975191 0.14059304
0.43535087 2.3350804 0.11293121
0.78836042 2.6062534 0.10750576
0.6631397 2.5200427 0.077976629
0.53881049 2.39871 0.050553426
0.4402858 2.3560717 0.026146697
0 0 0
0.6625613 2.5140998 -0.01774288
0.53410983 2.3733275 -0.039149992
0.44103056 2.3552761 -0.06144968
0 0 -0
0.65344399 2.4758215 -0.11085799
0.53752017 2.3816884 -0.12906939
0.43905464 2.3415611 -0.14863358
0.39450806 1.2979953 -0.095768571
0.34918743 1.3202276 -0.10939585
0.52925426 2.3433487 -0.21529359
0.43458989 2.3139591 -0.23383999
0.35943201 1.1814035 -0.13288523
0.29380995 1.1088958 -0.13435429
0.2612642 1.1553769 -0.14993733
0.23696396 1.2600094 -0.1751013
0.30761176 1.0081072 -0.15270928
0.28510547 1.0736209 -0.17154896
0.26204509 1.1567653 -0.19501378
0.2266928 1.204353 -0.2137301
0.31343046 1.0243574 -0.19589363
0.29514071 1.1093031 -0.22113271
0.26228845 1.154566 -0.23967938
0.22888817 1.2139183 -0.26302367
0.31004032 1.0098121 -0.23426141
0.28704426 1.0769051 -0.25810269
0.25786972 1.1345652 -0.28120112
0.22558303 1.1986873 -0.30793682
0.32013968 1.0392144 -0.28446487
0.29210865 1.0926096 -0.30734494
0.25774184 1.1326305 -0.32797331
0.14442314 0.767573 -0.22928074
0 0 0
0.66477478 2.4815798 0.7630446
0.54742008 2.4053004 0.70655364
0.44425032 2.3548453 0.66146916
0 0 0
0.65916806 2.458075 0.65153182
0.55154467 2.4150455 0.60906094
0.44705164 2.3543525 0.56445867
0 0 0
0.68692356 2.5630074 0.57476574
0.54994738 2.4037988 0.50954252
0.44757909 2.3479614 0.46994308
0 0 0
0.67274302 2.5074723 0.46235144
0.55169684 2.4058437 0.41539755
0.44845423 2.3476515 0.37923887
0 0 0
0.67436194 2.5084329 0.36486971
0.5526644 2.4042842 0.32268256
0.45173985 2.3534827 0.29059589
0 0 0
0.67096156 2.4956107 0.26710013
0.54964781 2.3867722 0.22979662
0.45251736 2.3513258 0.20224805
0 0 0
0.67253393 2.4983284 0.17234495
0.5551092 2.4077973 0.14139283
0.45004869 2.3343267 0.11302619
0 0 0
0.68119287 2.5255768 0.078275733
0.55441892 2.399255 0.050635662
0.45492378 2.3543077 0.026157603
0 0 0
0.69518518 2.5737023 -0.018193277
0.556104 2.4021511 -0.039681002
0.45566398 2.353507 -0.061475314
0.77249956 2.4925394 -0.08838997
0.67488402 2.494911 -0.11189607
0.55483359 2.390018 -0.12970285
0.45626321 2.3535204 -0.14956762
0.40956733 1.3184129 -0.097458608
0.32233581 1.1891404 -0.098695815
0.54362279 2.3400571 -0.21529359
0.44840053 2.3092952 -0.23364231
0.36431235 1.1715806 -0.13202928
0.30399194 1.1195327 -0.13586649
0.26407835 1.1353927 -0.1475514
0.23410137 1.2040666 -0.1675235
0.31791654 1.0194277 -0.15471672
0.29090917 1.0689906 -0.17109109
0.26219678 1.1253443 -0.18998429
0.23182032 1.1913354 -0.21166839
0.31648049 1.0120876 -0.19391491
0.29961711 1.098945 -0.21943025
0.27092871 1.1596158 -0.24106824
0.23520961 1.2067311 -0.26177418
0.32412174 1.0330416 -0.24010713
0.28953966 1.0600868 -0.25449285
0.26991498 1.1547312 -0.28660432
0.23182283 1.1915703 -0.30646813
0.3230243 1.0261569 -0.28142789
0.29549286 1.0786974 -0.30393583
0.26775679 1.1441464 -0.33177748
0.14894697 0.76573056 -0.22899906
0 0 0
0.67922777 2.4746807 0.7621904
0.56676918 2.4215531 0.712336
0.45813748 2.3492367 0.66067094
0 0 0
0.69887716 2.5436616 0.67534113
0.57190305 2.43525 0.61502981
0.46261394 2.357296 0.56583434
0 0 0
0.69332016 2.524816 0.56714457
0.56378943 2.3965662 0.50873309
0.46444288 2.3576863 0.47245097
0 0 0
0.69646621 2.5336747 0.46796209
0.5650906 2.3966546 0.41440183
0.46361575 2.3487313 0.37986571
0 0 0
0.69105548 2.5090215 0.36556524
0.57493234 2.4326921 0.3269625
0.46926185 2.3662469 0.29252198
0 0 0
0.69180888 2.5115855 0.26925915
0.57047582 2.4095135 0.23231879
0.46926808 2.3602331 0.20325804
0 0 0
0.69607413 2.523973 0.17440538
0.57793158 2.4383469 0.14339232
0.4670949 2.3452363 0.11369105
0 0 0
0.69694287 2.5223131 0.078305639
0.5823012 2.4512532 0.0518075
0.47249267 2.3671615 0.026332133
0 0 0
0.70723051 2.5558956 -0.018097738
0.57430512 2.4132845 -0.039922372
0.47323284 2.3663509 -0.061885491
0.88402617 2.7916949 -0.09918905
0.70031774 2.5273089 -0.1135397
0.57481903 2.4089093 -0.130917
0.47265515 2.3604629 -0.15019029
0.96173996 3.0301254 -0.22442238
0.36989605 1.3321711 -0.11075331
0 0 -0
0.46764904 2.3318682 -0.23621199
0.37089208 1.167428 -0.1318153
0.31537998 1.1339134 -0.13784401
0.26688793 1.1163827 -0.14529103
0.24246028 1.2074646 -0.16820009
0.33948764 1.0655489 -0.16202955
0.2964015 1.0633775 -0.17048059
0.27254385 1.1381087 -0.19241793
0.23679668 1.1783006 -0.20960668
0.34274012 1.0729082 -0.20596713
0.30609035 1.0961401 -0.21924108
0.27391976 1.140777 -0.23749687
0.24010046 1.1928002 -0.25906688
0.32360086 1.0096503 -0.23512746
0.29000252 1.0367117 -0.24930373
0.26836747 1.1171384 -0.27767733
0.23511884 1.1701632 -0.30132768
0.32664925 1.0158664 -0.27915013
0.30210605 1.076864 -0.30393583
0.27364689 1.1378036 -0.33041885
0 0 -0
0 0 0
0.70062488 2.492615 0.76902372
0.59105945 2.4572868 0.72390079
0.47501755 2.3586662 0.66412997
0 0 0
0.70869923 2.5188096 0.66988486
0.58797371 2.4364147 0.61622357
0.47880906 2.362999 0.56789774
0 0 0
0.71223861 2.5327454 0.56989664
0.58745795 2.4301856 0.51662517
0.48261607 2.3730612 0.47611639
0 0 0
0.71573412 2.5426211 0.47041672
0.5913952 2.4410625 0.42269984
0.48235703 2.3671331 0.38331336
0 0 0
0.71396428 2.5314207 0.36946017
0.59546357 2.4522436 0.3300752
0.48695737 2.3788841 0.29444805
0 0 0
0.70828676 2.5111227 0.26967037
0.59489781 2.4456317 0.23614873
0.48434231 2.3602376 0.20351054
0 0 0
0.71073431 2.5167737 0.17420599
0.59500796 2.4434848 0.14390647
0.48710755 2.3697219 0.11502077
0 0 0
0.7143113 2.5247219 0.078515023
0.6037308 2.4738588 0.05236258
0.48983285 2.3779292 0.026484849
0 0 0
0.7117238 2.5120616 -0.017817946
0.59978694 2.4534221 -0.040646475
0.49097636 2.3790674 -0.062295672
0.91959244 2.8432739 -0.10122024
0.71226686 2.5104694 -0.11297741
0.5910154 2.4111564 -0.13123374
0.48733175 2.3584955 -0.15025257
